ncols 427
nrows 31
xllcorner    529116
yllcorner    189818
cellsize     2
NODATA_value -9999
89.329 89.336 89.426 89.294 88.829 88.796 89.469 92.621 91.046 91.764 90.146 89.631 88.811 88.814 88.954 88.544 89.124 90.571 91.994 90.696 94.401 89.691 90.164 90.891 91.494 91.821 92.929 90.876 88.989 87.281 87.011 86.931 87.091 86.851 87.301 87.246 88.389 87.296 86.779 86.654 86.626 86.594 86.638 86.643 87.041 87.306 88.458 89.578 89.603 89.586 89.613 89.551 88.353 92.356 90.566 87.233 86.358 92.988 87.683 87.886 87.568 90.423 85.601 85.023 88.368 85.623 89.593 85.648 92.476 91.108 88.543 93.186 92.136 88.763 87.976 90.166 88.723 85.403 83.138 82.961 82.808 82.761 82.718 82.738 82.746 82.693 82.663 82.573 82.531 82.573 82.588 83.066 82.941 82.343 81.176 81.583 81.011 81.623 81.483 81.416 81.846 81.866 86.233 88.678 88.781 82.866 83.241 90.233 90.623 89.458 86.591 86.981 85.788 81.931 81.751 81.761 81.838 81.961 82.006 82.071 82.128 82.151 82.258 82.411 82.518 82.578 82.566 82.496 82.471 82.486 82.521 82.543 82.588 82.623 82.641 82.676 82.681 82.733 82.893 85.908 83.991 84.556 84.993 86.481 83.161 83.016 83.101 83.058 83.111 83.173 83.516 83.631 83.423 83.553 83.643 83.678 83.756 83.928 84.001 84.136 84.211 84.328 84.411 84.493 84.608 86.316 87.011 86.536 86.138 85.433 85.603 85.723 85.853 86.041 86.413 86.871 87.376 87.828 88.063 88.116 88.068 87.958 87.971 87.981 87.991 88.008 87.991 87.926 88.131 88.328 88.611 88.926 89.388 89.761 89.921 90.051 90.096 90.221 90.136 90.016 89.773 89.466 89.161 88.808 88.613 88.408 88.218 88.306 88.346 88.388 88.373 88.466 88.563 88.596 88.591 88.528 88.261 87.781 87.348 86.966 86.601 86.318 86.031 85.771 85.478 85.228 84.998 84.766 84.531 84.341 84.113 83.881 83.643 83.448 83.263 83.026 82.783 82.526 82.326 82.273 82.216 81.808 81.728 81.696 81.583 81.398 81.183 80.986 80.803 80.686 80.521 80.328 80.158 79.971 79.836 79.698 79.536 79.418 79.293 79.148 78.971 78.768 78.623 78.421 78.173 77.893 77.568 77.316 77.116 76.803 76.551 76.268 75.976 75.706 75.381 75.063 74.978 74.991 74.763 74.416 74.133 73.861 73.633 73.413 73.216 72.991 72.838 72.726 72.578 72.338 72.011 71.781 71.596 71.381 71.143 72.048 75.083 72.361 74.333 73.616 70.318 69.913 69.533 69.323 69.196 69.061 71.328 70.408 71.001 72.231 72.906 69.151 67.388 67.076 66.848 66.686 66.498 66.238 65.988 65.768 65.561 65.352 65.138 64.96 64.734 64.495 64.287 64.094 63.871 63.662 63.457 63.213 62.921 62.672 62.466 62.248 62.033 61.848 61.702 61.509 61.279 61.029 60.822 60.575 60.37 60.209 60.01 60.436 60.378 60.212 60.647 59.594 58.764 58.601 58.347 58.157 57.904 57.753 57.477 57.324 57.083 56.836 56.56 56.276 56.286 56.558 56.401 55.903 56.006 55.666 55.111 54.951 54.603 54.471 54.421 54.173 53.886 53.668 53.366 53.528 53.236 52.956 53.451 53.386 53.181 53.743 53.056 51.971 51.676 51.013 50.796 50.683 50.581 50.208 49.891 49.633 49.416 49.136 48.868 48.621 48.343 47.946 47.601 47.303 46.928 46.591 46.413 46.103 45.918 45.801 45.698 45.631 45.713 45.601 45.458 45.251 44.981 44.768 44.523 44.291 43.958 43.688 43.428 43.223 43.043 42.871 42.753
89.531 89.544 89.556 89.454 88.961 88.851 90.544 92.226 91.156 92.274 91.639 89.759 88.959 90.526 90.869 88.856 89.151 89.774 90.429 92.911 94.099 89.391 92.414 90.199 94.219 93.234 90.314 90.299 87.421 87.791 88.294 86.999 86.891 86.841 87.349 87.531 87.289 86.724 86.664 86.619 86.656 86.676 87.031 87.436 88.813 89.578 89.588 89.621 89.596 89.353 89.101 87.563 91.461 89.821 90.201 87.448 88.683 86.721 86.486 87.598 88.616 88.096 87.891 91.021 88.091 89.393 86.318 86.146 86.953 87.856 90.651 89.531 92.728 89.291 87.888 86.651 88.201 83.316 83.118 82.903 82.868 82.861 82.873 82.786 82.696 82.688 82.638 82.593 82.551 82.596 82.588 82.666 82.791 82.638 82.281 81.648 80.621 80.836 82.658 82.241 81.458 83.138 84.131 84.398 85.108 82.001 84.933 86.058 89.708 89.398 87.261 84.428 82.021 81.586 81.653 81.731 81.773 81.871 81.916 81.978 81.988 82.098 82.268 82.348 82.363 82.406 82.356 82.328 82.328 82.341 82.348 82.386 82.478 82.491 82.508 82.526 82.546 82.568 82.658 84.003 82.993 84.513 86.008 85.023 83.056 83.856 83.296 82.858 82.913 82.983 83.073 83.176 83.253 83.338 83.361 83.378 83.556 83.693 83.756 83.853 83.936 84.038 84.061 84.181 84.296 84.921 85.966 84.838 87.133 85.048 85.191 85.353 85.421 85.561 85.896 86.361 86.801 87.333 87.793 88.063 88.101 88.088 88.053 87.953 87.996 88.006 88.061 87.996 87.963 87.981 88.111 88.228 88.406 88.616 88.738 88.733 88.811 88.908 88.813 88.741 88.623 88.486 88.413 88.298 88.241 88.243 88.308 88.341 88.363 88.368 88.426 88.516 88.591 88.596 88.503 88.316 87.941 87.423 86.861 86.468 86.188 85.958 85.701 85.458 85.203 84.966 84.756 84.566 84.288 84.078 83.883 83.651 83.441 83.221 83.013 82.796 82.533 82.288 82.146 82.101 81.923 81.696 81.646 81.558 81.363 81.178 80.988 80.761 80.626 80.491 80.338 80.183 80.033 79.868 79.698 79.551 79.383 79.258 79.148 79.011 78.826 78.633 78.451 78.238 77.973 77.686 77.416 77.111 76.893 76.623 76.341 76.073 75.813 75.523 75.208 74.913 74.821 74.793 74.606 74.288 73.986 73.758 73.561 73.363 73.103 72.928 72.813 72.696 72.443 72.123 71.838 71.608 71.403 71.196 71.008 71.818 72.371 71.283 72.991 72.051 71.038 70.206 69.583 69.201 68.996 68.733 70.546 69.896 69.031 71.051 69.616 69.038 67.073 66.803 66.576 66.311 66.096 65.906 65.678 65.476 65.271 65.098 64.911 64.726 64.5 64.295 64.089 63.864 63.601 63.397 63.206 62.967 62.69 62.47 62.291 62.107 61.932 61.725 61.561 61.312 61.027 60.78 60.569 60.354 60.135 59.976 59.833 60.019 60.374 60.253 60.052 60.085 58.814 58.4 58.171 57.952 57.759 57.608 57.452 57.183 56.949 56.733 56.401 56.148 56.073 55.951 55.608 55.618 55.928 55.466 54.691 54.648 54.306 54.756 54.001 53.738 53.993 53.438 53.228 53.306 53.148 53.021 52.578 53.976 53.493 54.131 53.718 52.273 51.573 50.898 50.603 50.378 50.188 49.991 49.911 49.446 49.213 49.068 48.701 48.436 48.123 47.688 47.411 47.071 46.743 46.426 46.268 46.061 45.898 45.761 45.631 45.663 45.708 45.568 45.363 45.131 44.908 44.651 44.446 44.198 43.941 43.628 43.366 43.166 42.966 42.848 42.723
89.666 89.714 89.721 89.684 89.396 89.486 90.696 93.351 94.256 93.539 91.001 89.136 90.664 96.071 94.851 91.764 94.299 89.544 90.749 92.109 92.249 91.889 90.944 88.316 88.701 94.419 93.244 89.141 87.271 87.929 87.459 87.191 86.901 86.816 86.726 86.719 86.699 86.701 86.666 86.676 87.381 87.639 89.201 90.311 90.361 89.573 89.576 91.026 90.398 88.423 87.543 91.586 89.193 92.301 88.201 87.708 88.148 91.068 90.841 90.166 85.713 88.746 89.531 84.713 89.128 84.636 84.776 84.391 85.901 86.193 86.481 91.691 91.101 92.726 88.413 84.528 84.856 83.281 83.093 83.023 82.966 82.853 82.791 82.776 82.691 82.666 82.653 82.611 82.578 82.586 82.581 82.606 82.553 82.973 82.426 81.623 80.713 82.156 82.506 82.771 82.548 84.611 83.341 82.756 82.758 84.726 82.976 82.608 86.701 83.943 82.991 81.706 81.416 81.531 81.598 81.681 81.753 81.773 81.836 81.856 81.906 82.081 82.201 82.218 82.201 82.846 83.036 82.216 82.216 82.211 82.221 82.218 82.306 82.343 82.353 82.398 82.438 82.418 82.388 82.448 82.478 83.733 85.326 83.611 83.033 83.296 83.346 82.696 82.768 83.311 85.286 86.803 85.438 83.316 83.071 83.163 83.328 83.431 83.481 83.566 83.653 83.708 83.758 83.813 83.953 84.801 85.976 89.143 87.773 85.466 85.576 84.991 85.038 85.111 85.398 85.803 86.241 86.688 87.201 87.648 87.978 88.118 88.143 88.128 88.021 88.013 88.028 88.058 88.061 88.038 88.023 88.026 88.096 88.171 88.178 88.221 88.236 88.228 88.233 88.243 88.228 88.196 88.223 88.211 88.296 88.348 88.356 88.328 88.323 88.381 88.503 88.556 88.576 88.518 88.326 88.001 87.576 87.086 86.596 86.103 85.828 85.596 85.408 85.196 84.938 84.738 84.538 84.301 84.043 83.816 83.616 83.406 83.208 82.986 82.783 82.536 82.308 82.106 81.913 81.898 81.713 81.603 81.521 81.366 81.181 80.951 80.776 80.613 80.473 80.321 80.203 80.043 79.883 79.733 79.603 79.408 79.251 79.096 78.976 78.843 78.651 78.481 78.263 78.023 77.748 77.476 77.203 76.936 76.686 76.423 76.163 75.881 75.558 75.281 75.006 74.746 74.701 74.598 74.398 74.123 73.891 73.648 73.466 73.271 73.056 72.903 72.783 72.578 72.246 71.923 72.043 73.823 73.758 71.823 70.931 70.708 71.688 71.898 72.118 70.818 72.461 70.856 69.508 68.951 68.721 68.568 68.381 68.166 68.981 70.211 70.371 68.751 66.818 66.536 66.318 66.058 65.823 65.568 65.341 65.173 65.006 64.783 64.591 64.456 64.278 64.068 63.843 63.602 63.369 63.188 62.974 62.763 62.563 62.353 62.159 61.977 61.808 61.586 61.339 61.046 60.792 60.578 60.35 60.134 59.991 59.83 59.619 59.445 60.605 59.728 60.241 59.458 58.989 58.273 57.999 57.746 57.572 57.348 57.219 57.028 56.805 56.436 56.214 55.942 55.819 55.706 55.391 55.228 55.071 55.188 54.581 54.618 54.278 54.046 53.616 53.376 54.136 54.546 52.928 52.871 53.036 52.853 53.253 52.573 52.208 52.556 52.501 51.461 51.258 50.726 50.398 50.153 49.943 49.673 49.708 49.383 49.183 48.823 48.433 48.121 47.838 47.523 47.183 46.883 47.626 46.221 46.071 45.961 45.813 45.731 45.638 45.726 45.616 45.481 45.266 45.003 44.801 44.593 44.353 44.128 43.853 43.606 43.343 43.126 42.951 42.801 42.713
90.096 89.951 89.899 89.914 90.161 90.586 91.541 92.929 90.394 91.789 89.604 89.261 92.199 98.641 94.436 90.981 97.086 94.411 94.314 89.244 95.656 92.731 94.769 88.319 87.404 90.286 92.494 91.361 87.414 87.139 87.061 87.016 86.934 86.809 86.744 86.694 86.684 86.759 87.241 87.716 89.396 89.804 89.708 92.141 92.661 90.326 90.453 91.281 89.526 89.153 89.153 92.191 87.261 88.016 85.151 85.563 91.613 89.346 90.838 88.241 85.558 92.241 88.413 86.373 87.376 85.011 84.393 84.311 84.256 85.648 87.413 87.396 90.213 92.096 87.748 83.441 83.406 83.168 83.076 82.983 82.903 82.868 82.768 82.746 82.711 82.683 82.668 82.668 82.628 82.576 82.568 82.593 82.576 82.896 82.993 81.836 81.608 80.871 81.301 81.018 80.863 81.466 81.093 81.548 82.061 83.011 82.338 82.483 82.251 81.518 81.408 81.311 81.378 81.396 81.548 81.593 81.658 81.716 81.728 81.853 81.968 82.018 82.008 82.113 83.053 84.068 85.671 83.233 82.048 82.091 82.101 82.111 82.121 82.161 82.213 82.273 82.268 82.256 82.261 82.241 82.248 82.281 82.491 82.456 82.621 82.663 82.521 82.581 83.353 86.628 82.661 84.301 87.863 82.793 83.466 82.971 83.056 83.133 83.191 83.253 83.333 83.358 83.373 83.418 84.626 86.568 85.741 86.393 85.591 87.801 85.883 85.106 84.748 84.716 84.851 85.198 85.646 86.068 86.558 87.053 87.498 87.883 88.088 88.161 88.161 88.106 88.031 88.016 88.083 88.061 88.093 88.081 88.093 88.086 88.116 88.101 88.171 88.206 88.221 88.213 88.218 88.246 88.258 88.288 88.293 88.363 88.328 88.413 88.456 88.488 88.526 88.566 88.498 88.288 88.036 87.636 87.178 86.711 86.296 85.856 85.566 85.328 85.136 84.923 84.708 84.503 84.301 84.046 83.778 83.543 83.328 83.121 82.893 82.718 82.506 82.288 82.091 81.876 81.731 81.633 81.616 81.521 81.376 81.188 80.983 80.791 80.593 80.448 80.331 80.188 80.063 79.908 79.698 79.538 79.416 79.281 79.093 78.936 78.788 78.651 78.481 78.273 78.028 77.763 77.506 77.261 77.003 76.748 76.493 76.208 75.963 75.671 75.383 75.103 74.811 74.568 74.553 74.466 74.221 73.971 73.753 73.533 73.356 73.213 73.018 72.911 72.683 72.371 72.038 71.788 73.373 77.173 77.596 74.646 71.546 71.291 73.031 71.411 74.503 71.893 74.028 70.776 69.236 68.808 68.568 68.333 68.038 67.896 67.776 68.051 67.886 66.851 66.571 66.343 66.151 65.886 65.586 65.338 65.078 64.848 64.638 64.441 64.296 64.161 63.983 63.778 63.571 63.323 63.124 62.965 62.771 62.57 62.386 62.2 62.011 61.854 61.648 61.39 61.115 60.869 60.625 60.394 60.157 59.981 59.808 59.67 59.396 59.503 59.981 59.911 59.407 58.736 58.487 58.107 57.821 57.599 57.364 57.16 56.981 56.828 56.64 56.354 56.092 55.743 55.652 58.14 57.021 55.634 54.752 54.601 54.391 54.811 56.651 53.808 53.426 53.198 53.218 54.936 54.446 52.501 52.501 52.471 53.016 52.343 51.801 53.108 52.248 51.303 51.118 50.293 51.128 49.998 49.818 49.401 49.243 49.193 48.851 48.693 48.431 47.966 47.643 47.323 46.941 47.883 47.193 47.428 45.911 45.891 45.756 45.653 45.766 45.713 45.581 45.398 45.148 44.901 44.686 44.466 44.258 44.051 43.748 43.516 43.226 43.058 42.928 42.793 42.721
90.606 90.279 90.009 89.964 92.441 91.399 93.616 94.204 94.229 92.801 91.456 89.684 97.104 100.119 90.874 89.574 96.839 92.991 95.234 90.751 90.564 92.581 96.304 90.989 88.434 90.829 89.836 90.419 88.849 87.189 87.109 87.006 86.901 86.774 86.721 86.801 87.489 87.941 89.479 89.624 89.649 91.614 90.186 93.976 92.561 90.321 91.838 91.751 91.438 88.666 94.296 92.916 85.738 85.103 86.158 87.326 87.428 90.758 92.836 87.008 87.008 89.696 86.886 86.801 86.491 84.351 84.301 84.196 84.138 84.783 87.703 89.331 89.458 91.006 85.326 83.298 83.148 83.068 83.011 82.953 82.891 82.821 82.788 82.753 82.731 82.726 82.698 82.673 82.643 82.621 82.553 82.576 82.588 82.898 83.201 82.961 81.513 80.731 80.801 80.966 81.226 81.003 80.831 80.793 80.878 81.016 81.198 81.113 81.288 81.518 81.683 81.323 81.291 81.386 81.471 81.511 81.518 81.581 81.721 81.838 81.861 81.881 82.801 83.576 84.151 84.256 84.583 83.401 81.936 81.948 81.973 81.983 81.993 82.021 82.066 82.113 82.083 82.096 82.128 82.121 82.828 82.858 82.191 82.278 82.851 82.323 82.361 85.588 87.806 84.186 82.501 87.283 82.613 82.718 83.593 82.683 82.743 82.831 82.911 82.951 83.023 83.071 83.088 83.411 85.443 86.771 85.813 85.043 84.971 86.436 84.721 85.956 84.358 84.398 84.421 84.646 85.068 85.483 85.938 86.418 86.896 87.396 87.766 88.038 88.158 88.188 88.181 88.116 88.118 88.111 88.138 88.173 88.173 88.183 88.136 88.176 88.233 88.253 88.258 88.268 88.278 88.278 88.308 88.311 88.368 88.328 88.346 88.481 88.513 88.541 88.566 88.506 88.296 87.956 87.601 87.188 86.723 86.271 85.896 85.608 85.313 85.086 84.886 84.671 84.461 84.268 84.036 83.801 83.523 83.288 83.073 82.861 82.643 82.411 82.248 82.008 81.843 81.683 81.576 81.553 81.533 81.373 81.161 80.971 80.783 80.591 80.436 80.278 80.148 80.018 79.883 79.718 79.523 79.398 79.243 79.118 78.948 78.776 78.611 78.461 78.276 78.073 77.798 77.531 77.298 77.016 76.801 76.553 76.298 76.033 75.788 75.503 75.198 74.921 74.611 74.426 74.383 74.303 74.071 73.826 73.611 73.413 73.296 73.168 73.023 72.801 72.513 72.171 71.933 71.718 75.793 78.598 78.308 74.851 76.093 73.213 73.123 70.818 72.316 71.248 70.553 69.803 68.898 68.596 68.338 68.076 67.818 67.563 67.331 67.083 66.853 66.611 66.358 66.103 65.893 65.653 65.418 65.128 64.848 64.611 64.371 64.193 63.986 63.843 63.688 63.458 63.256 63.066 62.921 62.756 62.569 62.39 62.201 62.018 61.847 61.648 61.411 61.189 60.977 60.746 60.481 60.273 60.077 59.862 59.623 59.427 59.181 59.039 58.835 58.639 58.551 58.907 58.139 57.885 57.618 57.378 57.185 56.971 56.792 56.585 56.4 56.151 55.968 55.683 55.718 56.58 58.187 55.157 54.737 54.413 54.269 55.019 54.056 53.528 53.296 53.098 52.898 53.586 52.566 52.363 51.976 52.133 51.883 51.591 52.046 51.823 51.901 51.238 50.383 50.043 49.906 49.698 49.401 49.166 49.043 48.788 48.646 48.346 48.108 47.756 47.353 47.041 46.783 46.498 48.533 48.621 45.966 45.861 45.723 45.858 45.753 45.666 45.493 45.256 45.056 44.808 44.571 44.383 44.153 43.918 43.658 43.423 43.168 42.986 42.873 42.781 42.748
93.319 90.864 90.214 90.101 91.054 92.744 92.271 93.221 92.069 94.489 95.109 92.499 97.264 101.994 91.794 95.276 93.731 97.494 93.369 92.559 89.306 90.736 93.739 91.901 91.881 88.726 89.426 89.641 89.501 87.524 87.109 87.026 86.924 87.016 87.546 88.139 89.589 89.631 89.626 89.639 89.626 91.114 93.358 93.956 89.396 88.546 91.098 91.806 89.596 91.846 92.906 91.498 86.181 85.048 84.961 85.056 87.278 86.323 87.911 90.311 86.226 88.943 89.793 92.446 85.156 84.436 84.358 84.336 84.168 84.136 84.058 87.708 85.568 88.751 83.328 83.228 83.128 83.036 82.983 82.931 82.863 82.823 82.813 82.793 82.753 82.736 82.713 82.706 82.658 82.643 82.561 82.543 82.588 82.598 82.803 83.251 82.563 80.828 80.931 80.861 81.121 81.661 81.623 81.276 81.158 80.996 81.236 81.636 82.126 81.853 81.596 81.193 81.238 81.368 81.393 81.431 81.441 81.518 81.663 81.716 81.736 81.863 84.368 85.141 83.408 85.273 85.253 83.388 82.693 81.828 81.831 81.848 81.948 82.061 82.738 81.911 81.933 81.941 82.046 86.431 87.518 85.086 82.063 82.108 82.318 82.136 82.486 85.863 88.041 89.276 86.371 85.436 82.771 82.268 84.131 82.501 82.443 82.491 82.553 82.641 82.703 82.773 82.838 85.421 85.151 86.616 84.498 87.266 87.871 86.686 85.813 85.923 83.928 84.113 84.078 84.173 84.481 84.911 85.353 85.813 86.306 86.813 87.276 87.673 87.986 88.176 88.233 88.243 88.253 88.236 88.198 88.141 88.176 88.203 88.166 88.198 88.196 88.226 88.261 88.261 88.306 88.278 88.326 88.336 88.391 88.466 88.498 88.521 88.543 88.536 88.438 88.266 87.963 87.566 87.091 86.603 86.301 85.881 85.768 85.303 85.073 84.821 84.616 84.416 84.206 84.003 83.776 83.538 83.276 83.041 82.838 82.586 82.403 82.181 81.976 81.813 81.671 81.558 81.501 81.503 81.376 81.156 80.943 80.763 80.576 80.408 80.243 80.106 79.973 79.851 79.746 79.558 79.383 79.263 79.113 78.958 78.818 78.641 78.483 78.296 78.113 77.863 77.598 77.328 77.073 76.816 76.598 76.351 76.106 75.858 75.588 75.323 75.041 74.771 74.426 74.263 74.248 74.126 73.908 73.711 73.518 73.396 73.273 73.133 72.908 72.606 72.341 72.111 71.901 71.666 75.301 78.603 75.348 74.608 75.671 73.223 70.496 70.271 70.248 70.093 69.616 69.008 68.651 68.456 68.161 67.881 67.611 67.388 67.133 66.888 66.641 66.396 66.141 65.911 65.688 65.443 65.168 64.898 64.641 64.373 64.171 64.026 63.813 63.601 63.428 63.181 63.013 62.868 62.736 62.548 62.376 62.211 62.008 61.832 61.648 61.408 61.199 60.972 60.801 60.547 60.305 60.122 59.928 59.724 59.479 59.223 59.013 58.861 58.632 58.412 58.231 58.054 57.851 57.645 57.404 57.184 57.01 56.782 56.586 56.38 56.194 55.942 55.748 55.521 55.718 56.102 56.063 55.059 54.875 54.339 54.312 60.425 54.432 54.251 53.596 53.651 52.986 52.573 52.796 52.608 51.948 52.786 53.273 52.011 52.353 53.176 51.188 50.231 50.046 49.808 49.736 49.441 49.196 49.043 48.941 48.608 48.391 48.118 47.858 47.503 47.348 46.948 46.651 46.356 47.843 46.008 45.851 46.766 45.746 45.821 45.701 45.578 45.393 45.171 44.983 44.771 44.498 44.276 44.061 43.818 43.661 43.356 43.118 42.983 42.908 42.803 42.706
91.264 91.721 91.256 92.906 94.159 94.571 91.646 91.856 93.349 92.889 92.456 90.979 93.819 99.186 97.901 92.446 89.156 92.286 97.804 97.734 88.239 89.149 89.234 91.054 89.424 88.994 90.841 89.639 89.574 88.226 87.141 87.019 86.926 87.221 89.426 89.639 90.149 93.209 91.391 89.609 88.554 92.714 90.981 91.941 88.198 89.678 89.788 93.671 88.333 89.003 92.541 92.951 85.176 85.096 85.461 86.008 89.031 94.566 94.418 86.931 85.266 91.483 86.366 90.181 89.821 88.526 87.866 89.218 85.783 87.633 85.326 84.836 84.026 83.576 83.216 83.156 83.113 83.048 82.981 82.911 82.886 82.861 82.836 82.806 82.781 82.738 82.726 82.736 82.688 82.663 82.606 82.558 82.571 82.606 82.631 83.346 83.031 81.253 81.338 81.616 80.953 81.016 81.493 81.753 81.916 81.446 81.541 81.923 81.616 81.648 81.263 81.168 81.233 81.301 81.371 81.336 81.363 81.493 82.713 83.598 82.648 84.803 83.726 85.883 83.653 82.653 83.298 85.188 81.683 81.756 81.773 81.723 82.798 84.531 83.751 82.946 82.023 82.311 82.233 87.996 85.981 85.111 83.343 81.951 81.946 82.011 82.981 83.956 86.531 88.226 94.406 86.198 84.743 84.503 83.271 82.131 82.183 82.236 82.293 82.331 82.388 82.473 82.526 82.718 83.803 82.796 84.591 85.743 85.743 84.713 83.743 84.976 83.676 83.741 83.801 83.816 83.986 84.343 84.781 85.246 85.743 86.226 86.731 87.221 87.661 87.951 88.141 88.241 88.311 88.351 88.358 88.356 88.338 88.326 88.286 88.278 88.296 88.321 88.291 88.371 88.361 88.428 88.453 88.446 88.446 88.511 88.518 88.538 88.466 88.333 88.128 87.886 87.568 87.198 86.798 86.291 85.901 86.893 86.651 85.538 84.781 84.546 84.351 84.166 83.911 83.638 83.491 83.258 83.013 82.806 82.586 82.361 82.141 81.958 81.746 81.601 81.538 81.421 81.298 81.326 81.193 80.973 80.751 80.553 80.381 80.206 80.081 79.926 79.793 79.653 79.543 79.408 79.261 79.106 78.956 78.818 78.643 78.441 78.258 78.066 77.871 77.616 77.348 77.081 76.846 76.608 76.376 76.133 75.898 75.636 75.411 75.148 74.848 74.561 74.256 74.118 74.093 73.906 73.741 73.583 73.463 73.346 73.211 73.026 72.723 72.408 72.166 72.033 71.826 71.686 75.798 77.548 76.686 73.873 73.053 74.796 70.233 69.611 69.438 69.163 68.903 68.711 68.463 68.228 67.983 67.738 67.476 67.176 66.918 66.653 66.413 66.186 65.953 65.731 65.501 65.236 64.933 64.683 64.451 64.256 64.078 63.861 63.633 63.391 63.228 63.028 62.873 62.708 62.563 62.358 62.178 62.006 61.818 61.611 61.408 61.169 60.987 60.806 60.586 60.35 60.151 59.953 59.754 59.556 59.258 59.075 58.806 58.701 58.444 58.202 57.969 57.788 57.584 57.365 57.164 56.95 56.727 56.554 56.369 56.181 55.943 55.739 55.467 55.288 55.211 55.381 56.284 55.462 55.051 54.847 54.777 54.168 53.747 54.558 55.46 55.218 53.156 52.803 52.551 52.148 52.153 51.323 53.426 57.641 57.988 50.898 50.483 49.993 49.726 49.563 49.373 49.158 48.908 48.738 48.521 48.308 48.123 47.843 47.673 47.201 47.306 46.716 46.471 46.238 46.096 46.316 48.486 45.818 45.831 45.803 45.641 45.468 45.228 45.051 44.873 44.633 44.456 44.236 43.981 43.766 43.578 43.311 43.108 42.991 42.841 42.823 42.696
94.234 93.591 93.919 95.561 95.704 93.291 93.099 93.056 91.846 93.736 94.631 92.014 97.011 100.991 92.476 91.389 94.131 90.234 93.884 97.726 92.169 91.576 87.804 87.781 87.776 89.099 90.481 90.041 89.584 89.319 87.341 87.119 87.889 88.654 89.401 89.786 94.091 94.411 91.291 91.349 90.119 88.986 88.881 87.326 86.611 88.753 88.198 89.466 90.913 89.298 90.908 89.391 85.993 85.161 89.726 87.188 85.548 94.306 93.253 90.311 89.443 87.148 84.761 85.531 86.621 86.428 86.861 91.281 85.726 87.043 88.703 84.113 84.056 83.801 83.378 83.146 83.113 83.056 82.996 82.936 82.876 82.848 82.833 82.831 82.798 82.758 82.721 82.698 82.666 82.671 82.621 82.613 82.543 82.591 82.611 83.268 83.366 82.003 81.068 81.756 81.633 81.098 80.886 81.123 81.651 81.806 81.731 81.788 81.436 81.241 81.133 81.141 81.191 81.196 81.241 81.228 81.358 81.408 82.498 85.828 84.983 85.036 85.366 83.371 85.971 84.368 85.318 82.446 81.606 81.846 82.476 82.296 85.031 83.973 85.588 84.013 81.706 81.951 85.573 87.496 86.616 85.096 81.981 81.796 81.851 81.831 84.146 86.416 83.946 85.501 86.708 89.848 84.123 82.311 81.873 81.938 82.478 83.031 82.061 82.103 82.168 82.196 82.251 82.288 82.346 82.608 84.458 84.976 83.741 83.496 83.926 83.998 83.748 83.496 83.476 83.536 83.558 83.818 84.283 84.741 85.208 85.716 86.211 86.723 87.178 87.518 87.786 87.968 88.178 88.303 88.331 88.391 88.386 88.428 88.441 88.443 88.401 88.438 88.488 88.436 88.466 88.461 88.443 88.431 88.461 88.481 88.456 88.371 88.186 87.976 87.713 87.468 87.156 86.821 86.458 86.003 85.601 86.171 91.003 87.513 84.558 84.261 84.048 83.868 83.621 83.348 83.176 82.966 82.761 82.553 82.293 82.063 81.861 81.731 81.576 81.473 81.413 81.271 81.146 81.021 80.941 80.786 80.561 80.376 80.193 80.033 79.911 79.746 79.638 79.488 79.341 79.238 79.098 78.946 78.803 78.658 78.446 78.258 78.073 77.863 77.666 77.363 77.098 76.846 76.608 76.391 76.176 75.948 75.716 75.466 75.208 74.953 74.658 74.336 74.041 73.996 73.961 73.808 73.606 73.486 73.396 73.261 73.098 72.821 72.518 72.231 72.046 71.876 71.693 72.933 73.791 74.693 74.258 73.581 72.596 70.431 69.703 69.458 69.188 68.941 68.726 68.526 68.298 68.041 67.773 67.546 67.296 67.006 66.763 66.506 66.251 65.958 65.733 65.538 65.298 64.998 64.716 64.523 64.311 64.088 63.873 63.673 63.466 63.248 63.078 62.886 62.693 62.496 62.358 62.166 61.991 61.818 61.593 61.348 61.128 60.941 60.788 60.586 60.388 60.176 59.961 59.749 59.538 59.322 59.109 58.811 58.59 58.501 58.244 57.994 57.782 57.568 57.351 57.131 56.902 56.669 56.453 56.28 56.111 55.879 55.701 55.483 55.27 55.066 54.903 55.836 55.394 54.991 55.845 54.738 54.509 54.788 54.394 53.847 54.576 57.273 54.717 52.886 52.531 52.426 51.463 51.303 51.261 51.848 51.643 51.493 50.216 50.263 49.618 49.543 49.171 48.893 48.666 48.531 48.341 48.026 47.761 47.703 48.426 48.378 46.868 46.511 46.333 46.178 46.438 45.956 45.838 45.891 45.816 45.728 45.628 45.391 45.168 44.976 44.746 44.561 44.376 44.143 43.943 43.711 43.461 43.231 43.106 42.983 42.893 42.813 42.723
92.691 93.896 94.074 95.156 95.924 91.499 94.976 95.131 98.319 95.394 97.384 93.604 101.616 101.049 88.849 89.681 93.641 88.769 91.449 94.999 92.306 91.354 87.879 87.821 87.941 88.231 89.686 88.256 89.654 89.581 88.489 87.809 89.799 89.989 89.819 90.979 90.406 93.681 93.244 91.334 92.246 88.906 87.608 88.373 90.458 92.776 91.156 92.813 91.163 90.431 88.831 93.571 90.213 85.648 87.878 85.693 86.778 89.166 93.011 91.918 88.413 86.558 86.528 84.603 84.551 84.621 87.973 90.503 88.421 89.733 86.468 84.276 84.188 84.063 83.686 83.213 83.111 83.073 82.986 82.936 82.891 82.876 82.846 82.838 82.823 82.796 82.751 82.741 82.706 82.658 82.646 82.601 82.538 82.558 82.593 82.851 83.371 83.081 82.053 81.393 81.973 81.908 81.256 81.011 80.941 81.148 81.408 81.173 81.033 81.046 81.058 81.108 81.131 81.133 81.098 81.168 81.283 81.603 83.143 86.223 84.721 84.488 85.316 83.241 84.818 83.151 83.796 81.533 81.531 82.563 84.236 82.886 86.536 86.391 83.603 83.546 82.443 81.581 83.551 83.698 84.456 84.318 84.688 82.653 81.698 81.688 83.331 84.846 86.581 87.921 86.993 84.356 83.616 81.641 81.678 83.158 82.446 83.963 84.361 84.253 82.326 81.986 81.966 81.998 82.078 82.113 82.288 84.426 83.791 83.216 83.466 84.333 84.463 83.523 83.163 83.278 83.311 83.423 83.848 84.271 84.726 85.183 85.651 86.111 86.528 86.848 87.196 87.431 87.641 87.823 88.026 88.196 88.268 88.333 88.376 88.376 88.368 88.381 88.346 88.366 88.323 88.286 88.251 88.228 88.226 88.188 88.091 87.956 87.726 87.441 87.203 86.936 86.626 86.351 86.003 85.643 85.263 88.081 90.878 88.523 86.846 83.936 83.726 83.546 83.296 83.068 82.863 82.681 82.486 82.271 81.978 81.771 81.628 81.523 81.501 81.438 81.281 81.101 80.961 80.786 80.643 80.551 80.383 80.196 79.973 79.838 79.716 79.558 79.451 79.331 79.186 79.051 78.911 78.721 78.546 78.376 78.196 78.003 77.826 77.633 77.393 77.118 76.836 76.628 76.371 76.123 75.966 75.741 75.516 75.278 75.066 74.756 74.438 74.111 73.903 73.881 73.828 73.668 73.513 73.426 73.313 73.126 72.886 72.628 72.406 72.196 72.011 71.761 71.888 71.633 72.676 73.933 72.736 71.593 70.751 69.848 69.528 69.243 69.013 68.816 68.596 68.348 68.081 67.833 67.593 67.326 67.068 66.808 66.586 66.311 66.053 65.811 65.541 65.271 65.026 64.793 64.576 64.331 64.126 63.928 63.723 63.488 63.278 63.098 62.931 62.706 62.483 62.321 62.151 61.958 61.773 61.558 61.303 61.071 60.868 60.706 60.533 60.348 60.138 59.936 59.715 59.549 59.309 59.107 58.921 58.617 58.467 58.357 58.118 57.831 57.568 57.336 57.126 56.875 56.636 56.421 56.187 56.014 55.822 55.61 55.426 55.265 55.112 54.92 54.725 54.76 55.686 55.309 55.296 54.822 56.16 57.051 53.772 53.74 53.658 55.244 54.576 52.304 51.779 51.959 51.506 51.668 51.143 51.018 51.683 50.063 49.811 50.121 49.191 49.248 48.893 48.968 48.391 48.418 48.086 49.756 47.581 48.263 48.966 47.883 46.601 46.383 46.238 46.088 45.948 45.873 45.858 45.866 45.796 45.711 45.601 45.338 45.051 44.863 44.688 44.508 44.246 44.013 43.816 43.598 43.376 43.151 43.086 42.946 42.876 42.818 42.756
93.526 91.504 91.231 95.119 95.614 93.721 95.296 93.386 93.536 94.856 93.759 97.659 96.036 96.661 92.681 93.051 95.784 89.191 93.336 93.209 90.444 88.774 87.916 87.889 87.879 88.326 88.729 88.844 90.496 89.679 89.409 87.984 89.501 88.256 88.371 88.511 92.651 93.604 93.944 91.609 89.089 89.039 87.278 89.566 87.841 87.963 91.503 92.478 89.511 91.611 91.378 95.108 89.251 92.246 89.198 85.358 89.226 91.913 87.491 88.681 86.768 85.081 84.808 84.686 84.616 84.646 85.346 89.116 90.343 85.766 84.316 84.286 84.423 84.121 83.973 83.481 83.128 83.083 83.023 82.971 82.916 82.883 82.881 82.848 82.843 82.838 82.773 82.746 82.716 82.698 82.688 82.641 82.583 82.576 82.603 82.603 83.003 83.301 82.586 81.231 81.661 82.048 82.026 81.918 81.228 81.093 81.158 81.008 81.013 81.071 81.008 81.021 81.031 81.031 81.038 82.033 81.251 81.501 84.211 84.828 84.893 81.721 81.676 81.603 82.811 84.583 83.348 81.446 81.413 81.691 83.316 82.833 82.408 82.863 85.848 84.303 81.856 82.348 81.496 83.066 81.958 83.653 85.033 81.436 81.518 82.073 82.008 85.181 88.456 83.736 84.021 83.306 82.106 81.471 81.476 81.438 84.726 84.838 84.406 85.681 84.193 84.026 81.721 81.728 81.771 81.831 81.951 82.888 83.453 84.501 84.418 83.393 83.808 83.428 83.058 82.928 83.068 83.133 83.331 83.821 84.263 84.651 85.068 85.488 85.811 86.168 86.501 86.768 86.988 87.233 87.498 87.711 87.838 87.938 87.973 88.046 88.091 88.108 88.063 88.056 88.031 87.921 87.838 87.853 87.801 87.698 87.601 87.423 87.193 86.916 86.641 86.366 86.098 85.771 85.308 85.106 84.831 86.303 87.563 86.798 83.836 83.423 83.336 83.163 82.961 82.756 82.581 82.388 82.178 81.956 81.701 81.533 81.496 81.431 81.421 81.343 81.138 80.913 80.748 80.588 80.398 80.233 80.128 79.963 79.783 79.626 79.471 79.343 79.226 79.128 79.001 78.826 78.676 78.476 78.288 78.143 77.943 77.771 77.558 77.381 77.143 76.873 76.648 76.431 76.178 75.971 75.758 75.508 75.316 75.106 74.818 74.536 74.231 73.861 73.771 73.753 73.688 73.538 73.421 73.321 73.163 72.948 72.691 72.436 72.271 72.096 71.878 71.666 71.408 71.236 72.578 71.228 71.733 71.733 69.951 69.696 69.378 69.033 68.801 68.591 68.393 68.153 67.896 67.653 67.411 67.158 66.911 66.653 66.363 66.106 65.838 65.616 65.366 65.111 64.861 64.631 64.368 64.161 63.978 63.773 63.538 63.326 63.156 62.966 62.731 62.506 62.328 62.136 61.973 61.766 61.538 61.283 61.026 60.811 60.576 60.428 60.253 60.081 59.913 59.736 59.566 59.341 59.107 58.901 58.638 58.43 58.353 58.186 57.967 57.713 57.381 58.594 56.908 56.653 56.535 56.175 55.938 55.709 55.579 55.397 55.231 55.027 54.875 54.712 54.494 54.542 55.468 56.052 56.755 55.959 57.5 55.813 54.643 55.606 53.211 53.371 53.876 54.826 52.056 51.813 51.282 50.779 50.687 51.166 50.468 50.283 50.856 49.691 50.941 48.963 48.648 48.441 48.193 48.021 47.891 47.633 48.103 48.228 46.888 46.698 46.483 46.286 46.118 45.991 45.941 45.871 45.891 45.863 45.776 45.631 45.476 45.226 44.971 44.766 44.583 44.398 44.203 43.923 43.723 43.491 43.288 43.143 43.046 42.968 42.886 42.836 42.761
93.571 92.014 94.119 96.874 99.044 98.071 95.731 88.529 90.889 96.419 95.506 95.621 92.361 90.454 94.146 91.681 92.191 94.419 91.734 92.474 87.954 87.971 87.941 89.364 88.746 91.689 91.381 92.664 89.436 92.039 90.379 88.611 88.866 87.754 88.151 88.546 90.964 93.361 94.529 91.819 92.876 89.744 87.691 86.593 86.428 87.706 88.896 88.798 87.738 91.708 92.371 90.421 92.523 88.888 90.206 85.031 85.063 87.508 87.726 86.333 85.406 85.461 85.211 84.768 84.708 84.583 84.528 84.778 85.213 84.331 86.528 87.106 85.803 84.173 84.283 83.906 83.256 83.103 83.066 83.008 82.953 82.923 82.883 82.878 82.886 82.856 82.808 82.756 82.721 82.728 82.681 82.651 82.611 82.573 82.558 82.598 82.653 83.228 82.483 81.586 81.063 82.141 82.126 82.066 81.916 81.378 80.991 81.018 80.981 80.996 80.938 80.931 80.968 80.928 80.996 81.063 81.251 81.386 81.468 82.573 82.243 82.441 81.773 81.433 81.416 81.708 81.566 81.356 81.296 81.323 81.381 81.318 82.921 83.253 84.956 82.438 81.446 81.818 81.976 81.476 82.351 83.046 81.336 81.343 81.331 82.601 81.888 82.451 83.038 83.583 83.348 82.871 81.758 81.268 81.256 83.501 84.426 83.898 83.578 86.261 85.513 84.743 82.503 81.463 81.501 81.608 81.626 81.986 82.438 86.353 83.611 82.933 84.116 83.266 82.873 82.663 82.748 82.903 83.353 83.308 83.773 84.126 84.498 84.868 85.161 85.481 85.746 86.053 86.261 86.523 86.818 87.088 87.231 87.358 87.461 87.528 87.571 87.561 87.576 87.581 87.496 87.416 87.306 87.278 87.246 87.133 87.038 86.876 86.656 86.416 86.183 85.921 85.603 85.293 84.868 84.581 84.346 84.091 83.788 84.086 83.261 83.041 82.863 82.741 82.626 82.461 82.286 82.088 81.843 81.591 81.461 81.376 81.351 81.368 81.293 81.143 80.953 80.746 80.521 80.373 80.218 80.011 79.833 79.693 79.578 79.423 79.293 79.161 79.018 78.896 78.781 78.598 78.453 78.283 78.088 77.916 77.738 77.538 77.326 77.118 76.868 76.648 76.448 76.248 76.003 75.781 75.561 75.318 75.093 74.856 74.611 74.318 74.013 73.668 73.631 73.628 73.503 73.398 73.311 73.168 72.948 72.706 72.531 72.358 72.126 71.881 71.703 71.478 71.241 71.008 70.826 70.566 70.303 70.076 69.773 69.521 69.186 68.883 68.641 68.388 68.201 67.948 67.708 67.478 67.236 66.976 66.718 66.448 66.186 65.926 65.671 65.438 65.171 64.918 64.691 64.466 64.201 64.026 63.783 63.593 63.421 63.228 63.003 62.773 62.553 62.358 62.176 61.998 61.791 61.566 61.308 61.038 60.821 60.633 60.388 60.161 59.978 59.826 59.648 59.473 59.283 59.126 58.918 58.686 58.456 58.283 58.197 58.015 57.849 59.003 57.807 58.064 58.977 59.765 56.733 55.924 55.657 55.47 55.335 55.141 54.947 54.763 54.595 54.427 54.175 53.996 56.081 55.914 55.451 57.428 55.927 54.572 54.815 54.146 54.622 53.375 53.629 52.923 51.768 51.523 51.822 51.376 50.694 51.746 50.774 50.509 49.818 49.263 50.896 49.258 49.166 48.181 49.226 48.221 48.358 48.226 47.658 47.473 46.931 46.581 46.336 46.196 46.078 45.998 45.916 45.998 45.928 45.858 45.671 45.523 45.318 45.121 44.896 44.698 44.523 44.333 44.133 43.881 43.656 43.398 43.221 43.128 43.031 43.003 42.893 42.823 42.726
97.829 93.739 93.246 96.534 95.904 95.066 91.976 95.016 93.139 92.466 94.931 91.974 89.471 87.949 94.181 90.089 88.569 88.376 88.299 88.006 87.994 87.974 89.286 90.261 91.551 92.689 92.456 92.721 90.076 94.881 91.059 89.299 89.089 87.849 88.409 88.251 89.514 92.691 93.581 96.221 94.011 89.446 90.381 87.408 90.541 87.606 87.066 88.958 87.648 88.073 93.746 88.568 87.716 89.976 89.528 85.116 85.258 85.643 86.351 85.591 87.473 86.626 85.746 84.808 84.721 84.613 84.573 84.506 85.056 84.441 86.703 86.926 84.898 84.236 85.951 85.618 84.018 84.108 84.418 84.158 82.983 82.951 82.923 82.916 82.883 82.841 82.803 82.783 82.738 82.723 82.703 82.641 82.566 82.548 82.523 82.613 82.596 82.861 83.073 81.961 81.206 81.533 82.058 81.601 81.461 81.213 81.048 80.968 80.923 80.888 80.896 80.843 80.851 80.813 80.896 81.016 81.268 81.381 81.411 81.356 81.386 81.421 81.403 81.348 81.313 81.286 81.263 81.256 81.216 81.163 81.173 82.536 85.043 83.058 82.261 82.173 81.461 82.306 81.388 81.303 81.313 82.911 81.611 81.148 81.181 81.153 81.173 81.228 81.308 81.931 81.671 81.056 81.048 81.053 81.043 81.161 82.963 80.968 84.126 87.456 85.176 84.233 81.308 81.183 81.223 81.488 83.091 81.931 81.593 82.613 82.358 82.976 84.236 84.016 83.098 82.391 82.416 82.638 85.353 84.841 84.231 83.581 83.931 84.266 84.516 84.803 85.056 85.328 85.543 85.818 86.088 86.338 86.553 86.691 86.791 86.863 86.886 86.926 87.016 87.073 87.028 86.883 86.751 86.693 86.651 86.516 86.416 86.271 86.113 85.976 85.788 85.536 85.208 84.883 84.531 84.118 83.838 83.651 83.391 83.181 82.948 82.753 82.563 82.363 82.308 82.158 81.951 81.726 81.511 81.351 81.271 81.278 81.288 81.218 81.073 80.891 80.676 80.521 80.363 80.171 80.011 79.818 79.603 79.406 79.283 79.171 79.063 78.973 78.826 78.676 78.538 78.376 78.221 78.063 77.883 77.691 77.513 77.263 77.071 76.846 76.651 76.403 76.208 76.053 75.811 75.553 75.351 75.103 74.903 74.663 74.398 74.043 73.738 73.493 73.533 73.506 73.401 73.281 73.166 72.993 72.728 72.556 72.381 72.161 71.966 71.763 71.483 71.263 71.018 70.801 70.636 70.373 70.096 69.851 69.586 69.298 68.983 68.701 68.433 68.176 67.976 67.773 67.531 67.281 67.028 66.783 66.496 66.248 65.998 65.748 65.528 65.246 65.003 64.783 64.531 64.283 64.073 63.883 63.653 63.473 63.301 63.076 62.841 62.626 62.371 62.208 62.023 61.821 61.563 61.301 61.066 60.821 60.598 60.398 60.183 59.943 59.698 59.511 59.331 59.163 59.076 58.903 58.701 58.511 58.198 58.041 59.451 58.326 58.733 60.917 59.057 56.808 61.917 60.005 58.646 55.784 55.519 55.235 55.081 54.93 54.744 54.521 54.349 54.12 53.868 53.985 55.161 54.264 54.776 56.157 54.52 55.235 53.94 54.79 52.636 52.731 53.524 53.03 51.569 51.093 51.849 51.228 50.507 51.949 50.996 50.077 50.271 49.606 51.521 50.138 52.393 48.671 48.696 48.703 48.478 50.081 48.348 47.411 46.756 46.436 46.263 46.131 46.086 45.983 46.086 45.983 45.896 45.756 45.553 45.373 45.181 44.988 44.838 44.623 44.458 44.268 44.041 43.823 43.563 43.336 43.233 43.106 43.021 42.983 42.891 42.836 42.733
100.821 97.871 93.309 92.166 91.799 95.044 97.346 96.834 93.864 93.054 91.469 92.381 88.346 88.049 88.849 88.681 88.229 88.011 87.991 87.989 87.964 87.931 87.899 89.146 93.066 90.021 90.079 94.914 94.361 91.699 90.356 88.686 87.921 87.909 87.934 88.181 88.836 90.294 94.941 95.409 99.019 95.386 94.333 93.298 94.513 90.356 86.398 88.816 90.936 90.631 96.788 94.448 91.018 91.788 88.666 85.293 85.563 85.826 85.776 86.088 89.518 86.408 85.653 85.956 84.801 84.703 85.253 85.061 84.886 84.613 87.333 85.418 84.361 84.308 86.261 86.006 85.253 90.641 92.643 89.111 83.021 82.973 82.918 82.913 82.858 82.856 82.816 82.793 82.753 82.733 82.713 82.638 82.621 82.568 82.548 82.603 82.611 82.606 83.163 82.673 82.136 81.313 81.488 81.236 80.911 81.261 81.568 81.128 80.851 80.826 80.843 80.786 80.736 80.743 80.816 80.986 81.286 81.411 81.431 81.378 81.351 81.336 81.346 81.323 81.268 81.218 81.151 81.161 81.126 81.101 81.096 81.058 82.011 81.813 81.028 81.043 81.061 81.648 81.761 81.278 83.828 82.928 86.721 83.666 84.448 82.241 80.981 81.941 82.661 80.963 80.906 80.846 80.831 80.823 80.798 80.821 84.026 81.726 81.953 84.816 83.853 81.198 80.923 80.961 81.198 81.603 81.688 82.426 82.048 82.006 82.293 82.251 82.978 82.788 82.221 82.071 82.111 82.641 86.598 85.418 86.291 83.728 83.333 83.623 83.883 84.151 84.416 84.641 84.906 85.146 85.413 85.638 85.838 85.946 86.093 86.141 86.096 86.238 86.376 86.476 86.433 86.318 86.133 86.046 85.963 85.888 85.816 85.733 85.616 85.531 85.371 85.098 84.766 84.436 84.141 83.728 83.376 83.166 82.973 82.788 82.566 82.391 82.268 82.133 81.968 81.813 81.603 81.423 81.248 81.213 81.226 81.213 81.158 80.991 80.803 80.606 80.376 80.226 80.138 80.588 79.761 79.578 79.406 79.201 79.178 78.843 78.761 78.713 78.583 78.448 78.291 78.141 77.978 77.823 77.643 77.421 77.223 77.028 76.833 76.598 76.383 76.161 75.953 75.751 75.538 75.321 75.098 74.883 74.671 74.443 74.136 73.793 73.481 73.376 73.383 73.336 73.268 73.173 72.986 72.746 72.538 72.376 72.213 72.023 71.806 71.573 71.296 71.006 70.796 70.563 70.353 70.141 69.868 69.641 69.338 69.031 68.793 68.538 68.241 67.973 67.736 67.563 67.333 67.061 66.808 66.543 66.316 66.038 65.823 65.613 65.381 65.128 64.856 64.613 64.373 64.153 63.923 63.731 63.541 63.358 63.146 62.881 62.661 62.461 62.248 62.051 61.808 61.588 61.316 61.038 60.823 60.636 60.413 60.198 59.966 59.736 59.503 59.338 59.108 59.006 60.481 59.448 59.251 59.136 57.918 59.951 63.263 61.878 60.903 58.261 59.528 59.419 60.078 60.775 56.596 55.505 55.286 55.014 54.834 54.68 54.535 54.322 54.083 53.893 53.691 53.616 54.595 55.091 54.111 55.573 55.334 54.517 54.134 53.232 51.751 52.716 52.141 53.493 53.099 53.045 50.566 50.209 50.796 50.204 50.148 49.89 50.989 50.434 49.306 49.79 50.381 49.718 49.583 49.541 48.868 47.806 47.081 46.796 46.673 46.321 46.221 46.126 46.041 46.053 46.046 45.968 45.798 45.591 45.416 45.233 45.081 44.861 44.731 44.598 44.388 44.233 44.001 43.756 43.486 43.343 43.181 43.103 42.976 42.958 42.908 42.833 42.723
98.851 100.639 92.761 88.656 88.014 91.404 98.319 92.311 95.386 89.686 87.979 88.016 88.061 88.074 88.129 88.094 88.049 87.989 87.946 87.916 87.891 89.461 88.666 87.886 89.591 90.156 92.589 94.291 89.546 91.444 90.964 90.144 88.421 88.164 88.279 88.826 89.126 89.486 91.854 95.399 96.196 94.951 92.658 90.776 92.988 90.458 89.351 89.806 89.718 88.703 93.091 91.548 89.603 91.408 90.703 85.423 85.416 85.683 86.386 87.451 87.141 87.538 87.691 88.363 86.658 85.978 85.823 84.536 84.473 85.186 86.003 88.511 85.513 88.356 86.441 85.708 86.531 96.088 95.118 86.761 83.041 83.016 82.961 82.893 82.906 82.816 82.821 82.838 82.788 82.793 82.723 82.686 82.611 82.613 82.608 82.573 82.593 82.598 82.756 83.276 81.973 81.631 80.901 80.946 81.268 81.791 81.746 81.213 80.803 80.781 80.763 80.681 80.611 80.591 80.736 80.986 81.253 81.366 81.406 81.366 81.336 81.293 81.276 81.228 81.203 81.121 81.101 81.076 81.051 81.113 80.973 81.351 81.121 81.071 80.896 80.886 80.853 80.868 80.936 82.753 84.838 84.346 86.783 87.413 84.248 84.851 85.891 84.141 85.086 81.053 80.678 80.666 80.628 80.578 80.553 81.231 82.143 82.433 83.506 82.188 81.608 80.601 80.656 80.823 81.151 81.446 83.061 82.586 82.271 83.201 81.678 81.893 81.898 81.863 81.666 81.668 81.801 83.821 86.203 84.643 84.326 82.543 82.746 83.056 83.301 83.563 83.801 84.008 84.226 84.506 84.741 84.941 85.121 85.256 85.388 85.458 85.523 85.621 85.741 85.773 85.738 85.616 85.443 85.368 85.301 85.281 85.296 85.251 85.101 84.991 84.836 84.601 84.348 83.991 83.688 83.356 83.041 82.761 82.533 82.366 82.158 81.996 81.901 81.816 81.666 81.466 81.308 81.188 81.088 81.136 81.131 81.263 80.866 80.711 80.516 80.331 80.093 80.001 79.916 79.846 81.016 81.853 81.086 80.606 80.466 78.543 78.453 78.371 78.286 78.181 78.038 77.913 77.758 77.583 77.373 77.181 76.976 76.741 76.551 76.341 76.146 75.936 75.726 75.503 75.308 75.083 74.866 74.701 74.466 74.216 73.866 73.553 73.306 73.268 73.251 73.201 73.158 73.018 72.758 72.526 72.358 72.166 71.986 71.786 71.583 71.348 71.106 70.851 70.606 70.316 70.131 69.891 69.603 69.368 69.111 68.871 68.578 68.286 67.958 67.718 67.466 67.246 66.998 66.758 66.556 66.361 66.103 65.883 65.686 65.473 65.206 64.943 64.726 64.456 64.228 64.011 63.813 63.623 63.433 63.203 62.981 62.721 62.526 62.293 62.083 61.846 61.598 61.331 61.071 60.841 60.626 60.446 60.241 60.003 59.736 59.493 59.293 59.166 58.983 58.766 60.508 60.483 59.911 59.886 57.658 59.823 62.173 64.628 64.576 59.641 57.521 58.236 61.221 61.966 59.339 59.095 58.051 54.77 54.516 54.337 54.219 54.061 53.867 53.688 53.477 53.339 53.396 53.857 53.979 54.073 54.091 53.555 52.914 52.302 51.799 51.826 52.845 56.362 54.613 52.565 51.722 50.624 50.466 49.911 50.589 50.745 49.916 49.628 48.927 48.672 49.79 50.864 50.601 48.933 48.143 46.953 46.966 46.601 46.441 46.261 46.206 46.068 46.048 46.156 46.023 45.883 45.661 45.496 45.293 45.136 44.956 44.791 44.643 44.473 44.296 44.128 43.928 43.681 43.436 43.298 43.191 43.108 43.041 42.981 42.913 42.776 42.693
98.721 95.661 95.824 91.644 88.096 88.021 92.094 91.744 89.564 88.001 88.021 88.061 88.034 88.029 88.049 88.069 88.026 87.959 87.954 87.889 87.859 94.166 94.979 89.586 92.126 90.366 91.801 93.846 89.504 90.179 93.646 88.644 88.606 88.269 88.804 88.836 89.931 90.981 91.941 91.591 93.944 94.381 90.903 89.911 88.281 90.421 88.601 86.576 89.231 91.176 94.101 87.916 90.431 90.408 87.786 87.413 85.453 85.533 86.161 92.293 91.146 88.436 86.373 92.028 89.351 89.936 90.231 86.646 85.421 84.703 85.778 89.296 88.773 88.928 86.748 84.713 90.573 95.811 95.433 85.023 83.043 83.031 82.966 82.898 82.908 82.898 82.838 82.863 82.818 82.771 82.751 82.678 82.681 82.643 82.613 82.568 82.543 82.533 82.548 83.071 82.571 81.458 80.811 81.073 82.656 81.713 81.368 80.798 80.731 80.701 80.641 80.621 80.513 80.546 80.623 80.943 81.221 81.333 81.361 81.348 81.293 81.233 81.171 81.158 81.108 81.046 81.021 81.013 80.956 80.891 80.996 80.968 81.531 81.546 80.773 80.766 80.753 80.731 80.746 81.931 86.363 86.721 88.971 86.893 87.171 86.516 84.286 83.118 83.338 81.461 80.808 80.453 80.418 80.366 80.306 80.291 80.288 80.291 80.868 80.238 81.098 80.298 80.376 80.623 82.113 83.388 82.906 81.946 80.633 82.236 81.578 81.171 85.026 81.196 82.318 81.683 81.458 81.896 84.626 84.236 82.226 82.181 82.293 82.528 82.768 82.973 83.188 83.416 83.646 83.901 84.088 84.276 84.413 84.546 84.653 84.726 84.786 84.953 85.048 85.023 84.981 84.856 84.743 84.753 84.743 84.716 84.726 84.703 84.616 84.473 84.298 84.081 83.846 83.493 83.216 82.948 82.671 82.393 82.156 81.991 81.798 81.636 81.551 81.473 81.326 81.193 81.061 80.971 81.023 81.006 80.988 83.003 82.798 82.851 80.233 80.061 79.863 82.121 81.373 79.453 80.841 79.506 81.803 81.963 81.056 78.478 78.111 78.008 77.923 77.841 77.721 77.646 77.518 77.348 77.158 76.948 76.726 76.473 76.263 76.063 75.883 75.681 75.473 75.266 75.048 74.833 74.673 74.471 74.246 73.946 73.616 73.328 73.163 73.158 73.116 73.071 72.983 72.781 72.541 72.328 72.156 71.961 71.796 71.561 71.311 71.108 70.868 70.596 70.356 70.153 69.856 69.571 69.328 69.123 68.833 68.588 68.298 68.001 67.706 67.443 67.201 66.981 66.738 66.513 66.338 66.128 65.928 65.736 65.503 65.273 65.013 64.786 64.541 64.321 64.101 63.906 63.693 63.498 63.258 63.001 62.781 62.561 62.336 62.131 61.878 61.611 61.356 61.076 60.828 60.641 60.473 60.228 60.003 59.741 59.491 59.288 59.173 59.003 58.781 58.531 61.218 60.581 59.158 60.426 59.201 60.681 58.708 61.136 63.566 61.796 58.728 58.498 59.806 61.893 63.551 62.501 55.831 54.49 54.227 54.038 53.876 53.741 53.586 53.435 53.286 53.126 52.979 52.915 53.427 54.072 55.713 54.085 53.492 51.647 52.142 52.319 52.476 51.553 54.132 52.24 50.058 51.936 49.937 51.291 52.904 50.375 49.267 48.789 48.549 48.632 48.879 49.4 49.021 47.373 46.986 47.032 46.748 46.408 46.278 46.211 46.146 46.058 46.168 46.118 45.933 45.713 45.496 45.328 45.208 45.046 44.898 44.738 44.573 44.371 44.251 44.066 43.836 43.616 43.431 43.253 43.171 43.106 43.026 42.953 42.893 42.803 42.733
90.036 92.641 92.439 90.179 90.984 87.986 88.134 88.246 88.076 88.046 88.064 88.026 88.009 88.006 88.026 88.029 87.981 87.934 87.959 87.989 88.674 94.014 98.609 95.639 95.804 93.614 93.059 89.664 93.126 91.596 92.076 88.544 88.516 88.379 88.386 88.341 89.409 91.221 90.424 92.496 89.114 89.719 92.028 91.683 88.886 87.171 87.051 86.858 87.273 88.423 90.243 88.276 87.396 88.103 85.843 85.728 85.618 86.128 91.808 89.388 88.173 89.691 86.143 87.556 93.026 93.938 89.751 88.168 87.758 85.006 87.816 88.378 88.363 88.561 89.973 85.898 86.786 91.001 89.876 83.373 83.056 83.028 82.983 82.926 82.908 82.916 82.893 82.853 82.833 82.766 82.763 82.726 82.673 82.668 82.611 82.593 82.518 82.571 82.571 82.583 82.493 81.808 81.713 80.866 81.198 82.368 81.088 80.666 80.646 80.596 80.553 80.493 80.386 80.473 80.528 80.863 81.166 81.288 81.311 81.246 81.206 81.143 81.098 81.048 81.031 80.953 80.911 80.911 80.843 80.798 80.746 80.751 80.728 80.661 80.656 80.688 80.661 80.661 80.648 81.846 85.096 85.443 89.416 88.903 87.583 85.213 83.351 83.411 85.576 81.328 80.736 80.238 80.181 80.151 80.121 80.083 80.063 80.053 80.018 80.013 80.381 80.468 80.618 82.888 83.711 82.448 80.353 83.146 81.073 82.376 85.751 80.606 82.681 83.146 85.416 85.506 81.428 81.326 82.131 81.721 81.881 81.983 81.958 82.096 82.268 82.453 82.656 82.856 83.063 83.301 83.476 83.641 83.773 83.886 83.986 84.046 84.123 84.226 84.311 84.256 84.158 84.116 84.131 84.176 84.198 84.191 84.181 84.178 84.066 83.958 83.793 83.543 83.323 83.056 82.753 82.513 82.298 82.041 81.828 81.628 81.446 81.308 81.203 81.093 80.981 80.881 80.826 80.878 80.886 80.826 80.646 81.751 83.978 83.096 80.401 79.771 82.391 82.153 85.196 79.846 79.211 82.391 80.321 80.323 80.788 78.373 77.836 77.666 77.571 77.498 77.393 77.291 77.208 77.066 76.888 76.668 76.438 76.211 76.013 75.806 75.633 75.408 75.221 75.021 74.836 74.631 74.433 74.246 74.021 73.708 73.393 73.078 73.041 73.033 72.988 72.933 72.763 72.531 72.316 72.146 71.971 71.733 71.551 71.323 71.073 70.831 70.618 70.333 70.088 69.871 69.583 69.281 69.058 68.796 68.533 68.268 67.968 67.728 67.493 67.268 67.008 66.733 66.503 66.316 66.133 65.943 65.793 65.538 65.306 65.081 64.843 64.628 64.403 64.166 63.943 63.736 63.548 63.336 63.098 62.856 62.606 62.383 62.151 61.898 61.641 61.373 61.136 60.916 60.693 60.476 60.273 60.031 59.788 59.498 59.291 59.148 59.018 58.796 58.556 58.308 58.531 58.688 62.466 59.431 58.936 60.411 56.886 61.828 61.821 64.271 61.756 57.938 61.963 61.713 61.716 60.453 55.643 54.268 53.998 53.804 53.653 53.498 53.324 53.115 53.025 52.848 52.611 52.437 52.716 53.659 53.443 54.17 53.172 51.75 51.594 50.705 50.869 52.288 51.97 50.973 49.531 49.58 50.269 50.174 49.395 49.291 49.061 48.915 48.632 48.451 47.953 47.953 47.355 47.081 46.93 46.869 46.473 46.306 46.238 46.181 46.101 46.253 46.126 46.048 45.828 45.561 45.331 45.148 45.083 44.973 44.831 44.678 44.513 44.353 44.208 44.016 43.831 43.568 43.383 43.248 43.201 43.131 43.073 42.973 42.911 42.821 42.711
90.559 91.026 90.996 91.619 89.309 87.944 87.991 87.996 88.051 88.079 88.029 87.999 87.981 88.001 87.974 87.984 87.984 87.954 88.746 90.889 91.524 95.044 93.759 95.929 97.351 93.776 92.001 92.916 93.119 92.081 90.774 88.561 88.564 88.479 88.409 88.334 88.299 88.916 90.149 90.136 89.319 89.791 91.711 92.966 89.523 88.373 88.886 87.068 90.366 93.813 94.443 92.791 87.143 86.163 86.026 86.003 86.928 89.213 90.156 90.963 88.881 88.563 86.863 90.263 91.251 86.076 87.621 90.851 84.493 86.921 86.163 89.651 89.411 88.778 86.406 84.976 84.121 84.078 83.993 83.551 83.128 83.041 82.991 82.961 82.928 82.896 82.913 82.856 82.863 82.816 82.788 82.778 82.758 82.696 82.656 82.603 82.571 82.548 82.538 82.563 82.716 82.658 81.796 80.923 80.831 81.668 80.833 80.611 80.536 80.513 80.461 80.426 80.348 80.321 80.428 80.743 81.071 81.186 81.198 81.131 81.098 81.043 81.003 80.951 80.926 80.866 80.811 80.788 80.713 80.721 80.658 80.613 80.601 80.566 80.541 80.541 80.543 80.536 80.493 80.491 84.783 87.711 86.518 84.376 88.083 87.161 84.711 83.191 84.393 82.791 80.118 80.018 79.966 79.923 79.906 79.866 79.823 79.818 79.791 80.021 81.486 83.426 83.831 83.843 83.961 82.508 80.031 80.541 80.511 84.558 86.478 84.216 86.623 83.106 84.551 84.713 81.288 81.016 81.168 81.286 81.466 81.683 81.773 81.803 81.891 82.018 82.186 82.328 82.523 82.733 82.888 83.013 83.128 83.253 83.333 83.426 83.488 83.556 83.481 83.501 83.481 83.506 83.568 83.626 83.628 83.643 83.651 83.651 83.526 83.393 83.266 83.053 82.803 82.576 82.323 82.111 81.913 81.723 81.506 81.321 81.176 81.046 80.888 80.776 80.666 80.626 80.666 80.723 80.696 80.543 80.363 80.881 81.818 81.623 79.791 79.501 83.036 82.786 84.253 87.148 78.801 78.623 78.588 78.276 80.791 77.678 77.546 77.378 77.196 77.121 77.023 76.931 76.851 76.758 76.581 76.351 76.156 75.936 75.723 75.556 75.378 75.193 74.983 74.773 74.616 74.421 74.226 73.983 73.766 73.458 73.171 72.938 72.906 72.886 72.866 72.761 72.533 72.346 72.191 71.998 71.766 71.561 71.308 71.053 70.801 70.576 70.331 70.081 69.828 69.518 69.278 69.018 68.711 68.471 68.201 67.976 67.788 67.556 67.298 67.043 66.786 66.543 66.298 66.076 65.943 65.758 65.588 65.336 65.096 64.861 64.648 64.443 64.241 64.011 63.768 63.548 63.351 63.153 62.921 62.706 62.476 62.211 61.963 61.716 61.428 61.146 60.928 60.711 60.503 60.328 60.051 59.793 59.526 59.346 59.153 58.968 59.136 60.671 59.401 58.236 59.046 58.183 57.918 59.866 57.968 57.373 57.813 59.458 61.841 61.538 61.411 58.666 61.443 56.483 59.513 58.633 57.926 54.131 53.896 53.661 53.416 53.248 53.067 52.91 52.734 52.534 52.324 52.108 51.977 52.736 52.91 53.145 51.85 51.739 51.295 50.366 50.409 52.119 51.946 51.512 49.92 49.833 49.232 48.991 48.79 48.832 48.624 48.63 48.369 48.152 47.885 47.482 47.303 47.009 46.722 46.504 46.346 46.262 46.229 46.156 46.281 46.198 46.106 45.928 45.706 45.473 45.246 45.083 44.983 44.931 44.808 44.603 44.446 44.323 44.161 43.948 43.721 43.528 43.348 43.246 43.221 43.156 43.068 43.003 42.911 42.791 42.731
89.659 90.541 88.764 88.866 88.039 87.969 88.001 87.994 87.986 88.014 87.999 87.929 88.946 89.719 90.161 91.904 88.004 88.006 89.506 91.986 90.046 90.944 93.409 95.946 94.174 95.974 92.951 92.579 90.944 91.291 88.916 88.771 88.661 88.594 88.506 88.574 88.489 88.264 88.161 88.086 88.054 88.129 88.766 88.568 88.721 92.308 88.291 87.298 91.443 96.938 96.076 93.831 87.413 86.308 86.983 86.536 86.193 88.763 87.773 90.126 89.898 88.011 85.936 88.268 88.381 87.326 89.261 89.703 85.646 86.603 89.908 87.313 85.673 86.688 84.898 84.313 84.186 84.123 84.078 83.873 83.293 83.073 83.033 82.991 82.963 82.943 82.883 82.886 82.853 82.821 82.808 82.803 82.728 82.703 82.648 82.578 82.558 82.558 82.521 82.578 82.576 83.078 82.103 81.183 80.641 80.726 80.561 80.518 80.441 80.406 80.368 80.296 80.213 80.208 80.251 80.563 80.903 81.066 81.078 81.026 80.993 80.928 80.901 80.846 80.803 80.773 80.698 80.653 80.636 80.598 80.543 80.511 80.478 80.461 80.438 80.431 80.388 80.376 80.386 80.371 83.048 83.231 85.791 85.698 86.288 82.931 84.313 85.098 81.991 80.236 79.848 79.828 79.746 79.681 79.638 79.611 79.583 79.588 79.693 79.728 84.008 82.128 82.126 84.186 80.658 81.518 80.728 80.038 79.798 82.593 83.413 87.426 84.843 84.638 87.233 88.013 85.558 83.316 84.098 82.233 81.553 81.238 81.508 81.676 81.701 81.716 81.798 81.908 82.053 82.211 82.316 82.441 82.546 82.673 82.773 82.836 82.906 82.863 82.811 82.853 82.926 82.948 83.028 83.068 83.116 83.138 83.148 83.138 83.003 82.898 82.756 82.563 82.366 82.123 81.893 81.716 81.553 81.358 81.213 81.028 80.901 80.788 80.653 80.563 80.498 80.471 80.513 80.491 80.398 80.221 80.003 79.783 81.026 81.346 79.588 79.221 82.378 83.946 89.258 91.991 81.816 78.533 78.123 78.638 77.813 77.368 77.226 77.048 76.856 76.723 76.618 76.553 76.478 76.406 76.273 76.078 75.843 75.653 75.468 75.308 75.126 74.908 74.738 74.553 74.393 74.163 73.971 73.748 73.503 73.243 72.968 72.793 72.743 72.753 72.658 72.518 72.308 72.158 71.976 71.768 71.616 71.376 71.091 70.781 70.536 70.288 70.013 69.736 69.468 69.201 68.933 68.573 68.356 68.193 67.986 67.771 67.553 67.343 67.103 66.868 66.631 66.351 66.113 65.908 65.728 65.578 65.331 65.118 64.886 64.666 64.481 64.258 64.056 63.843 63.606 63.381 63.191 62.976 62.741 62.541 62.291 62.006 61.736 61.488 61.266 61.003 60.761 60.523 60.283 60.081 59.816 59.593 59.368 59.161 58.983 59.543 59.823 64.603 61.926 61.966 65.161 63.566 60.233 60.731 59.108 57.043 57.926 60.548 60.588 58.878 55.791 60.626 59.011 56.416 58.253 60.541 56.931 54.186 53.708 53.458 53.201 52.988 52.831 52.728 52.507 52.249 52.073 51.842 51.723 51.87 52.872 51.699 51.627 50.743 51.223 51.508 50.44 51.149 50.918 50.25 50.063 49.199 49.062 48.852 49.063 48.459 48.305 48.158 47.896 47.969 47.615 47.243 47.15 46.86 46.583 46.412 46.327 46.273 46.186 46.28 46.241 46.153 45.962 45.796 45.598 45.386 45.186 45.098 44.963 44.926 44.746 44.571 44.436 44.288 44.093 43.898 43.663 43.473 43.333 43.288 43.218 43.151 43.041 42.998 42.903 42.806 42.746
87.979 88.009 88.044 88.064 88.036 87.931 87.951 87.951 87.926 87.941 87.946 91.031 88.731 88.644 92.056 88.841 93.401 92.589 93.351 92.581 92.394 93.094 95.991 98.049 97.176 98.151 97.334 93.909 89.959 94.461 89.094 88.941 88.824 88.991 89.064 90.049 88.916 88.416 88.496 88.351 88.074 88.009 87.971 87.903 89.576 91.591 88.013 87.946 88.278 94.096 94.638 90.533 88.238 94.226 91.056 89.626 87.001 88.181 86.058 85.898 91.076 86.716 87.773 89.428 88.306 87.158 89.311 88.058 89.698 89.308 88.296 90.646 84.798 84.143 86.673 85.768 84.821 84.141 84.123 84.058 83.683 83.098 82.983 83.023 82.961 82.926 82.908 82.893 82.871 82.841 82.791 82.791 82.791 82.731 82.676 82.638 82.578 82.561 82.563 82.601 82.616 82.776 82.991 81.703 80.858 80.451 80.473 80.411 80.383 80.351 80.266 80.218 80.106 80.066 80.116 80.278 80.638 80.831 80.866 80.876 80.851 80.788 80.753 80.708 80.678 80.656 80.588 80.541 80.521 80.471 80.438 80.398 80.363 80.343 80.363 80.288 80.248 80.211 80.223 80.238 80.353 81.936 85.886 84.436 83.793 84.811 81.001 82.208 80.033 79.658 79.606 79.583 79.513 79.436 79.371 79.343 79.531 79.821 80.743 81.348 81.106 81.716 84.243 83.173 83.203 81.728 81.686 82.981 81.013 82.791 83.186 85.953 85.821 85.138 85.028 85.233 83.278 87.276 81.758 80.598 81.213 80.881 81.051 81.283 81.448 81.538 81.573 81.611 81.683 81.791 81.863 81.971 82.033 82.093 82.191 82.283 82.306 82.268 82.276 82.296 82.368 82.428 82.508 82.573 82.656 82.658 82.641 82.641 82.546 82.411 82.276 82.116 81.931 81.718 81.503 81.346 81.203 81.023 80.893 80.793 80.683 80.558 80.441 80.373 80.408 80.371 80.266 80.168 80.021 79.846 79.643 79.428 79.253 79.796 79.228 80.336 81.846 78.901 83.996 85.718 83.676 79.503 78.931 78.136 77.413 77.161 76.973 76.771 76.603 76.403 76.243 76.191 76.146 76.086 75.996 75.803 75.581 75.376 75.223 75.038 74.828 74.643 74.478 74.316 74.118 73.941 73.716 73.453 73.253 72.991 72.716 72.641 72.631 72.616 72.433 72.301 72.108 71.936 71.726 71.571 71.311 71.096 70.848 70.568 70.291 70.028 69.718 69.436 69.158 68.866 68.556 68.296 68.148 67.948 67.728 67.531 67.331 67.098 66.836 66.606 69.028 67.746 65.996 65.726 65.548 65.341 65.113 64.876 64.638 64.493 64.271 64.066 63.848 63.623 63.441 63.211 63.006 62.778 62.558 62.338 62.063 61.816 61.528 61.278 61.051 60.823 60.601 60.351 60.068 59.846 59.633 59.498 59.571 59.303 59.286 61.283 60.228 62.161 62.148 62.798 62.206 60.866 60.306 58.821 59.803 58.558 59.156 62.261 56.591 55.843 57.271 57.561 55.408 57.326 60.201 59.261 56.488 53.786 53.513 53.218 52.953 52.738 52.606 52.486 52.341 52.088 51.804 51.583 51.435 51.575 51.398 51.095 51.024 51.645 50.884 51.675 50.402 50.191 51.13 49.882 49.221 48.971 48.601 48.358 48.394 48.86 48.368 48.034 47.862 47.631 47.386 47.081 46.928 46.663 46.465 46.367 46.315 46.244 46.241 46.219 46.163 46.039 45.887 45.721 45.51 45.316 45.146 45.028 44.971 44.916 44.746 44.561 44.423 44.203 44.038 43.783 43.576 43.413 43.358 43.321 43.251 43.176 43.071 42.968 42.893 42.801 42.711
88.031 88.049 88.046 88.006 87.981 87.889 87.879 87.929 87.874 87.896 88.921 95.256 92.036 94.034 91.594 88.166 88.331 93.056 92.151 95.671 94.146 93.926 95.304 98.676 98.171 98.809 101.964 94.576 92.429 89.754 89.514 89.091 89.221 89.531 92.319 89.689 89.809 88.584 88.439 88.659 88.636 88.119 87.983 87.963 87.921 87.788 87.698 87.703 89.753 89.361 92.043 91.448 91.486 89.386 91.271 89.513 88.493 90.136 86.013 86.746 88.846 89.173 91.151 88.766 87.053 88.581 89.726 88.356 88.713 92.316 91.871 89.428 85.568 85.938 88.038 87.618 86.181 84.178 84.131 84.093 83.971 83.401 83.043 83.048 83.003 82.956 82.913 82.888 82.888 82.876 82.828 82.818 82.788 82.763 82.671 82.646 82.646 82.581 82.651 82.626 82.626 82.608 82.711 81.731 80.971 80.411 80.358 80.321 80.298 80.231 80.153 80.078 80.033 79.906 79.958 79.993 80.366 80.583 80.641 80.698 80.698 80.678 80.643 80.591 80.556 80.533 80.486 80.461 80.413 80.351 80.291 80.256 80.243 80.231 80.203 80.118 80.078 80.731 80.993 80.503 80.148 80.763 81.691 82.643 81.693 82.963 79.556 80.538 82.158 79.413 79.368 79.323 79.236 79.223 79.161 79.088 79.116 80.321 80.378 79.961 83.488 86.288 83.916 85.456 83.263 84.928 82.338 82.781 81.123 83.171 83.463 86.383 82.271 85.263 86.031 86.031 82.781 83.011 83.291 84.286 84.053 81.458 80.598 80.803 81.028 81.191 81.328 81.458 81.471 81.503 81.551 81.588 81.631 81.621 81.671 81.756 81.756 81.771 81.773 81.813 81.853 81.951 82.026 82.098 82.191 82.191 82.146 82.143 82.076 81.991 81.838 81.668 81.548 81.356 81.181 81.028 80.903 80.821 81.168 82.746 80.723 80.371 80.331 80.306 80.278 80.158 79.976 79.781 79.616 79.441 79.276 79.091 78.891 80.516 80.978 82.226 82.251 80.436 81.476 86.033 81.538 78.413 79.698 78.011 77.151 76.988 76.736 76.568 76.321 76.126 75.933 75.808 75.773 75.768 75.656 75.518 75.311 75.128 74.946 74.768 74.561 74.411 74.248 74.078 73.898 73.686 73.431 73.196 72.998 72.698 72.548 72.538 72.543 72.453 72.223 72.053 71.873 71.671 71.528 71.326 71.111 70.853 70.563 70.281 70.008 69.736 69.436 69.108 68.816 68.541 68.276 68.088 67.918 67.681 67.491 67.298 67.018 66.796 66.603 66.498 69.821 68.863 67.443 65.601 65.406 65.161 64.926 64.696 64.496 64.298 64.076 63.916 63.706 63.496 63.278 63.033 62.813 62.613 62.371 62.143 61.871 61.616 61.356 61.103 60.861 60.653 60.418 60.151 59.936 59.733 59.476 62.466 61.916 59.791 59.243 60.906 62.336 60.388 60.348 62.618 60.768 59.873 59.803 57.476 58.486 58.616 60.683 59.701 58.663 56.321 59.718 60.196 56.631 56.421 56.778 57.608 56.051 55.116 53.833 52.998 52.753 52.571 52.456 52.266 52.136 51.903 51.638 51.396 51.17 51.008 51.018 51.344 50.539 53.858 54.111 51.283 51.894 52.794 52.075 50.715 49.224 49.889 48.46 48.189 49.048 48.623 47.881 47.877 47.721 47.358 47.11 46.881 46.682 46.537 46.398 46.321 46.241 46.273 46.254 46.151 46.031 45.875 45.742 45.635 45.367 45.251 45.111 45.016 44.966 44.856 44.741 44.571 44.368 44.211 43.921 43.703 43.526 43.436 43.368 43.293 43.243 43.143 43.068 42.996 42.896 42.798 42.688
88.049 88.061 88.039 87.981 87.946 87.949 87.929 87.949 87.904 90.036 91.791 93.876 90.554 97.804 97.766 91.579 90.111 92.459 95.779 96.461 98.771 95.304 95.931 97.029 103.071 101.924 103.839 94.761 97.014 91.206 93.694 92.766 92.681 92.194 93.269 93.816 90.991 88.896 89.151 88.874 89.316 88.541 88.626 88.016 87.903 87.861 87.778 88.616 91.761 89.651 92.808 91.728 87.893 92.376 91.886 95.146 89.373 92.753 86.921 90.076 88.298 89.588 86.361 87.273 87.216 90.226 86.508 87.488 86.738 88.691 85.248 85.896 84.721 87.023 92.268 88.496 88.158 84.131 84.116 84.123 84.118 83.801 83.201 83.028 83.008 83.006 82.931 82.881 82.841 82.866 82.826 82.813 82.793 82.806 82.738 82.691 82.648 83.171 85.028 85.273 83.906 84.421 82.743 81.681 80.878 80.361 80.256 80.236 80.241 80.133 80.091 80.023 79.968 79.823 79.798 79.798 80.078 80.328 80.426 80.481 80.466 80.463 80.481 80.446 80.436 80.416 80.338 80.308 80.298 80.208 80.181 80.148 80.113 80.056 80.008 79.961 79.926 81.141 84.986 83.441 81.726 80.728 80.628 80.206 80.008 81.743 83.718 84.138 80.306 79.118 79.088 79.068 79.011 79.851 79.303 78.873 78.853 78.833 78.861 79.168 83.081 83.123 83.546 85.861 83.846 83.498 80.538 83.716 79.331 79.336 84.281 83.861 81.466 85.756 83.671 81.751 81.603 81.766 83.463 81.906 82.176 80.183 80.271 80.361 80.513 80.668 80.891 81.056 82.501 81.316 81.331 81.341 81.343 81.293 81.288 81.323 81.271 81.263 81.313 81.363 81.443 81.513 81.573 81.641 81.688 81.708 81.736 81.713 81.613 81.503 81.391 81.248 81.151 80.991 80.848 80.773 80.636 81.006 83.478 82.593 83.181 82.896 80.653 80.633 80.036 79.876 79.676 79.448 79.256 79.058 78.911 79.336 81.556 82.533 84.348 84.633 81.716 81.491 80.933 81.673 81.436 79.943 80.726 77.793 76.851 76.683 76.523 76.323 76.073 75.873 75.686 75.491 75.391 75.376 75.308 75.203 74.993 74.823 74.648 74.476 74.331 74.148 73.988 73.806 73.626 73.381 73.111 72.886 72.683 72.501 72.398 72.423 72.386 72.208 72.011 71.788 71.631 71.481 71.308 71.046 70.828 70.586 70.308 70.001 69.701 69.403 69.153 68.823 68.513 68.218 68.051 67.876 67.671 67.446 67.256 66.978 66.786 66.536 66.358 67.836 69.448 69.923 69.758 65.421 65.186 64.976 64.798 64.548 64.351 64.118 63.931 63.763 63.548 63.336 63.091 62.881 62.661 62.451 62.208 61.938 61.708 61.438 61.148 60.926 60.693 60.463 60.258 60.031 59.806 59.563 61.513 62.323 63.468 58.761 59.571 61.226 59.156 60.256 60.206 60.561 59.553 57.171 59.791 57.283 56.411 57.606 58.196 58.943 55.856 57.653 58.881 58.883 56.796 57.326 55.198 56.196 55.711 55.616 54.256 52.971 52.668 52.491 52.288 52.116 51.926 51.691 51.481 51.211 50.971 50.713 50.609 50.643 52.312 53.436 51.79 51.199 51.612 51.765 51.37 50.094 49.497 48.868 48.105 48.123 48.1 47.829 47.621 47.676 47.34 47.09 46.923 46.707 46.544 46.433 46.355 46.286 46.301 46.355 46.245 46.101 45.919 45.805 45.591 45.381 45.331 45.209 45.092 45.051 44.975 44.831 44.691 44.526 44.418 44.173 43.886 43.638 43.493 43.408 43.366 43.303 43.266 43.146 43.058 42.981 42.911 42.803 42.701
88.066 88.016 87.976 87.996 87.964 88.001 88.006 91.511 92.471 88.561 88.179 88.179 89.854 94.299 89.609 100.894 92.801 94.951 94.149 98.864 93.984 96.466 97.831 96.624 98.294 97.659 101.759 99.549 96.366 94.164 95.134 93.039 90.286 91.386 96.634 93.896 91.759 89.271 89.779 88.759 89.446 89.221 89.773 88.296 87.921 87.908 87.863 88.286 92.278 90.023 90.983 89.956 92.061 91.183 95.478 93.521 91.138 90.106 86.336 89.623 91.471 90.383 88.213 90.046 89.806 88.808 85.723 89.573 89.738 92.736 87.483 87.948 88.118 87.648 87.848 87.878 86.356 84.123 84.118 84.108 84.041 83.998 83.533 83.061 83.021 83.011 82.976 82.913 82.856 82.841 82.881 82.821 82.788 82.783 82.753 83.096 83.053 86.008 87.471 86.553 85.233 85.958 85.518 81.681 80.853 80.361 80.763 80.093 80.108 80.021 79.998 79.928 79.833 79.748 79.631 79.696 79.741 79.961 80.126 80.203 80.258 80.298 80.321 80.326 80.311 80.793 80.328 80.168 80.126 80.086 80.036 80.021 79.958 79.941 79.871 79.816 79.796 85.721 86.623 82.678 82.643 79.691 79.458 81.016 83.851 79.861 82.266 83.626 82.346 81.013 79.481 80.571 78.733 80.501 82.221 79.751 78.781 78.753 79.701 80.128 83.933 80.611 82.046 81.533 80.111 80.276 80.756 82.058 79.428 80.751 78.956 79.216 80.421 79.898 79.608 79.131 81.008 81.988 81.016 81.836 79.796 79.808 79.883 79.993 80.078 81.393 82.053 82.458 82.883 81.493 81.123 80.968 80.996 81.036 81.018 80.923 80.881 80.883 80.903 80.943 81.018 81.093 81.151 81.216 81.233 81.253 81.263 81.248 81.183 81.091 80.968 80.831 80.753 80.626 80.491 80.456 81.343 82.836 85.993 83.083 83.163 83.008 81.588 79.953 79.716 79.536 79.343 79.121 78.898 78.711 78.563 79.656 81.146 82.703 81.508 80.336 80.596 80.571 79.716 80.156 79.528 80.141 79.553 76.843 76.531 76.393 76.218 76.063 75.868 75.671 75.441 75.231 75.061 74.958 74.938 74.868 74.701 74.543 74.343 74.206 74.076 73.918 73.743 73.558 73.333 73.068 72.811 72.583 72.416 72.301 72.291 72.288 72.178 71.986 71.808 71.618 71.401 71.218 70.998 70.796 70.521 70.278 69.988 69.713 69.443 69.111 68.823 68.491 68.161 67.976 67.831 67.601 67.403 67.208 66.941 66.748 66.521 66.331 66.158 66.343 67.701 70.266 66.173 65.241 65.061 64.843 64.606 64.388 64.208 63.996 63.793 63.598 63.371 63.158 62.931 62.688 62.498 62.253 62.056 61.786 61.586 61.313 61.023 60.801 60.593 60.373 60.191 59.976 59.688 59.913 63.026 60.036 62.781 61.711 60.808 62.651 60.606 58.558 60.123 59.206 62.231 60.148 59.113 58.106 56.601 56.006 56.296 56.603 57.041 59.236 57.291 57.586 58.723 57.208 56.626 55.363 53.583 56.916 55.946 53.003 52.511 52.306 52.111 51.866 51.716 51.528 51.276 51.048 50.813 50.581 50.316 50.603 51.946 52.789 50.442 49.35 51.32 50.462 51.424 48.909 49.564 49.573 48.23 48.085 48.46 47.716 47.626 47.237 47.037 46.853 46.739 46.578 46.472 46.409 46.353 46.336 46.356 46.318 46.219 46.065 45.84 45.684 45.505 45.376 45.255 45.17 45.134 45.048 44.932 44.796 44.644 44.481 44.326 44.081 43.801 43.601 43.511 43.423 43.356 43.326 43.241 43.161 43.068 42.998 42.928 42.808 42.728
88.061 88.016 87.989 87.969 87.999 90.554 92.924 93.176 91.299 88.966 88.396 95.514 91.776 99.574 104.834 99.999 95.339 99.821 93.861 94.699 95.461 96.521 99.256 95.986 97.426 99.939 101.561 98.191 98.066 100.011 96.596 91.156 90.011 90.786 92.964 91.834 90.051 89.609 88.961 89.364 88.819 89.966 90.288 89.086 88.073 87.896 87.903 88.696 91.341 88.158 89.816 90.666 93.646 94.108 93.126 94.473 93.783 86.913 88.261 86.516 91.451 91.413 89.353 88.211 91.721 89.378 86.991 92.173 93.676 93.958 88.323 84.836 86.653 91.428 90.876 89.706 85.601 84.126 84.088 84.056 84.003 84.028 83.851 83.296 83.078 83.008 82.941 82.946 82.866 82.846 82.863 82.861 82.796 82.853 82.768 83.413 87.141 87.298 83.896 85.576 87.811 88.253 86.358 84.961 82.973 85.998 83.913 83.466 80.953 79.903 79.846 79.833 79.783 79.626 79.533 79.538 79.511 79.671 79.871 79.998 80.096 80.296 80.778 80.173 80.156 83.376 84.041 79.998 79.961 79.906 79.831 79.811 79.753 79.746 81.398 85.358 86.571 81.153 86.661 83.678 87.038 84.478 82.156 80.481 82.698 85.146 81.848 80.871 81.848 79.626 80.321 80.633 78.431 82.056 79.376 79.473 80.283 79.091 80.706 80.713 79.096 79.051 79.351 80.618 78.573 81.321 82.186 84.596 80.133 79.331 78.733 78.598 78.593 78.688 78.786 78.833 78.918 79.023 79.186 79.281 79.353 79.443 79.503 79.603 79.701 81.941 82.458 82.716 83.618 85.986 82.556 80.501 80.453 80.526 80.598 80.616 80.603 80.656 80.666 80.673 80.688 80.743 80.756 80.786 80.788 80.786 80.763 80.743 80.716 80.661 80.556 80.408 80.338 80.293 80.208 80.168 80.541 83.063 86.231 81.633 85.306 83.733 81.056 81.753 83.273 79.126 79.241 78.778 78.553 78.378 78.186 78.823 81.503 81.066 79.108 80.253 81.771 82.938 80.733 80.888 79.951 78.301 77.926 76.381 76.203 76.056 75.898 75.743 75.586 75.418 75.193 75.013 74.806 74.646 74.523 74.506 74.378 74.218 74.088 73.938 73.783 73.608 73.478 73.283 73.016 72.821 72.561 72.363 72.221 72.196 72.161 72.081 71.911 71.721 71.566 71.353 71.166 70.948 70.708 70.461 70.231 69.976 69.691 69.418 69.138 68.858 68.546 68.201 67.931 67.753 67.541 67.363 67.128 66.881 66.698 66.518 66.301 66.123 65.951 66.073 66.691 66.143 65.283 65.108 64.898 64.661 64.456 64.286 64.111 63.863 63.651 63.413 63.231 63.013 62.758 62.518 62.311 62.121 61.908 61.653 61.423 61.186 60.893 60.673 60.478 60.308 60.078 59.836 59.548 59.628 64.006 60.313 59.251 60.411 62.733 62.518 59.171 57.506 57.221 62.211 64.358 60.261 57.388 56.496 56.093 55.933 55.776 55.851 57.286 59.686 58.596 58.401 55.553 57.966 54.383 53.566 53.286 57.011 53.846 53.301 52.378 52.153 51.953 51.688 51.513 51.288 51.093 50.861 50.661 50.428 50.086 50.008 50.266 50.628 49.911 49.073 49.904 50.049 49.079 48.902 49.242 48.301 48.366 48.23 47.931 47.571 47.313 47.058 46.915 46.707 46.591 46.521 46.481 46.399 46.375 46.405 46.362 46.271 46.119 45.982 45.812 45.643 45.487 45.367 45.257 45.149 45.095 44.971 44.909 44.734 44.598 44.476 44.286 43.969 43.736 43.591 43.498 43.408 43.356 43.236 43.201 43.141 43.046 42.978 42.908 42.776 42.733
88.084 88.101 88.089 88.591 88.129 89.724 88.269 89.641 93.806 95.994 95.314 92.056 93.011 91.141 92.596 96.751 96.366 99.774 91.544 91.816 97.264 97.859 97.501 100.131 103.254 100.589 97.319 94.041 93.329 92.164 92.464 90.001 91.096 93.081 92.341 92.209 89.834 92.336 92.199 92.119 91.839 91.729 90.406 88.533 88.268 88.093 87.876 87.903 89.161 89.843 89.168 94.728 96.326 92.978 92.723 94.418 91.711 86.963 86.576 88.011 89.118 89.356 88.746 90.123 90.893 89.386 92.393 91.226 93.018 86.471 85.723 85.461 89.361 91.281 92.448 87.181 88.713 84.206 84.163 84.101 84.056 84.011 83.991 83.628 83.116 82.996 82.993 82.928 82.911 82.878 82.898 82.873 82.838 83.536 83.796 82.883 85.203 88.546 87.443 84.758 89.126 87.828 87.293 88.953 88.753 84.268 90.743 84.156 81.838 79.846 79.791 79.761 79.663 79.576 79.421 79.341 79.363 79.376 79.551 79.721 79.848 79.918 85.353 86.488 83.471 85.261 85.346 81.413 79.761 79.721 79.666 79.611 79.573 79.586 83.271 84.368 86.783 82.531 85.221 85.566 86.106 88.193 81.231 83.198 80.928 82.333 80.761 83.268 80.458 78.303 82.861 81.683 80.366 82.133 83.213 81.093 82.086 80.568 79.758 82.076 78.368 78.111 79.396 79.586 78.266 80.558 82.243 84.761 80.213 78.418 78.403 78.241 78.326 78.438 78.528 78.543 78.568 78.646 78.753 78.861 78.991 79.091 79.201 79.281 79.368 79.891 79.913 79.778 83.448 86.333 84.336 81.236 79.881 79.946 80.051 80.161 80.253 80.383 80.481 80.523 80.496 80.496 80.483 80.451 80.423 80.413 80.388 80.368 80.336 80.293 80.218 80.096 80.036 80.001 79.991 80.116 83.963 82.811 84.931 84.451 86.051 81.626 79.601 79.553 83.026 80.578 80.661 78.373 78.193 77.991 77.818 77.706 79.648 79.948 77.453 79.243 81.651 80.141 81.671 80.078 77.366 76.436 76.228 76.073 75.901 75.733 75.561 75.428 75.271 75.108 74.946 74.741 74.576 74.373 74.191 74.088 74.043 73.936 73.803 73.658 73.503 73.348 73.196 72.988 72.748 72.516 72.296 72.108 72.076 72.081 72.011 71.843 71.618 71.418 71.248 71.098 70.843 70.618 70.366 70.678 71.236 69.833 71.251 71.896 68.851 68.526 68.228 67.953 67.706 67.481 67.273 67.048 66.843 66.673 66.498 66.313 66.113 65.956 65.771 65.556 65.386 65.241 65.141 64.953 64.686 64.481 64.316 64.148 63.956 63.741 63.506 63.301 63.033 62.823 62.593 62.381 62.188 61.961 61.771 61.536 61.241 60.998 60.773 60.616 60.376 60.163 59.906 59.686 59.511 60.796 63.228 61.993 59.931 61.766 62.436 60.823 61.128 61.251 60.178 62.306 61.698 59.506 59.773 56.228 55.991 57.191 56.521 55.946 58.091 57.561 57.876 57.308 54.546 56.191 57.151 54.093 55.828 54.738 53.428 52.586 52.236 51.973 51.723 51.506 51.281 51.081 50.908 50.686 50.456 50.203 49.916 49.671 49.531 49.376 49.113 50.593 50.048 50.433 48.273 49.331 48.424 48.488 48.155 47.891 47.679 47.366 47.159 46.97 46.774 46.625 46.549 46.498 46.451 46.457 46.452 46.395 46.31 46.186 46.048 45.919 45.782 45.669 45.507 45.379 45.269 45.141 45.027 44.978 44.835 44.667 44.546 44.383 44.092 43.854 43.666 43.555 43.458 43.408 43.318 43.213 43.183 43.078 43.046 42.991 42.861 42.753 42.721
88.129 91.859 92.056 91.179 92.351 91.926 90.471 90.979 92.539 89.659 93.244 102.971 100.044 97.466 99.769 97.946 100.019 100.361 92.491 92.731 96.634 100.956 98.226 98.449 102.034 101.294 97.119 96.031 92.044 92.796 90.639 90.789 90.379 91.184 91.039 91.311 90.494 92.609 91.071 90.869 91.034 93.124 89.193 88.463 88.373 88.268 88.061 87.886 87.866 88.566 90.618 92.193 95.466 92.136 92.388 88.736 87.738 87.061 86.693 86.523 87.791 87.453 86.213 88.936 87.858 89.648 90.203 87.473 86.793 87.128 85.743 87.978 85.268 88.606 89.041 86.901 84.913 84.243 84.601 84.193 84.118 84.088 84.018 83.888 83.388 83.041 83.311 83.103 85.928 82.888 82.938 83.963 84.206 86.398 85.873 85.131 91.256 88.293 92.826 84.586 86.693 87.271 87.023 88.086 84.158 86.296 85.386 82.906 83.411 79.851 79.656 79.611 79.598 79.486 79.368 79.216 79.181 79.163 79.221 79.401 79.576 82.106 83.581 84.498 81.206 80.211 81.568 80.378 79.588 79.538 79.506 79.468 79.406 80.096 81.483 82.511 83.811 86.263 81.496 84.968 86.218 87.156 80.383 79.866 81.918 79.556 79.558 79.161 78.608 80.356 84.923 81.621 79.871 82.396 82.643 82.788 81.953 79.168 81.768 79.371 77.998 78.193 78.016 78.536 78.833 78.638 80.323 80.246 80.271 79.526 77.926 77.938 78.033 78.148 78.218 78.283 78.296 78.311 78.383 78.463 78.603 78.753 78.883 78.888 79.088 80.061 80.541 80.253 81.766 82.023 80.781 81.023 79.408 79.421 79.526 79.663 79.803 79.948 80.143 80.236 80.318 80.353 80.338 80.296 80.248 80.201 80.188 80.156 80.121 80.086 80.043 79.978 79.921 79.926 79.878 79.861 82.208 83.501 84.766 83.678 85.353 80.728 82.748 80.526 84.638 87.296 79.938 78.106 77.876 77.653 77.433 77.306 79.111 77.066 76.966 77.681 78.828 78.538 77.146 78.461 76.246 76.083 75.918 75.773 75.618 75.436 75.281 75.093 74.951 74.798 74.643 74.446 74.296 74.123 73.936 73.766 73.651 73.616 73.516 73.383 73.246 73.088 72.888 72.668 72.433 72.221 72.031 71.943 71.931 71.928 71.776 71.568 71.336 71.141 70.936 70.721 70.503 70.301 70.258 71.556 72.156 70.621 72.613 70.023 69.056 68.441 67.976 67.693 67.461 67.248 67.026 66.813 66.651 66.471 66.281 66.108 65.898 65.731 65.531 65.366 65.223 65.078 64.991 64.736 64.531 64.378 64.206 64.001 63.818 63.631 63.371 63.118 62.898 62.661 62.396 62.211 62.026 61.826 61.586 61.328 61.083 60.903 60.658 60.438 60.196 59.956 59.763 59.478 61.538 64.328 61.356 62.076 62.598 62.146 57.856 59.501 60.053 61.491 60.203 58.711 59.083 62.148 57.378 56.456 56.788 60.313 57.993 57.338 58.248 57.746 57.346 55.248 54.396 58.398 55.468 55.023 54.221 56.853 54.198 55.343 52.726 51.743 51.603 51.388 51.136 50.921 50.696 50.483 50.308 50.056 49.768 49.481 49.261 49.091 48.988 49.581 49.041 50.751 48.983 49.523 48.376 48.191 47.849 47.527 47.338 47.135 46.995 46.853 46.754 46.62 46.547 46.52 46.509 46.495 46.445 46.352 46.216 46.092 45.953 45.843 45.745 45.62 45.473 45.348 45.258 45.104 44.978 44.908 44.777 44.608 44.479 44.275 44.007 43.752 43.633 43.552 43.478 43.391 43.313 43.228 43.191 43.093 43.028 42.958 42.843 42.773 42.691
88.179 94.169 93.796 89.534 89.966 96.451 93.664 91.796 90.091 89.974 95.006 100.881 98.011 98.251 95.991 92.641 94.369 97.344 98.691 99.404 99.591 100.646 94.116 99.011 101.606 96.621 94.501 97.461 96.349 92.666 91.441 90.591 90.299 90.349 92.259 92.641 91.586 91.874 89.271 89.069 89.066 90.854 88.718 88.583 88.771 88.373 88.216 88.006 87.871 87.823 87.778 87.988 90.056 89.003 92.753 90.931 88.873 89.806 87.053 88.726 88.568 88.038 88.593 89.576 91.301 91.783 90.653 91.808 86.728 88.778 92.026 90.651 85.161 89.083 88.653 86.408 84.283 84.253 84.313 84.206 84.136 84.111 84.066 84.153 83.863 83.178 89.738 88.216 85.741 83.321 82.936 85.981 85.456 87.746 87.176 89.151 85.806 88.771 88.743 87.291 85.478 86.193 85.323 90.331 89.011 84.463 82.408 82.848 83.683 80.326 79.591 79.538 79.473 79.381 79.286 79.153 79.003 79.031 78.991 79.053 79.203 79.398 80.028 82.418 80.946 84.281 80.871 79.771 79.398 79.376 79.341 79.253 79.238 79.211 79.248 81.658 84.736 81.666 85.001 87.588 81.681 80.673 79.558 80.208 79.483 79.923 79.333 82.178 85.226 81.511 87.348 82.741 82.243 81.126 81.376 84.278 81.116 78.198 81.278 80.663 78.671 77.776 77.696 77.593 78.933 78.728 80.811 80.308 80.478 79.466 77.801 77.628 77.743 77.838 77.906 77.951 77.968 77.988 78.068 78.528 79.286 78.693 78.438 78.603 79.533 78.916 78.983 79.431 80.071 82.011 81.731 81.048 79.446 79.041 79.121 79.211 79.363 79.516 79.648 79.783 79.838 79.903 79.951 79.968 80.028 80.041 80.016 80.018 79.956 79.943 79.891 79.831 79.731 79.651 79.603 79.501 81.806 84.896 80.613 83.606 81.901 82.643 80.793 80.466 85.421 88.666 83.271 84.158 77.591 77.443 77.258 77.081 76.896 76.791 76.591 76.433 76.393 76.236 76.146 76.058 75.918 75.788 75.603 75.478 75.321 75.153 75.001 74.843 74.661 74.491 74.316 74.171 74.041 73.871 73.698 73.518 73.331 73.231 73.188 73.081 72.978 72.791 72.581 72.371 72.151 71.931 71.861 71.843 71.823 71.703 71.506 71.233 71.023 70.818 70.633 73.596 71.113 69.956 69.733 69.543 72.396 74.091 70.966 71.921 70.378 68.888 70.181 67.468 67.253 67.038 66.793 66.626 66.446 66.213 66.033 65.811 65.646 65.523 65.351 65.188 65.078 64.978 64.798 64.571 64.416 64.223 64.103 63.913 63.673 63.478 63.201 62.988 62.761 62.468 62.226 62.016 61.808 61.566 61.366 61.168 60.953 60.748 60.516 60.281 60.383 59.791 59.768 59.686 60.071 62.511 63.101 63.683 61.158 61.813 59.563 58.701 60.351 62.871 59.686 56.746 59.628 58.538 58.498 58.461 56.973 58.631 55.288 55.861 55.466 55.303 59.056 56.383 58.271 60.103 54.888 55.328 53.686 56.681 58.003 54.923 53.538 52.566 51.468 51.238 51.006 50.791 50.576 50.348 50.143 49.881 49.566 49.286 49.108 48.901 48.761 48.796 48.731 48.576 48.441 49.233 47.853 47.756 47.433 47.278 47.107 46.992 46.882 46.743 46.656 46.623 46.571 46.582 46.587 46.503 46.413 46.279 46.12 45.971 45.829 45.735 45.654 45.557 45.44 45.308 45.201 45.066 44.931 44.802 44.682 44.558 44.392 44.138 43.863 43.696 43.591 43.533 43.453 43.395 43.316 43.225 43.159 43.096 43.023 42.916 42.866 42.763 42.676
90.184 91.624 95.191 89.901 89.254 96.311 100.479 94.869 93.439 95.276 99.366 100.391 95.236 94.836 92.756 92.914 97.374 98.111 101.221 104.086 103.789 100.536 95.681 100.434 94.941 97.011 96.089 94.649 94.586 92.356 91.034 90.544 91.504 93.209 93.691 94.619 96.119 93.066 89.364 89.219 89.064 88.959 88.808 88.721 90.423 88.461 88.301 88.156 87.996 87.836 87.821 87.753 87.653 90.578 96.326 94.513 90.973 93.896 92.393 89.483 89.943 90.346 88.381 90.453 90.943 88.566 88.973 90.118 87.478 87.763 95.586 94.901 88.448 86.491 90.578 88.428 84.291 84.263 84.263 84.203 84.151 84.063 84.053 84.896 86.713 86.918 86.833 87.756 83.768 87.301 88.306 83.601 88.471 88.846 87.258 86.946 86.073 86.501 86.053 85.858 83.891 83.256 82.568 85.711 84.373 84.613 82.383 80.753 82.381 79.853 79.678 79.451 79.303 79.273 79.191 79.066 78.948 78.906 78.911 78.806 78.808 78.943 79.041 79.101 79.893 85.118 83.821 81.136 79.148 79.118 79.126 79.088 79.081 79.048 79.073 81.236 83.658 80.768 84.461 84.823 82.486 78.506 81.043 78.641 80.368 82.283 79.598 79.991 84.138 81.703 87.121 82.256 79.548 78.648 84.456 82.591 80.423 77.928 81.836 81.663 77.291 77.393 79.308 78.623 80.291 79.878 79.698 78.626 80.001 79.586 78.166 77.323 77.391 77.443 77.561 77.603 77.646 77.648 77.708 79.743 79.608 79.733 77.958 80.906 80.353 81.581 84.051 84.016 80.738 81.556 79.938 79.438 81.111 80.428 82.206 80.751 80.708 79.156 79.253 79.311 79.296 79.343 79.396 79.451 79.541 79.581 79.568 79.543 79.513 79.533 79.461 79.358 79.273 79.228 79.161 79.113 80.651 83.161 80.943 86.126 81.871 81.226 84.048 85.043 83.311 83.346 85.551 78.486 77.308 77.173 77.028 76.821 76.576 76.463 76.251 76.106 76.053 75.906 75.823 75.698 75.551 75.426 75.293 75.173 75.038 74.883 74.728 74.561 74.381 74.213 74.031 73.858 73.756 73.628 73.466 73.301 73.103 72.923 72.818 72.756 72.673 72.506 72.281 72.076 71.871 71.723 71.716 71.716 71.648 71.438 71.173 70.948 70.748 70.538 71.583 75.813 74.413 73.548 73.361 71.876 74.548 72.068 73.296 72.166 71.043 71.006 70.668 67.206 66.976 66.773 66.546 66.368 66.176 65.986 65.806 65.636 65.453 65.301 65.178 65.091 64.958 64.791 64.616 64.438 64.256 64.103 63.943 63.751 63.521 63.296 63.068 62.833 62.561 62.313 62.076 61.803 61.608 61.398 61.218 60.991 60.858 61.683 60.416 61.638 62.278 60.158 59.653 61.821 64.201 59.468 60.488 61.988 61.516 60.696 58.646 60.511 61.166 60.208 57.586 56.696 57.301 57.731 57.911 57.473 55.598 55.483 55.333 55.703 56.616 54.478 56.351 54.018 54.676 55.708 59.398 56.001 56.901 54.968 54.958 54.906 55.301 51.653 51.288 51.068 50.866 50.638 50.433 50.178 49.938 49.716 49.408 49.126 48.918 48.743 48.578 48.416 48.281 48.151 47.996 47.866 47.591 47.431 47.258 47.111 46.993 46.887 46.783 46.718 46.679 46.613 46.643 46.628 46.543 46.452 46.327 46.158 46.001 45.817 45.712 45.645 45.562 45.459 45.367 45.269 45.167 45.053 44.897 44.76 44.653 44.514 44.271 43.995 43.798 43.65 43.553 43.486 43.399 43.354 43.299 43.202 43.152 43.09 42.973 42.888 42.833 42.726 42.658
89.671 91.101 93.116 91.006 89.274 89.541 98.961 97.426 94.374 104.561 97.321 99.044 99.466 97.386 99.854 100.349 96.959 96.136 101.561 104.056 101.314 98.064 102.126 100.459 94.061 95.514 96.364 92.221 92.561 91.639 90.801 91.129 91.949 92.179 96.506 99.414 99.116 95.346 90.144 89.369 89.224 89.049 88.946 88.828 88.711 88.531 88.396 88.271 88.128 87.953 87.778 87.798 87.743 88.473 89.461 88.696 89.888 88.911 91.551 91.351 88.333 89.286 89.936 88.906 89.798 88.241 90.273 88.091 88.186 90.838 93.728 93.141 87.026 90.851 89.158 88.273 84.456 84.418 84.363 84.276 84.186 84.096 84.081 84.358 86.166 91.486 85.966 83.053 86.028 86.173 89.381 90.993 93.196 90.556 85.126 85.548 86.011 85.353 83.306 83.938 81.536 81.361 85.363 85.338 86.451 85.718 82.026 80.603 80.186 79.836 79.676 79.613 79.261 79.211 79.088 79.001 78.903 78.803 78.756 78.678 78.558 78.531 78.643 78.771 78.938 81.551 82.721 78.836 78.863 78.868 79.211 78.876 79.531 79.036 78.913 79.518 79.716 81.223 80.371 80.856 80.546 81.863 81.461 79.468 79.098 78.546 78.153 77.951 81.953 81.903 80.808 79.963 78.978 78.446 80.541 81.101 83.561 83.991 81.353 80.791 76.896 79.636 79.603 78.963 81.631 79.638 77.171 79.633 77.636 77.783 77.893 76.991 77.048 77.066 77.163 77.286 77.318 77.321 77.348 79.186 82.121 79.796 78.411 81.378 82.433 82.646 82.763 81.381 83.366 82.738 83.928 81.101 78.793 79.766 81.408 80.933 79.296 78.811 78.843 78.846 78.868 78.886 79.093 79.163 79.838 80.491 80.071 79.278 79.083 79.121 79.053 78.938 78.866 78.806 78.791 78.698 78.656 84.308 81.341 82.176 80.716 89.036 88.088 82.973 83.666 85.553 84.386 80.098 81.928 76.776 76.653 76.513 76.301 76.136 75.961 75.808 75.716 75.578 75.526 75.381 75.276 75.138 75.011 74.873 74.728 74.576 74.418 74.273 74.103 73.916 73.748 73.566 73.421 73.341 73.211 73.081 72.883 72.696 72.501 72.381 72.358 72.218 72.028 71.808 71.668 71.608 71.601 71.546 71.396 71.133 70.931 70.688 70.488 70.306 70.491 72.916 77.188 72.836 77.638 73.501 71.961 71.383 72.696 71.431 69.693 71.828 69.903 66.933 66.751 66.473 66.288 66.116 65.968 65.771 65.576 65.391 65.268 65.161 65.053 64.958 64.788 64.593 64.431 64.273 64.128 63.948 63.766 63.561 63.343 63.133 62.893 62.673 62.426 62.151 61.851 61.631 61.456 61.468 63.853 64.211 64.586 66.273 64.308 65.168 64.486 62.958 61.171 61.066 60.791 58.373 59.528 59.798 60.606 62.068 58.823 60.651 60.591 58.403 56.936 56.581 56.248 56.576 56.866 56.133 55.543 55.406 55.143 55.801 55.486 55.551 58.641 53.971 56.621 56.208 54.128 55.331 54.143 53.601 54.628 55.768 54.711 52.686 51.161 50.953 50.733 50.483 50.251 49.938 49.688 49.506 49.226 48.951 48.751 48.563 48.438 48.288 48.093 47.958 47.786 47.613 47.491 47.343 47.193 47.058 46.928 46.831 46.751 46.726 46.653 46.663 46.688 46.604 46.495 46.356 46.185 46.023 45.878 45.736 45.646 45.581 45.461 45.376 45.297 45.215 45.091 44.98 44.85 44.718 44.591 44.459 44.194 43.919 43.745 43.645 43.585 43.481 43.41 43.338 43.257 43.181 43.164 43.042 42.937 42.837 42.798 42.704 42.636
93.001 91.734 89.224 91.916 91.811 90.146 101.596 102.351 100.729 93.901 95.911 95.859 104.284 95.034 98.956 104.014 101.294 99.336 102.291 101.476 96.021 94.659 99.106 98.694 93.261 91.814 91.414 93.244 91.124 90.966 90.819 90.641 90.481 91.586 97.286 101.094 101.594 99.426 94.364 89.536 89.366 89.219 89.071 88.926 88.793 88.621 88.508 88.381 88.238 88.123 87.916 87.748 87.776 87.713 87.563 87.503 89.621 88.813 92.021 91.848 90.041 88.513 93.338 87.176 86.516 88.271 90.351 86.141 89.971 86.028 86.578 87.093 86.653 85.941 85.933 86.223 84.628 87.943 84.491 84.348 84.253 84.141 84.493 84.073 89.586 91.093 93.486 86.853 86.956 87.853 90.848 88.756 90.013 86.836 85.846 85.656 84.066 82.211 81.928 81.728 81.586 81.456 83.093 84.653 85.283 83.818 82.763 80.656 80.293 79.891 80.023 79.568 79.191 79.071 78.993 78.918 78.848 78.713 78.571 78.576 78.488 78.363 78.273 78.311 78.406 78.496 78.543 78.543 78.561 78.688 82.098 79.961 79.711 79.763 79.583 78.698 78.628 78.431 78.203 78.521 80.198 81.008 83.426 78.311 79.873 80.011 82.866 78.698 81.806 79.166 77.058 77.798 80.451 77.106 78.078 81.371 83.463 82.383 82.338 81.003 76.796 77.376 82.213 79.526 78.778 79.813 78.233 77.278 77.436 76.631 76.641 76.668 76.698 76.721 76.773 76.896 76.998 76.996 77.033 78.281 78.876 77.558 77.263 82.566 79.058 81.788 82.976 79.023 81.368 85.791 82.728 80.578 78.346 79.483 80.181 79.743 78.411 78.451 78.451 78.428 78.438 78.618 80.358 81.318 82.136 81.136 83.063 79.556 78.716 78.703 78.641 78.621 78.531 78.461 78.451 78.366 78.276 82.883 79.903 80.493 87.433 87.043 85.683 81.396 78.658 82.548 84.308 80.676 77.236 76.416 76.281 76.156 76.018 75.846 75.701 75.548 75.458 75.326 75.211 75.063 74.933 74.846 74.703 74.593 74.411 74.248 74.103 73.966 73.821 73.661 73.486 73.286 73.136 73.041 72.983 72.873 72.676 72.463 72.296 72.091 72.001 71.916 71.773 71.616 71.521 71.496 71.451 71.351 71.081 70.841 70.651 70.476 70.271 70.046 69.803 75.181 74.041 74.283 73.148 72.841 73.263 70.593 71.981 71.178 70.046 71.301 68.556 66.643 66.416 66.226 66.023 65.878 65.736 65.556 65.371 65.226 65.101 65.018 64.903 64.756 64.568 64.398 64.266 64.101 63.928 63.758 63.598 63.388 63.173 62.971 62.721 62.456 62.218 61.961 61.721 62.356 62.091 61.388 63.228 62.508 62.376 63.346 63.473 64.028 61.891 62.931 61.101 59.086 59.728 59.018 58.088 60.526 61.618 62.321 60.546 59.543 58.248 56.753 56.746 56.373 56.081 56.811 56.233 55.456 56.723 56.841 56.396 54.536 57.028 57.796 56.568 53.651 54.556 56.663 58.156 55.013 52.428 55.426 54.956 53.603 53.003 54.601 55.381 52.128 50.531 50.343 50.131 49.836 49.528 49.261 49.011 48.831 48.616 48.438 48.281 48.133 47.961 47.801 47.686 47.546 47.426 47.276 47.121 46.988 46.888 46.833 46.728 46.678 46.693 46.723 46.663 46.546 46.379 46.209 46.048 45.908 45.778 45.67 45.585 45.486 45.405 45.321 45.233 45.146 45.024 44.873 44.757 44.649 44.479 44.346 44.064 43.842 43.713 43.637 43.561 43.488 43.391 43.318 43.238 43.164 43.076 43.035 42.937 42.88 42.773 42.68 42.627
98.206 96.901 94.204 91.341 103.089 97.996 106.821 100.251 107.034 97.484 98.461 100.074 102.269 100.539 99.019 95.056 99.581 99.076 100.394 98.986 92.986 92.771 93.066 96.546 91.936 92.861 91.581 92.269 91.316 91.149 90.976 90.849 90.681 90.566 94.746 100.036 100.941 98.264 93.099 89.694 89.501 89.354 89.198 89.043 88.903 88.771 88.631 88.476 88.341 88.223 88.098 87.863 87.728 87.726 87.686 87.583 87.816 90.436 91.291 92.521 90.043 89.161 91.498 87.321 86.558 86.616 87.291 86.248 88.171 87.026 86.116 86.068 86.146 86.121 85.613 86.858 87.976 89.036 84.516 84.381 84.548 86.113 85.376 84.563 87.738 86.251 86.996 90.301 88.993 91.298 87.301 89.553 87.963 87.103 82.818 82.383 82.218 82.058 81.913 81.786 81.728 81.636 84.363 82.348 81.308 82.001 81.393 80.668 80.243 79.976 80.418 80.921 79.271 79.071 78.926 78.838 78.768 78.598 78.528 78.396 78.383 78.268 78.191 78.048 78.748 78.068 78.061 78.173 78.273 80.236 81.241 80.748 82.808 81.971 78.951 78.501 78.273 78.011 77.893 77.928 78.106 77.806 79.948 78.588 78.891 82.383 83.903 82.251 84.628 82.443 81.111 79.976 81.743 82.276 76.598 77.708 79.256 80.701 80.366 77.123 76.383 81.188 81.991 80.651 79.838 81.586 79.766 76.836 76.376 76.343 76.351 76.381 76.348 76.371 76.403 76.446 76.663 76.703 76.731 76.726 76.988 77.671 80.851 82.656 81.496 84.796 81.101 84.223 83.371 82.768 85.768 83.621 80.706 77.998 77.978 77.948 78.046 78.128 78.078 78.061 78.101 79.456 81.946 82.191 83.313 81.113 82.183 79.976 83.108 79.498 78.278 78.196 78.206 78.151 78.103 79.523 80.146 82.213 78.028 82.791 83.288 85.076 81.253 82.983 83.771 85.108 80.968 84.811 79.081 76.071 75.913 75.793 75.706 75.608 75.456 75.258 75.181 75.046 74.896 74.776 74.653 74.548 74.396 74.281 74.088 73.943 73.791 73.663 73.511 73.353 73.186 73.016 72.863 72.756 72.691 72.613 72.426 72.216 72.006 71.888 71.723 71.571 71.483 71.421 71.408 71.386 71.271 71.013 70.793 70.593 70.396 70.196 69.941 69.656 70.478 73.206 72.308 73.801 72.631 69.828 73.403 69.831 70.131 69.018 68.756 69.553 69.926 66.311 66.153 65.983 65.751 65.633 65.513 65.336 65.173 65.061 64.976 64.863 64.696 64.521 64.361 64.221 64.043 63.881 63.716 63.581 63.408 63.176 62.956 62.738 62.478 62.226 62.331 62.331 62.123 62.436 62.961 61.803 61.138 61.843 60.718 63.338 62.493 65.733 63.378 60.486 61.503 58.508 59.116 59.141 57.848 58.508 59.736 60.561 58.861 57.801 57.903 56.568 56.411 56.271 55.963 56.673 58.936 56.893 58.163 59.298 57.148 55.631 55.828 54.908 56.401 53.513 53.993 54.708 57.061 55.661 54.913 52.381 52.608 53.371 54.196 56.413 56.211 53.413 50.393 50.176 49.951 49.621 49.331 49.113 48.878 48.703 48.478 48.323 48.153 47.998 47.836 47.693 47.556 47.453 47.311 47.203 47.056 46.961 46.908 46.826 46.771 46.728 46.771 46.728 46.598 46.471 46.276 46.082 45.957 45.805 45.687 45.599 45.521 45.436 45.368 45.297 45.205 45.074 44.929 44.797 44.675 44.554 44.411 44.19 43.955 43.781 43.669 43.621 43.54 43.437 43.39 43.314 43.27 43.171 43.092 43.003 42.925 42.828 42.731 42.675 42.603
103.569 103.136 96.826 93.604 98.634 96.209 99.059 100.939 102.844 100.311 98.934 94.611 97.489 101.884 103.069 102.134 97.874 97.909 100.174 97.544 100.269 96.504 93.231 94.009 91.944 91.816 91.714 91.589 91.461 91.334 91.116 90.999 90.864 90.706 91.464 92.559 96.044 95.336 89.941 89.786 89.651 89.499 89.323 89.171 89.018 88.876 88.698 88.596 88.446 88.326 88.201 88.076 87.856 87.671 87.683 87.643 87.536 89.951 92.886 89.286 88.026 89.496 88.231 88.983 91.813 90.418 87.531 86.501 87.316 87.686 86.458 87.093 86.566 86.166 85.763 87.473 90.513 92.401 84.561 86.283 86.821 87.253 88.436 86.576 90.756 88.251 89.628 87.583 92.011 90.678 88.973 88.601 88.081 84.158 82.456 82.313 82.196 82.101 82.046 81.916 81.806 81.633 81.533 81.403 81.281 81.108 80.853 80.558 80.281 80.041 79.763 81.116 79.556 79.123 78.883 78.788 78.661 78.578 78.456 78.323 78.236 78.126 78.098 78.071 78.906 79.031 78.038 77.633 79.451 81.363 81.813 84.158 84.843 81.903 78.368 78.186 77.878 77.606 77.618 77.708 77.583 77.466 77.626 77.151 79.176 77.518 81.438 83.161 83.338 83.043 78.188 82.006 81.476 79.128 77.153 76.291 78.661 78.476 77.641 76.111 76.103 78.521 79.971 78.596 76.343 77.618 76.486 76.151 76.093 76.063 76.066 76.061 76.028 76.033 76.041 76.071 76.163 76.356 76.416 76.433 76.786 77.388 78.536 80.696 81.546 79.711 78.306 83.081 85.731 83.131 82.006 84.483 80.636 79.888 77.968 77.713 77.651 77.676 77.651 77.668 77.921 80.963 80.991 83.173 82.896 82.138 79.771 83.183 80.231 81.778 77.843 78.748 77.826 77.761 80.276 79.963 82.331 83.948 78.726 82.981 83.996 86.641 79.836 82.811 84.091 84.353 82.118 81.678 79.211 75.763 75.591 75.486 75.406 75.298 75.258 75.081 74.918 74.778 74.603 74.471 74.336 74.246 74.083 73.933 73.761 73.618 73.478 73.353 73.216 73.031 72.866 72.713 72.591 72.471 72.391 72.331 72.168 71.983 71.836 71.678 71.541 71.353 71.263 71.266 71.281 71.173 70.961 70.733 70.523 70.321 70.123 69.901 69.531 69.208 70.101 72.593 72.641 69.176 70.323 72.656 69.833 69.441 70.283 69.481 67.323 67.566 67.678 66.016 65.888 65.731 65.568 65.413 65.281 65.138 65.023 64.916 64.813 64.658 64.461 64.356 64.183 63.983 63.818 63.668 63.513 63.351 63.121 62.911 62.688 62.456 62.233 62.231 63.588 63.516 64.293 65.671 62.478 63.726 63.023 64.331 64.813 63.018 59.451 61.331 61.513 60.906 61.843 59.638 58.481 57.923 57.791 57.636 57.463 57.831 60.208 57.541 56.753 56.458 56.228 56.016 55.806 59.353 58.028 55.088 56.573 58.033 55.398 56.591 56.751 57.016 54.618 53.326 53.768 56.218 53.761 55.541 52.946 53.508 56.031 53.421 55.068 52.843 53.953 55.451 50.516 50.021 49.738 49.448 49.163 48.968 48.718 48.518 48.361 48.171 48.066 47.886 47.726 47.558 47.438 47.341 47.218 47.126 47.016 46.946 46.893 46.876 46.871 46.836 46.761 46.651 46.536 46.338 46.151 45.993 45.846 45.724 45.628 45.543 45.456 45.389 45.33 45.236 45.125 44.989 44.852 44.717 44.583 44.444 44.289 44.06 43.846 43.715 43.668 43.598 43.542 43.439 43.351 43.299 43.238 43.142 43.059 42.967 42.88 42.801 42.725 42.644 42.582
