ncols 426
nrows 32
xllcorner    525018
yllcorner    185662
cellsize     2
NODATA_value -9999
77.37 77.48 77.55 77.643 77.73 77.803 77.875 77.938 78.023 78.088 78.173 78.378 78.378 78.333 78.393 78.445 78.49 78.588 78.59 78.64 79.45 80.765 81.373 78.86 82.87 80.813 81.27 79.035 79.105 79.205 80.793 83.615 84.75 84.04 81.99 80.093 79.713 79.755 79.805 79.888 79.94 80 80.1 80.183 80.218 80.275 80.333 80.363 80.42 80.498 80.54 80.57 80.613 80.693 80.773 80.778 80.82 81.3 81.105 81.173 81.18 81.215 81.225 81.228 84.485 81.768 81.42 81.988 90.908 92.165 92.058 90.548 85.098 81.54 81.553 84.673 87.298 87.23 87.228 86.523 85.518 85.67 83.998 82.925 82.943 83.008 83.565 83.933 83.203 82.913 83.155 83.55 85.903 87.485 89.265 94.295 92.795 90.163 91.065 90.413 85.953 85.125 85.083 84.06 83.775 83.75 83.753 83.735 83.683 83.603 83.5 83.443 83.36 83.288 83.235 83.178 83.185 83.198 84.78 88.528 94.685 95.703 95.16 95.433 95.355 95.278 95.55 90.498 89.03 88.363 86.455 85.015 85.438 85.898 86.408 85.74 85.625 85.618 85.583 85.705 86.403 85.877 87.017 86.372 85.965 87.197 86.18 86.177 86.095 86.157 86.827 86.527 85.762 85.267 85.01 86.565 88.097 91.932 95.145 98.617 99.882 100.212 99.425 98.727 92.88 89.137 88.677 88.43 88.087 88.187 88.455 89.325 89.057 90.95 97.795 99.392 100.852 101.35 101.002 101.085 99.682 100.887 100.81 99.155 96.607 88.152 87.485 87.205 89.032 91.212 92.995 92.152 89.212 89.575 89.912 87.097 86.855 87.125 87.227 87.247 88.075 88.057 90.23 92.085 93.002 94.62 95.975 94.53 91.38 89.152 93.415 94.99 93.772 90.445 87.012 86.8 90.015 90.425 86.777 86.385 86.48 87.665 86.457 86.06 88.985 92.497 88.15 85.84 85.1 84.987 84.917 84.802 84.745 84.59 84.465 84.942 84.802 84.115 84.145 84.462 84.887 83.927 85.007 85.214 84.264 83.937 82.849 84.094 85.109 85.177 85.747 84.154 84.939 90.617 95.187 96.152 96.572 96.097 95.717 92.872 94.007 93.582 92.914 87.889 83.172 81.792 81.562 82.009 81.824 81.274 81.204 81.239 81.374 82.679 81.597 81.704 81.667 82.474 82.742 82.702 82.849 83.029 84.412 84.327 87.444 93.479 93.362 95.354 96.597 96.187 94.072 93.994 90.937 88.967 85.774 86.157 87.234 87.964 86.999 86.872 86.942 87.032 87.117 87.167 87.194 89.747 90.302 92.027 93.077 92.944 92.094 97.147 100.622 100.444 97.917 94.614 92.612 93.164 93.062 93.337 93.899 94.407 95.089 95.219 95.662 100.062 103.972 103.697 102.434 102.874 96.914 96.127 96.197 96.287 96.854 97.542 103.559 102.534 98.959 98.809 102.884 106.371 107.754 109.349 109.066 107.411 105.916 104.489 103.786 103.199 102.954 100.354 97.684 98.186 97.531 96.319 96.094 96.531 96.266 96.359 96.519 96.651 96.679 96.776 97.001 97.866 99.244 98.304 97.449 97.486 97.524 100.136 103.159 103.356 101.986 100.231 107.336 109.264 109.024 108.514 106.326 105.519 104.441 102.614 99.984 99.186 99.669 100.451 98.866 98.471 100.879 103.404 103.936 99.779 99.016 98.866 99.951 100.336 101.174 102.944 100.289 102.639 108.774 111.481 111.244 108.176 110.779 112.154 113.196 112.726 111.196 110.026 107.216 102.649 103.526 103.484 102.511 101.809 102.744 103.729 104.221 104.341 105.056 104.181 104.251 104.221
77.325 77.395 77.485 77.555 77.655 77.75 77.778 77.865 77.905 77.983 78.033 78.455 79.113 78.245 78.298 78.598 78.495 78.515 78.51 78.575 78.59 81.09 81.043 80.648 80.86 79.585 78.913 78.995 79.083 79.18 80.628 83.443 83.433 82.303 81.34 79.643 79.598 79.643 79.75 79.848 79.913 79.985 80.07 80.143 80.19 80.228 80.268 80.3 80.378 80.428 80.48 80.51 80.6 80.628 80.693 80.738 81.018 81.21 81.03 81.023 81.133 81.19 81.19 81.893 84.083 81.393 81.428 86.188 92.155 92.12 91.998 91.853 86.798 81.615 81.768 85.363 88.193 88.058 88.073 86.503 86.625 86.803 85.278 83.033 83.413 83.558 83.053 82.868 82.955 82.905 82.905 83.088 83.778 86.448 87.613 89.703 91.36 91.96 92.93 91.77 88.823 84.238 85.888 85.27 83.783 83.69 83.713 83.663 83.64 83.613 83.538 83.418 83.345 83.26 83.228 83.168 83.07 83.15 83.535 85.895 88.468 93.763 94.025 95.298 95.41 92.623 88.885 90.208 92.77 89.82 87.903 85.955 89.053 85.458 85.683 86.75 85.5 85.398 85.358 85.353 85.72 85.415 85.422 85.84 85.557 85.6 85.725 85.83 85.892 87.045 86.94 86.922 85.462 85.077 85.95 88.15 88.685 95.207 98.682 99.292 99.94 101.765 101.11 99.905 96.95 96.295 89.25 88.56 88.345 87.795 87.972 88.925 88.227 94.847 98.312 100.105 102.245 102.402 101.627 100.547 100.045 100.235 99.13 98 92.637 87.63 87.052 86.93 87.832 91.287 92.56 94.085 90.04 88.805 91.187 90.452 86.755 86.615 86.952 87.097 87.405 87.29 87.285 87.28 88.08 89.775 92.042 89.97 89.49 90.495 94.335 95.005 93.157 87.322 86.317 87.122 88.375 87.092 86.315 86.292 86.565 87.437 86.792 86.122 87.202 89.115 89.19 86.687 85.21 84.995 84.815 84.665 84.602 84.532 84.395 84.287 84.115 84.335 84.587 83.88 83.657 83.697 85.067 84.964 84.177 83.324 82.699 83.749 85.107 85.477 85.164 84.059 85.919 89.442 94.502 96.484 98.359 97.544 96.667 95.684 95.629 94.887 93.877 85.527 83.317 81.979 81.817 81.302 81.179 81.137 81.152 81.217 81.252 81.512 84.889 82.569 82.007 83.389 82.717 83.629 82.894 83.032 84.177 85.672 91.067 92.912 95.204 96.359 96.724 95.184 95.212 95.489 94.499 92.022 85.147 85.644 88.329 89.404 87.644 86.909 86.997 87.119 87.129 87.202 87.382 87.859 89.752 92.444 93.674 94.179 93.554 96.237 98.904 99.032 96.722 92.819 91.827 91.987 91.947 92.887 93.784 94.784 95.022 95.332 95.869 98.554 101.272 100.399 100.937 99.987 98.524 96.202 96.294 98.104 98.292 102.727 104.184 104.112 102.377 98.912 98.459 103.599 106.284 108.021 108.036 106.861 105.146 102.161 102.291 103.854 102.716 100.789 97.584 97.604 98.109 96.066 96.606 96.596 96.199 96.299 96.414 96.484 96.489 96.699 97.449 98.806 97.444 97.261 97.329 97.529 97.911 97.606 99.359 100.386 102.021 103.106 100.949 107.979 108.451 107.354 105.941 105.469 101.119 98.181 100.124 99.344 98.839 98.716 99.366 98.414 99.476 98.699 100.656 98.629 100.559 99.264 98.964 99.251 102.646 101.494 100.224 100.151 102.121 107.511 107.621 100.956 106.349 108.984 112.379 112.549 111.229 107.161 103.579 103.549 103.526 103.506 104.799 104.981 102.629 103.189 103.824 104.174 104.121 104.141 104.266 104.294
77.253 77.293 77.343 77.463 77.515 77.615 77.745 77.77 77.855 77.94 78.005 78.048 78.115 78.223 78.31 78.383 78.38 80.16 80.638 78.545 78.595 78.663 79.9 80.038 78.88 78.85 78.928 78.98 79.005 79.098 79.148 81.338 83.5 83.568 81.15 79.673 79.525 79.583 79.718 79.823 79.898 79.945 80.023 80.06 80.13 80.175 80.223 80.27 80.308 80.39 80.413 80.478 80.53 80.633 80.725 80.933 80.988 80.93 80.933 81.06 81.145 81.173 81.188 81.973 83.503 81.403 81.44 87.833 92.295 92.115 91.993 91.838 87.88 83.05 82.723 86.745 88.03 88.063 88.085 86.393 86.868 87.76 86.148 84.355 84.618 83.803 83.07 82.873 82.87 82.89 82.875 82.875 86.38 85.733 86.703 90.23 92.39 93.183 93.008 92.99 91.875 87.133 84.473 86.433 84.47 83.74 83.65 83.63 83.628 83.593 83.523 83.423 83.375 83.295 83.21 83.153 83.07 83.013 83.065 85.433 85.86 89.208 93.425 94.558 93.893 88.415 89.363 94.385 94.493 92.52 89.558 92.96 94.35 89.793 85.575 86.21 86.673 85.658 85.195 85.483 89.348 86.305 86.735 86.752 85.34 85.412 85.527 85.607 85.707 86.672 88.585 87.652 87.057 85.455 87.747 88.285 90.647 96.262 99.195 99.865 101.43 102.22 102.122 101.545 100.305 98.865 96.585 93.34 88.387 88.047 87.612 88.695 90.372 97.282 99.367 100.9 101.795 102.212 102.447 101.995 100.952 99.567 97.762 94.102 87.995 86.725 86.642 86.865 87.19 89.922 91.697 92.03 89.29 87.967 88.445 87.672 86.527 86.505 86.382 86.445 86.897 87.38 87.33 87.225 87.642 87.317 87.795 87.712 90.032 91.422 94.912 94.857 93.592 90.257 88.107 87.252 86.99 89.622 88.802 89.72 88.61 86.707 86.417 86.362 86.257 87.082 85.352 85.21 85.165 85.83 85.507 84.652 84.437 84.36 84.302 84.22 84.132 84.015 84.407 84.067 83.57 83.467 83.759 85.354 85.769 83.159 82.802 83.362 85.017 85.342 84.317 83.252 84.037 88.729 92.164 96.052 96.657 97.449 97.939 97.392 96.412 94.792 90.489 81.999 82.597 82.149 82.479 81.669 83.037 81.057 81.094 81.152 81.129 81.279 85.057 82.617 82.084 82.332 82.634 82.749 85.244 87.192 86.704 88.517 92.317 94.209 96.144 96.944 95.784 94.147 93.557 94.857 95.809 91.104 85.762 84.164 86.107 89.299 90.789 88.497 87.027 87.572 87.672 87.232 88.937 90.857 91.624 93.819 95.337 94.862 93.484 93.302 95.329 96.164 92.932 91.539 91.522 91.407 91.309 92.007 93.282 94.309 96.607 99.452 96.602 98.047 97.692 95.384 97.614 103.609 100.237 97.109 96.209 97.127 97.354 99.932 102.967 104.357 103.917 101.227 98.652 99.794 104.774 106.689 106.414 104.434 101.281 99.949 102.211 103.181 102.844 100.901 98.784 98.181 98.964 95.676 95.884 95.951 96.096 96.169 96.234 96.321 96.449 96.546 97.661 97.449 97.064 97.174 97.439 97.926 101.541 101.189 97.926 101.766 104.981 105.011 103.686 101.269 105.661 107.481 105.181 103.319 98.534 98.121 98.414 100.224 98.611 98.494 98.614 99.666 98.309 98.206 98.761 99.089 99.001 98.534 99.691 100.366 102.781 101.174 100.174 100.386 100.301 102.659 101.101 100.054 100.219 106.974 110.674 111.236 107.261 103.489 103.614 103.566 103.816 108.211 113.051 114.631 108.199 102.969 103.314 104.459 104.201 104.141 104.209 104.334
77.165 77.27 77.363 77.433 77.568 77.695 77.835 77.948 77.823 77.97 78.073 78.013 78.208 78.58 78.338 78.465 79.385 82.813 82.355 80.058 78.793 78.928 78.715 78.685 79.01 78.795 78.878 78.988 79.055 79.05 79.128 81.705 81.603 81.868 79.738 79.45 79.49 79.6 79.69 79.825 79.908 79.933 80.01 80.045 80.045 80.115 80.175 80.245 80.268 80.315 80.388 80.433 80.545 80.755 81.083 81.083 80.893 80.88 80.953 81.055 81.14 81.18 81.15 81.763 82.753 83.218 82.943 87.348 92.343 92.093 91.41 91.013 87.135 84.51 84.508 87.633 87.768 87.763 87.825 85.435 86.03 87.745 87.228 85.865 88.483 84.49 85.008 82.885 83.323 82.88 86.29 90.405 95.668 90.82 90.273 92.85 93.295 93.04 91.768 92.903 92.675 91.06 87.27 86.308 84.723 83.753 84.27 84.753 83.598 83.583 83.508 83.445 83.36 83.273 83.215 83.153 83.078 83.015 82.973 83.033 85.09 85.42 89.255 90.67 87.705 90.23 94.735 94.66 94.57 94.473 94.048 94.315 94.388 93.943 87.533 85.34 86.5 85.853 87.058 88.465 89.378 86.432 86.495 86.837 85.155 85.255 85.35 85.435 85.895 87.97 90.712 90.225 87.915 88.205 87.74 87.897 95.68 98.702 100.025 101.315 102.135 102.52 102.642 102.285 101.82 100.702 99.535 99.485 94.85 88.907 87.232 87.86 92.43 98.445 99.71 100.92 101.662 101.767 102.032 102.372 100.672 98.647 94.117 89.607 86.88 86.487 86.595 86.812 89.295 90.855 90.697 86.395 89.635 88.64 87.815 86.41 86.287 86.285 86.017 86.02 86.14 86.297 86.517 87.235 86.925 87.1 87.545 87.237 89.152 94.602 95.867 95.547 94.992 94.442 93.892 88.915 89.112 90.52 91.277 91.422 91.155 90.105 87.675 86.607 85.127 85.125 85.12 85.095 85.032 85.187 85.832 85.045 84.557 84.355 84.182 84.042 83.98 83.91 83.875 83.842 83.695 84.312 83.682 83.134 83.334 83.339 83.219 86.354 89.524 85.959 85.857 83.102 83.307 84.432 89.399 93.544 95.537 96.177 96.704 97.087 96.084 92.572 83.934 81.807 81.872 82.662 87.054 82.967 86.082 81.862 81.029 81.079 81.074 81.139 81.382 83.319 82.474 83.029 82.707 82.802 88.927 92.344 91.929 94.549 94.209 95.562 97.372 96.529 95.199 93.369 91.082 92.737 92.464 88.657 86.609 84.534 86.269 87.719 89.044 88.642 87.497 87.722 90.064 89.909 90.762 91.322 93.477 95.362 95.314 92.904 93.252 93.937 93.252 94.222 93.289 91.849 91.542 91.367 90.717 91.184 93.599 93.952 94.787 101.754 101.164 103.507 95.969 96.409 99.774 102.269 99.059 96.939 96.209 96.227 97.572 100.972 104.209 104.462 104.684 102.864 101.604 98.356 100.664 104.436 103.279 101.134 97.681 99.826 102.699 104.394 99.839 101.786 96.471 96.709 98.024 96.424 95.701 95.839 96.056 96.006 96.056 96.284 96.629 97.261 97.131 96.909 96.996 97.129 97.786 102.546 105.454 106.196 102.884 105.116 106.374 105.686 104.231 101.911 100.601 104.314 102.374 99.564 98.359 98.981 98.196 97.864 99.244 98.689 98.431 98.466 98.511 98.159 98.856 98.886 99.371 98.441 99.989 100.531 100.194 99.369 99.676 100.406 100.351 100.649 101.224 100.111 100.024 100.051 103.096 108.239 103.284 103.601 103.601 103.621 105.474 112.496 114.854 115.976 114.451 104.116 103.531 104.384 104.344 104.254 104.214 104.334
77.173 77.318 77.523 77.458 77.738 77.67 78.03 77.84 77.81 77.828 77.988 77.97 77.993 78.053 78.988 78.798 78.973 82.198 80.975 78.865 78.398 78.515 78.518 78.615 79.038 78.888 78.915 79.03 79.043 79.033 79.09 79.758 81.465 80.958 80.12 79.483 79.518 79.583 79.658 79.755 79.91 79.925 79.985 80 80.003 80.048 80.135 80.173 80.218 80.303 80.343 80.433 80.643 80.965 80.93 80.823 80.78 80.878 80.935 81.01 81.138 81.128 81.138 81.17 81.178 81.265 81.705 85.638 93.323 93.038 92.14 91.025 88.66 85.71 84.853 87.343 87.478 87.525 87.545 85.758 85.5 86.77 88.063 86.635 87.888 85.613 85.973 84.275 84.935 89.073 92.153 94.52 95.185 90.333 88.938 92.528 92.525 92.945 90.305 91.77 92.72 90.46 86.025 85.43 83.793 83.705 83.648 84.598 83.83 83.55 83.523 83.42 83.348 83.295 83.228 83.138 83.055 82.98 82.888 82.913 82.96 84.15 84.748 84.39 91.185 94.915 94.75 94.655 94.583 94.513 94.485 94.375 94.37 94.358 92.345 87.768 86.115 87.85 87.745 86.265 92.26 89.15 87.492 86.93 85.645 85.095 85.205 85.23 85.397 87.137 87.76 90.572 86.717 85.945 86.362 87.317 93.915 96.942 99.475 100.72 101.325 102.285 102.565 102.302 101.677 99.532 100.045 99.99 97.182 93.132 90.287 88.16 94.842 97.22 98.682 99.88 100.57 101.627 101.672 100.892 99.077 96.08 90.145 86.815 86.105 86.2 86.515 86.842 88.927 91.447 89.875 92.355 89.125 89.387 88.055 86.005 86.462 85.922 85.755 85.82 85.852 86.025 86.065 86.105 86.125 86.202 88.212 88.662 91.295 94.517 95.4 95.322 95.855 95.947 95.76 90.275 89.502 90.197 91.92 92.53 92.405 91.375 89.995 87.515 85.005 85.747 85.182 85.3 84.99 85.085 84.845 84.607 84.562 84.667 84.625 84.075 83.842 83.727 83.73 84.232 83.7 83.322 83.269 83.032 82.872 82.817 82.757 86.532 89.642 86.547 83.724 82.952 83.597 82.822 83.409 85.817 89.162 93.339 95.957 95.704 95.102 85.564 81.762 81.919 81.834 83.684 85.927 86.522 85.834 80.924 80.984 80.992 80.969 81.104 81.234 82.909 84.782 85.457 84.364 82.987 85.317 91.779 92.807 93.464 95.189 96.622 96.562 95.097 92.994 91.574 86.197 84.802 84.284 86.134 85.099 85.354 85.542 87.749 88.267 90.147 90.592 88.272 89.207 91.479 90.934 92.649 94.219 95.202 93.064 91.872 92.552 93.697 92.987 94.347 93.222 91.702 91.267 90.712 90.589 91.764 92.429 92.979 94.337 98.494 98.149 97.872 99.107 100.517 100.122 100.229 97.689 96.317 96.214 96.244 100.974 104.592 104.877 104.984 104.379 104.357 102.362 101.074 97.926 100.916 100.121 98.346 96.881 98.154 102.389 102.909 102.496 97.004 95.134 96.381 98.814 95.506 95.614 95.716 96.576 96.784 96.016 96.141 97.359 100.326 98.331 96.879 97.541 100.436 103.044 105.606 106.854 106.104 105.439 106.716 106.284 104.381 103.951 102.281 99.916 100.799 99.971 97.926 98.011 98.484 98.739 97.699 97.814 98.724 98.221 98.174 98.246 99.466 100.431 98.886 99.151 99.164 99.684 99.491 98.124 98.406 99.556 100.349 100.564 102.619 101.906 100.839 99.966 100.054 100.514 101.496 103.036 103.639 103.631 108.624 112.964 115.051 116.104 113.894 114.451 108.221 104.829 104.599 105.446 104.579 104.321 104.324
77.595 78.593 79.343 78.56 77.578 77.433 77.508 77.605 77.678 77.785 78.22 77.913 77.925 77.933 77.993 78.043 78.7 78.425 78.233 78.255 78.3 78.38 78.428 78.48 78.645 79.078 78.933 78.893 78.893 78.965 79.065 79.67 79.673 79.325 79.345 79.46 79.54 79.66 79.643 79.713 79.81 79.815 79.91 79.923 79.953 80.013 80.08 80.133 80.198 80.255 80.328 80.425 80.823 80.983 80.708 80.69 80.753 80.873 80.945 81.043 81.095 81.09 81.1 81.135 81.19 81.233 81.29 86.583 93.153 93.143 93.18 93.163 93.2 86.745 85.033 85.078 85.26 85.08 86.015 84.66 83.325 85.04 87.023 87.45 86.478 85.9 85.833 86.888 89.138 92.258 93.503 89.435 90.045 87.118 84.87 89.723 90.745 89.405 91.008 88.54 89.503 86.638 86.043 87.85 85.025 83.673 83.63 83.778 83.768 83.498 83.458 83.398 83.37 83.265 83.215 83.135 83.045 82.975 82.903 82.825 82.88 82.888 83.625 83.408 89.013 94.773 94.793 94.74 94.67 94.56 94.538 94.52 94.368 94.323 94.328 89.305 90.02 85.928 86.898 88.378 88.67 88.347 86.87 85.125 84.912 84.97 85.067 85.112 85.085 85.267 87.38 86.277 85.605 86.855 85.982 85.705 87.305 89.612 96.105 99.087 100.237 101.412 102.115 102.092 100.335 99.547 99.657 100.412 97.925 95.337 96.482 93.745 96.235 96.345 97.227 99.81 99.887 99.855 100.645 99.2 95.432 91.865 87.497 85.665 85.787 86.137 86.432 87.37 88.842 89.487 89.575 91.242 94.527 93.695 89.127 85.827 86.2 85.83 85.927 85.597 85.63 85.737 85.935 85.98 86.662 86.862 88.555 88.632 89.667 92.635 93.297 93.497 94.042 94.642 92.762 90.4 90.072 89.11 90.575 91.665 92.055 91.32 90.72 87.52 85.64 85.517 85.76 85.065 84.802 85.535 84.707 85.16 84.467 84.822 85.132 84.202 83.957 83.712 83.705 84.147 83.495 83.217 83.127 83.054 82.832 82.679 82.547 85.889 86.837 84.459 84.402 85.017 85.052 82.592 82.569 83.659 85.967 85.284 87.439 95.054 94.652 83.127 81.709 81.827 82.839 81.584 84.039 86.802 84.502 81.564 80.822 81.597 81.149 81.284 81.699 81.737 82.139 81.677 82.392 83.207 84.749 91.182 92.749 94.832 96.237 96.714 95.614 95.007 92.269 88.767 85.572 83.864 83.847 84.034 84.674 85.244 85.312 85.699 88.567 87.872 89.567 90.757 91.512 91.839 93.184 94.572 93.932 92.472 91.814 92.032 93.099 92.179 92.767 93.869 94.922 93.492 91.007 90.672 90.682 92.012 92.202 94.622 95.112 95.439 96.532 99.307 99.419 100.359 99.017 97.359 95.677 95.547 96.639 102.464 104.202 104.922 104.874 104.142 102.717 104.024 104.277 102.351 97.861 99.544 100.606 98.321 97.701 98.354 97.729 101.509 98.849 94.896 94.976 95.104 95.299 95.386 95.506 95.904 96.814 95.879 96.011 96.136 96.239 98.286 99.626 98.684 103.209 105.664 105.744 107.251 108.406 107.591 106.996 108.001 107.444 105.889 103.086 98.756 100.391 102.709 99.179 98.014 97.846 97.939 98.029 97.654 97.566 97.821 98.451 98.159 97.781 97.994 99.681 98.366 99.656 98.541 97.694 97.894 97.724 97.861 99.261 101.581 103.506 105.871 102.624 99.269 99.444 99.856 100.401 100.064 102.189 101.199 103.996 112.594 114.911 115.979 115.469 115.944 115.476 113.756 107.429 104.999 104.911 104.036 104.434 104.451
77.518 78.25 80.31 79.863 77.573 77.298 77.395 77.428 77.583 78.265 77.928 77.91 78.435 77.99 77.988 78.038 78.015 78.11 78.143 78.285 78.245 78.383 78.445 78.478 78.548 78.708 78.798 78.843 82.845 80.42 80.485 79.115 79.473 79.598 79.263 79.428 79.553 79.558 79.615 79.688 79.73 79.795 80.135 79.94 79.96 79.985 80.03 80.1 80.165 80.23 80.36 80.445 80.533 80.658 80.653 80.678 80.77 80.87 80.94 81.008 81.06 81.08 81.018 81.108 81.15 81.245 81.588 87.39 93.11 93.138 93.138 93.158 92.645 85.615 85 85.05 85.023 84.84 84.113 82.73 81.913 82.025 84.615 86.415 86.758 87.403 87.325 89.483 88.77 88.675 87.245 87.6 88.628 87.623 85.625 86.345 86.44 88.735 89.963 89.205 86.313 89.143 92.193 90.943 86.333 83.67 83.63 83.548 83.478 83.435 83.413 83.393 83.31 83.24 83.16 83.093 83.048 82.958 82.893 82.813 82.753 82.793 82.853 83.158 83.855 90.408 94.815 94.763 94.703 94.685 95.088 94.535 94.438 94.195 88.813 87.335 90.09 86.923 88.235 87.163 86.745 86.855 86.597 85.457 84.797 84.862 84.932 84.942 84.932 84.91 84.927 84.822 84.932 85.392 85.907 85.095 85.102 86.092 87.812 95.945 99.065 99.835 101.105 100.617 100.052 99.567 99.582 98.64 96.367 99.102 99.59 98.41 97.827 96.332 96.345 96.547 98.177 98.992 99.38 96.407 91.497 87.662 86.777 85.472 85.705 86.042 86.287 86.802 88.842 89.997 88.635 86.295 92.142 88.972 85.725 85.755 85.785 87.207 87.465 85.48 85.437 85.645 85.967 85.85 87.087 87.432 86.802 89.51 89.2 92.255 91.852 90.567 91.605 91.7 90.515 89.802 88.762 88.127 90.657 92.335 91.537 91.22 90.96 89.367 89.15 86.235 85.695 86.717 85.317 85.102 84.802 85.2 84.435 84.922 84.507 83.942 83.972 84.637 84.147 83.945 83.25 83.099 82.952 82.904 82.817 82.684 82.552 82.452 83.132 83.682 84.674 87.814 85.074 82.037 82.117 82.352 82.619 82.924 82.507 86.124 85.244 81.624 81.659 81.904 81.739 81.769 82.397 86.229 80.737 81.757 80.992 81.354 81.027 81.469 81.707 81.729 81.774 81.544 81.584 82.099 84.142 89.267 93.857 95.657 96.999 96.022 94.512 93.077 89.582 84.937 85.477 86.292 84.369 84.194 85.067 85.252 85.352 85.749 88.814 88.082 88.289 88.067 89.747 93.154 94.057 94.957 92.307 91.697 91.562 91.597 92.184 91.902 91.964 92.349 96.092 94.647 92.927 90.699 90.609 93.269 94.562 95.004 96.507 96.857 96.617 95.214 97.362 99.327 99.674 99.554 95.409 96.099 99.917 103.142 104.254 104.772 103.932 101.682 97.899 102.647 102.227 99.736 98.264 100.944 100.429 98.531 96.769 96.449 95.901 94.916 94.664 94.746 94.894 95.044 95.184 95.294 95.336 95.429 95.671 95.919 96.234 96.189 96.211 96.276 97.659 100.134 103.791 106.449 107.286 108.586 108.759 108.646 108.254 107.264 106.411 104.476 100.326 97.261 98.279 98.596 97.126 97.366 98.521 98.144 98.289 97.541 97.479 97.396 97.771 97.881 97.851 97.961 98.681 100.111 101.821 101.996 100.579 97.581 97.604 97.634 99.216 100.619 101.574 104.439 101.414 98.741 98.939 99.476 101.184 102.256 102.124 99.774 100.691 108.091 114.126 115.164 115.256 115.546 116.016 115.271 112.911 106.124 105.449 102.874 103.674 104.471
82.608 80.838 77.415 77.075 77.208 77.258 77.32 77.37 77.525 77.848 77.85 77.805 77.988 77.878 77.92 77.945 77.963 78.028 78.118 78.158 78.285 78.323 78.405 78.483 78.535 78.603 78.658 78.84 83.828 79.693 81.06 79.868 79.188 79.208 79.268 79.703 79.498 79.585 79.633 79.645 79.66 79.743 79.823 79.88 79.84 79.95 80.038 80.088 80.148 80.205 80.3 80.408 80.525 80.618 80.67 80.67 80.75 80.823 80.92 80.973 81.063 81.053 81.03 81.115 81.113 81.258 81.713 88.728 93.12 93.153 93.263 93.38 92.863 85.663 85.003 85.008 84.39 84.098 82.285 81.87 81.918 81.978 81.995 84.51 86.46 86.108 86.028 86.88 86.703 86.058 89.735 89.975 90.21 90.025 87.965 86.263 87.07 90.448 89.148 89.83 85.658 90.983 92.463 92.06 90.513 86.08 83.91 85.748 88.733 86.955 83.375 83.34 83.29 83.248 83.188 83.123 83.038 82.938 82.885 82.793 82.74 82.688 82.735 83.16 83.78 85.993 92.818 94.975 94.995 94.905 94.635 94.555 94.495 93.868 90.125 87.65 86.413 84.295 88.933 88.883 88.905 87.76 86.395 87.397 85.012 84.752 84.805 84.787 84.78 84.727 84.712 84.71 84.72 84.802 84.79 84.685 84.697 84.81 85.705 90.05 94.932 97.94 99.455 100.13 100 99.67 99.477 96.717 97.88 99.265 99.4 99.89 99.087 97.735 96.58 96.332 96.365 97.207 97.975 93.34 87.685 87.09 86.38 85.357 85.66 85.917 86.205 88.332 88.885 88.972 87.747 87.8 93.065 86.645 85.547 85.63 86.292 88.027 87.44 86.175 89.18 86.995 85.637 86.102 87.747 87.63 86.522 86.895 87.39 90.292 90.965 90.06 87.47 86.47 86.767 87.57 86.942 86.397 87.992 92.115 90.837 90.402 90.452 90.292 90.327 90.34 91.245 91.067 89.642 88.742 86.647 84.967 84.732 85.102 83.985 83.877 83.862 84.297 85.575 84.312 83.477 83.102 82.872 82.752 82.737 82.779 82.432 82.339 82.197 84.844 85.087 84.267 83.712 82.429 83.502 83.402 81.954 81.884 82.089 81.614 81.592 81.592 81.772 83.327 80.637 80.994 81.369 80.759 80.697 80.717 80.717 80.922 81.249 82.567 82.262 82.259 82.057 81.762 81.654 82.967 84.242 83.039 87.292 95.689 96.482 96.952 96.022 94.337 89.704 84.207 84.672 87.397 86.652 85.849 85.682 85.304 85.399 85.947 88.172 87.587 87.839 87.852 90.159 93.802 93.642 92.337 91.512 91.534 91.557 91.584 91.624 91.877 91.912 94.004 93.532 94.612 94.662 91.697 92.794 94.482 94.602 98.644 100.024 97.827 95.789 93.587 94.529 95.134 98.464 101.052 98.139 98.487 101.259 101.919 103.039 103.819 97.554 96.314 96.309 97.934 98.069 96.441 96.301 97.459 98.994 97.846 96.929 95.854 94.524 94.444 94.516 94.669 94.844 94.956 95.046 95.119 95.186 95.336 95.824 96.086 96.379 97.049 96.324 96.854 96.514 97.514 101.159 105.436 106.566 108.189 108.764 108.486 107.094 105.559 103.849 100.984 97.541 97.234 97.124 97.471 99.526 98.564 100.969 98.321 97.219 97.606 98.799 97.901 97.596 97.186 97.624 97.661 99.786 101.391 101.651 102.401 101.264 97.524 97.541 98.269 100.509 105.341 102.061 101.681 98.149 99.014 98.391 98.926 99.816 102.064 100.336 99.409 99.164 100.514 109.239 114.194 115.126 115.651 115.679 116.006 115.251 114.011 110.209 104.474 102.541 103.799
79.128 79.918 77.058 77.003 77.123 77.2 77.265 77.328 77.433 77.565 77.673 77.738 77.783 77.855 77.873 77.94 78.005 78.008 78.045 78.16 78.228 78.243 78.38 78.443 78.48 78.79 78.925 82.81 79.588 83.48 81.065 79.918 79.253 79.21 79.293 79.46 79.403 79.488 79.533 79.67 79.71 79.748 80.05 79.845 79.923 79.933 80.03 80.09 80.125 80.158 80.253 80.42 80.483 80.575 80.8 80.74 80.728 80.793 80.86 81.008 80.985 81.033 81.01 81.105 81.103 81.145 83.743 91.96 93.145 93.15 93.965 94.735 95.09 87.443 84.11 84.315 82.36 81.74 82.033 81.968 82.203 82.355 82.363 82.465 85.548 87.018 85.013 84.333 84.023 83.785 86.588 89.093 88.898 85.738 87.015 85.85 86.695 84.488 86.328 90.89 87.593 91.605 92.445 92.42 92.138 90.848 86.483 85.923 84.173 85.435 83.335 83.295 83.288 83.245 83.17 83.095 83.025 82.955 82.87 82.785 82.72 82.67 82.628 82.703 83.23 87.495 90.223 93.033 95.095 94.778 94.678 94.59 94.553 94.475 93.49 89.463 85.478 84.25 87.508 86.543 85.673 84.487 84.562 86.782 86.39 85.72 84.647 84.642 84.642 84.647 84.615 84.57 84.567 84.56 84.567 84.575 84.607 84.81 86.355 85.95 86.53 91.775 95.067 99.085 100.13 99.862 97.81 96.972 99.275 99.235 99.26 100.005 100.552 99.422 98.305 96.877 96.727 94.45 91.555 86.835 87.512 87.242 86.417 85.23 85.542 85.787 85.96 88.275 89.747 87.102 86.7 89.812 91.117 86.28 85.51 85.427 84.94 87.115 87.442 85.05 88.787 86.797 86.022 87.16 88.215 88.072 86.872 86.085 86.147 86.247 86.245 86.605 85.75 85.73 86.267 85.777 86.06 86.365 89.512 90.185 89.892 88.817 90.015 90.307 90.247 90.28 93.487 94.692 93.64 92.85 90.632 89.66 85.05 85.08 84.235 83.81 83.835 84.802 84.547 83.98 83.515 83.437 82.972 82.777 82.797 83.434 82.452 82.217 82.147 81.972 83.474 83.672 84.027 81.859 81.442 82.904 83.544 83.772 82.617 81.722 81.529 81.599 82.634 82.127 80.522 80.507 80.719 80.617 80.642 80.622 80.769 80.854 82.362 83.894 82.889 81.802 82.144 82.319 84.884 84.719 84.639 84.482 85.127 90.474 92.354 95.932 96.902 95.947 93.472 86.317 84.172 84.559 87.374 88.324 85.897 85.664 85.619 86.824 87.259 87.274 87.569 88.142 92.527 93.097 92.137 91.519 91.502 91.532 91.537 91.562 91.599 91.674 91.984 92.462 92.407 93.752 96.132 93.149 93.019 95.862 100.164 101.317 100.579 101.442 98.894 96.964 94.269 96.467 100.777 101.249 96.919 101.082 101.214 101.367 101.849 98.247 96.264 96.257 96.769 99.057 98.452 99.419 96.841 96.426 96.056 96.026 95.739 94.219 94.439 94.589 94.469 94.624 94.769 94.874 94.919 95.006 95.136 95.306 95.494 95.864 96.701 96.244 97.084 99.574 100.424 98.981 97.944 99.126 105.631 106.841 108.464 107.939 105.801 103.221 100.561 97.391 97.419 97.416 97.311 99.994 101.241 100.114 100.344 96.856 97.956 97.319 97.746 99.536 98.561 97.869 97.906 98.864 100.599 97.119 100.409 99.554 99.406 97.464 97.531 99.376 102.691 103.131 99.071 100.671 97.716 97.679 98.224 98.894 101.226 101.111 99.581 99.341 99.289 99.209 100.066 103.181 114.156 114.301 115.259 115.191 116.074 115.184 115.329 111.211 103.634 102.951
79.29 77.153 79.025 77.908 77.045 77.185 77.36 77.403 77.405 77.485 77.588 77.603 77.663 77.723 77.803 77.895 78.04 77.983 78.265 78.138 78.238 78.248 78.373 78.42 78.473 78.585 79.88 80.34 81.058 81.033 81.988 81.32 79.49 79.228 79.265 79.31 79.458 79.55 79.493 79.528 79.61 79.653 79.735 79.805 79.883 79.92 80.015 80.003 80.083 80.21 80.288 80.37 80.488 80.575 80.96 81 80.858 80.818 80.853 80.938 80.95 80.948 81.035 81.233 81.133 81.15 84.563 93.17 93.12 93.145 94.088 95.213 95.655 84.733 81.658 82.765 82.003 82.195 82.425 82.645 83.16 83.505 83.543 83.363 82.943 84.74 82.875 82.973 83.043 82.305 83.41 83.505 84.755 86.333 85.708 83.068 83.048 85.155 83.898 87.09 87.353 88.928 92.113 92.423 91.675 90.755 85.91 84.515 85.078 83.978 83.32 83.24 83.225 83.23 83.155 83.1 83.003 82.958 82.9 82.803 82.715 82.65 82.615 82.585 82.635 86.438 85.848 85.563 93.628 94.903 94.708 94.665 94.635 94.625 93.395 87.56 84.633 86.518 86.538 86.01 84.885 84.43 84.705 87.882 89.002 87.67 85.622 84.457 84.51 84.497 84.492 84.435 84.412 84.407 84.442 84.45 84.462 85.155 87.425 88.862 87.39 85.597 89.995 95.812 97.677 94.795 96.94 99.225 99.252 99.24 99.43 101.235 101.785 100.902 99.64 98.452 97.467 90.795 87.317 85.205 85.945 86.7 84.935 85.077 85.322 85.565 85.815 86.99 88.987 85.842 89.977 90.857 87.11 85.35 85.315 85.245 84.777 88.747 87.862 87.23 89.747 89.287 89.962 88.162 88.482 86.782 85.857 85.165 84.797 84.82 85.155 85.53 85.26 85.482 86.172 84.845 85.975 86.572 89.192 89.505 89.187 89.392 90.307 90.305 90.292 91.16 94.127 95.21 94.495 94.22 92.995 87.992 84.437 88.262 87.807 85.717 84.982 85.467 84.397 83.495 83.385 83.219 83.072 84.099 83.269 82.442 82.239 82.094 81.987 81.894 81.729 83.022 81.924 81.337 81.229 81.254 81.394 82.009 83.712 82.827 81.487 82.297 82.277 80.454 80.412 80.417 80.492 80.574 80.582 81.369 82.529 81.457 82.002 82.662 82.294 81.682 82.709 86.732 90.737 86.404 85.417 84.734 84.669 85.474 86.044 92.017 95.527 94.209 91.424 86.784 83.952 84.472 85.652 87.907 88.929 86.994 86.422 86.704 87.167 87.302 88.647 89.297 92.434 93.162 91.784 91.519 91.534 91.532 91.539 91.562 91.657 91.804 91.977 91.927 91.999 92.322 94.529 94.402 92.072 95.069 98.952 100.267 102.037 103.514 102.217 100.627 100.222 102.052 101.997 99.764 96.749 98.127 101.084 101.252 101.544 98.537 96.344 97.029 99.499 100.577 100.167 98.206 98.741 96.629 93.861 94.951 93.944 94.009 95.066 94.354 94.449 94.554 94.776 95.999 94.911 94.954 95.074 96.536 95.626 95.836 96.689 96.871 100.836 103.546 104.794 102.954 99.029 97.284 101.681 105.541 106.569 105.576 103.419 99.814 97.479 97.419 97.411 96.811 95.816 96.466 96.549 97.659 96.861 96.811 96.234 98.481 97.096 97.159 97.719 97.004 99.856 98.739 98.336 95.949 95.956 96.076 96.891 96.586 97.771 100.821 104.031 103.319 97.036 99.146 97.519 97.281 98.984 100.429 101.484 99.904 99.359 99.499 99.309 99.944 99.621 99.854 105.649 113.944 114.871 115.274 115.579 116.069 115.389 113.221 102.671 102.601
78.093 76.95 77.998 77.62 77.015 77.155 77.24 77.378 77.485 77.508 77.49 77.643 77.668 77.703 77.78 77.905 77.98 78.005 78.453 78.108 78.16 78.265 78.325 78.473 78.853 78.595 79.9 80.405 81.458 80.388 82.563 79.495 79.203 79.215 79.273 79.298 79.365 79.513 79.49 79.583 79.735 80.308 79.755 79.745 79.868 79.878 79.955 80.048 80.113 80.198 80.34 80.568 80.713 80.64 80.735 81.075 80.91 80.893 80.815 80.903 80.973 80.938 81.235 81.178 81.133 81.16 83.095 93.16 93.125 93.17 93.18 93.22 93.2 82.023 81.723 81.635 81.68 81.688 82.358 83.188 84.103 84.45 84.5 83.543 82.25 82.585 82.095 82.518 84.005 82.25 82.273 83.285 83.68 83.33 82.29 82.47 83.64 83.075 82.613 87.888 87.833 88.52 89.73 91.828 90.638 87.85 83.385 83.81 83.963 83.388 83.335 83.26 83.21 83.175 83.133 83.09 83.025 82.963 82.905 82.83 82.705 82.658 82.583 82.518 82.52 82.595 83.695 87.13 89.765 91.893 94.88 94.723 94.778 94.663 87.36 87.538 92.3 89.38 86.583 87.135 83.738 84.752 85.977 87.582 86.972 85.34 84.192 84.257 84.355 84.372 84.395 84.365 84.33 84.295 84.302 84.272 84.315 84.612 87.46 89.235 87.425 85.257 85.52 87.555 89.635 88.557 98.52 100.03 99.485 99.242 99.855 102.045 102.345 102.077 101.3 100.035 99.145 97.402 89.21 84.62 84.98 84.992 84.812 84.922 85.075 85.24 86.185 88.137 85.917 85.075 89.742 90.092 86.06 85.685 85.017 84.705 84.612 90.477 90.215 92.972 88.455 93.68 91.012 89.66 87.985 86.667 85.652 85.247 84.655 84.642 84.67 84.687 85.252 88.235 87.73 84.825 84.277 84.392 84.892 86.882 88.707 89.337 89.682 89.69 90.435 92.555 94.825 95.21 94.517 94.115 92.2 85.21 86.3 90.352 89.9 87.192 85.607 85.505 84.212 83.527 83.425 83.394 83.217 83.752 84.662 83.764 82.602 82.089 81.929 81.769 82.464 81.962 81.417 81.294 81.147 81.524 81.877 80.974 81.279 81.989 82.499 82.289 80.867 80.374 80.349 80.377 80.399 80.417 80.947 81.394 81.104 81.232 81.679 82.287 82.054 85.632 87.274 90.702 92.099 92.424 90.724 86.902 84.719 84.917 83.337 84.159 88.929 90.362 88.544 85.639 84.192 84.889 84.979 85.257 87.954 88.667 89.532 88.434 87.457 87.519 90.979 93.144 93.184 93.027 92.352 91.559 91.537 91.559 91.569 91.552 91.582 91.712 92.122 91.899 91.979 91.982 92.792 94.209 91.997 91.257 97.087 101.694 103.842 104.517 103.397 102.917 100.467 102.812 103.659 102.484 97.432 95.724 100.254 100.764 101.454 100.974 96.629 95.694 98.634 101.297 99.894 99.214 98.526 96.221 93.609 93.654 93.679 93.854 94.091 94.191 94.311 94.489 95.169 95.186 94.839 94.984 94.959 95.766 95.994 95.939 100.671 103.336 104.099 105.334 104.871 103.619 99.154 98.949 97.664 102.819 105.269 106.094 104.629 100.171 97.691 97.409 96.721 95.536 95.441 95.434 95.431 95.851 95.714 99.529 97.196 97.819 98.859 98.211 98.134 101.769 100.609 99.366 96.636 95.889 95.916 95.944 96.104 97.081 99.189 104.591 106.909 101.399 96.821 98.964 97.459 97.554 102.024 102.871 101.266 101.184 99.226 99.364 99.344 99.339 99.261 100.859 102.424 107.116 114.579 115.399 115.979 115.246 113.509 110.219 101.399 103.589
77.113 76.748 76.875 76.878 76.958 77.193 77.195 77.283 77.39 77.728 77.448 77.575 77.63 77.733 77.843 77.888 77.948 77.998 77.983 78.095 78.148 78.155 78.298 78.475 78.728 78.555 78.743 80.218 79.36 80.165 82.685 79.283 79.163 79.18 79.278 79.32 79.31 79.415 79.435 79.515 79.768 80.078 79.773 79.76 79.813 79.888 79.983 80.02 80.073 80.298 80.65 80.85 81.713 80.92 80.745 80.843 80.93 80.885 80.858 80.858 80.943 80.985 81.35 81.088 81.128 81.145 82.57 93.13 93.145 93.108 93.165 93.133 90.595 82.08 81.638 81.65 81.678 81.83 81.94 82.185 82.49 83.245 82.885 82.503 83.108 82.31 82.058 82.508 84.123 82.518 82.213 82.87 84.17 83.173 82.368 82.293 83.593 84.298 83.068 83.64 83.628 83.95 86.285 89.108 86.438 85.705 87.675 88.79 86.928 83.395 83.355 83.278 83.173 83.133 83.11 83.055 83.018 82.943 82.975 82.883 82.725 82.678 82.583 82.513 82.433 82.473 82.698 84.028 84.288 87.265 92.953 94.828 92.745 89.178 86.658 92.568 93.415 93.29 89.03 86.82 83.688 83.722 85.03 86.107 85.482 84.502 84.762 84.16 84.157 84.242 84.307 84.297 84.265 84.242 84.2 84.177 84.21 84.222 86.305 88.872 85.477 84.982 85.11 85.62 85.022 90.137 96.662 98.995 99.867 99.717 101.557 102.277 102.64 102.47 102.065 101.342 99.712 98.267 89.372 84.677 84.777 84.652 84.697 84.765 84.782 84.905 86.137 88.572 84.817 85.16 85.17 86.795 85.425 84.97 85.285 84.417 86.7 88.27 87.56 91.315 95.712 89.64 94.307 88.872 88.217 89.045 84.81 84.597 84.55 84.545 84.537 84.555 85.612 88.315 87.427 84.29 84.23 84.312 84.65 85.467 86.677 86.765 85.057 86.107 88.735 93.745 95.392 95.942 95.54 94.275 87.322 84.09 89.68 91.137 90.895 89.885 89.67 89.232 86.22 84.09 83.545 84.112 83.312 84.054 84.974 83.772 82.329 82.064 82.382 81.822 81.797 82.034 81.269 81.144 81.024 80.959 81.057 80.794 80.542 80.437 80.382 80.372 80.332 80.327 80.357 80.339 80.332 80.302 80.399 80.499 81.582 81.044 81.312 81.584 81.729 88.944 91.464 91.782 93.412 94.257 93.179 91.884 89.644 88.297 86.049 84.079 83.574 83.787 84.254 84.762 84.952 84.954 84.987 85.079 85.142 85.632 89.324 90.717 89.059 90.667 92.819 92.859 91.644 92.509 92.369 92.217 91.604 91.567 91.574 91.574 91.584 91.662 92.077 92.132 92.182 92.214 92.432 93.507 93.144 91.444 96.719 101.189 102.959 104.234 104.387 103.112 102.967 103.822 104.952 103.879 100.114 99.329 97.644 97.627 100.474 98.629 93.157 92.659 95.644 99.194 100.342 99.049 98.456 94.719 93.431 93.494 93.644 93.804 93.996 94.094 94.549 95.194 94.486 94.574 94.761 94.986 94.829 94.799 95.854 96.121 102.764 105.436 105.371 106.174 104.869 103.266 99.879 99.084 99.011 101.024 103.554 105.556 106.009 102.761 99.361 96.776 95.231 95.179 95.181 95.141 95.021 95.021 95.346 95.194 95.431 97.344 99.661 99.576 100.736 100.529 97.491 95.884 95.836 95.874 95.911 95.921 97.591 96.714 98.846 103.981 101.939 97.459 96.534 96.834 96.709 98.804 102.601 104.859 107.286 103.021 100.904 99.124 99.201 99.239 99.526 99.146 100.846 103.266 107.596 114.889 115.086 113.076 105.404 101.451 102.209 104.959
76.655 76.703 76.785 76.883 76.945 77.008 77.078 77.193 77.258 77.32 77.385 77.503 77.608 77.67 77.7 77.788 77.955 77.953 78.003 78.05 78.088 78.19 78.62 78.918 79.005 78.543 78.61 78.655 78.765 79.228 79.823 79.038 79.05 79.148 79.255 79.295 79.335 79.47 79.47 79.475 79.575 79.595 79.655 79.778 79.868 79.91 79.95 80.188 80.318 81.325 81.755 82.718 84.193 85.293 81.173 80.9 80.935 80.885 80.835 80.895 80.993 81.29 81.268 81.1 81.093 81.185 88.618 93.13 93.155 93.148 93.125 93.155 91.59 81.923 81.98 81.65 81.688 82 81.77 81.79 82.455 82.705 81.933 83.545 83.2 82.003 82.013 82.248 83.035 82.4 82.188 83.52 86.013 84.655 82.22 82.175 83.998 85.818 83.195 83.513 83.408 83.165 84.585 87.085 87.853 88.848 89.785 90.793 88.498 83.633 83.313 83.285 83.203 83.093 83.073 83.498 84.15 83.815 82.87 82.905 82.898 82.865 82.63 82.49 82.428 82.363 82.385 82.428 83.3 85.9 88.358 91.953 86.905 88.59 93.26 93.568 93.455 93.373 93.248 88.728 85.965 83.695 83.625 83.737 84.72 85.815 85.057 84.427 83.99 84.062 84.16 84.232 84.197 84.187 84.177 84.1 84.095 84.08 84.147 85.555 85.195 85.515 85.372 84.86 84.875 86.657 91.06 98.05 98.025 99.747 100.952 101.857 102.26 102.322 101.835 99.652 98.59 92.24 84.927 85.275 85.397 84.652 84.622 84.59 84.602 84.905 86.237 87.98 85.307 86.445 84.967 86.977 85.562 84.912 85.005 84.255 89.835 91.67 91.18 99.67 94.79 88.202 90.235 91.582 88.04 86.42 85.037 84.452 84.42 84.407 84.427 84.437 87.33 86.575 87.985 84.297 84.245 84.322 84.657 84.612 87.445 85.43 84.435 84.452 90.34 94.215 95.43 95.895 95.427 93.46 85.865 84.247 89.772 90.955 91.732 91.912 92.592 94.17 91.922 84.335 83.945 83.662 83.709 86.544 85.279 82.607 81.977 81.944 82.622 82.509 81.684 81.592 81.212 81.029 80.877 80.787 80.652 80.559 80.424 80.324 80.329 80.324 80.304 80.309 80.292 80.337 80.317 80.332 80.409 80.507 80.654 80.727 80.829 81.419 81.564 88.257 90.572 91.907 92.804 94.032 94.619 93.834 92.827 91.219 86.732 84.544 85.504 86.747 84.059 84.779 84.922 84.962 85.017 85.062 85.157 85.229 86.309 90.947 90.397 92.432 92.214 90.187 90.067 90.002 90.184 92.584 92.272 91.632 91.592 91.584 91.629 91.809 92.459 92.357 92.537 92.354 92.359 92.489 93.812 93.197 93.317 98.047 102.279 103.232 104.367 103.474 103.999 105.089 104.552 103.522 102.472 99.327 97.052 97.492 95.552 95.232 92.607 92.667 93.662 96.534 98.377 95.461 93.404 93.219 93.284 93.471 93.596 93.771 93.849 93.951 95.146 94.411 94.411 94.866 94.801 94.741 94.709 94.751 95.476 96.149 100.394 105.196 106.014 107.181 106.424 105.274 102.866 100.801 98.946 99.321 102.834 102.909 103.201 102.419 99.474 99.771 95.066 95.011 94.979 94.901 94.816 94.794 94.814 94.866 97.179 99.114 103.421 101.374 102.059 101.894 98.784 96.551 95.814 95.836 95.856 96.836 99.906 95.954 97.306 97.794 96.684 96.266 98.094 96.611 96.429 100.229 103.241 107.046 109.924 108.656 102.554 99.711 99.149 99.906 98.756 97.891 99.986 101.384 104.164 110.254 114.074 106.581 99.994 102.104 103.851 111.034
76.578 76.608 76.695 76.87 76.955 76.925 76.995 77.123 77.235 77.328 77.463 77.533 77.525 77.635 77.833 77.81 77.863 77.923 77.97 78.028 78.128 78.215 78.495 78.648 78.75 78.47 78.658 78.81 78.823 78.763 79.423 78.923 79.01 79.148 79.35 79.278 79.323 79.448 79.478 79.503 79.548 79.648 79.728 79.783 79.795 80.065 80.18 80.163 83.893 88.118 85.71 85.41 86.955 88.093 84.973 80.885 80.945 80.853 80.775 80.863 81.118 81.933 81.31 81.065 81.075 81.208 89.448 93.115 93.158 93.185 93.125 93.11 90.968 82.055 81.745 81.68 81.808 82.133 81.795 81.698 82.515 81.898 81.89 82.545 84.41 82.043 82.418 82.643 82.908 82.26 82.635 83.593 87.538 83.425 82.238 82.203 83.435 84.818 82.248 82.523 82.583 82.8 85.23 89.993 90.62 90.645 91.173 91.633 89.605 87.808 83.165 83.258 83.425 83.103 83.038 83.025 85.1 84.823 83.13 82.815 82.735 82.665 82.595 82.505 82.42 82.328 82.313 82.363 82.705 83.868 83.3 84.445 89.25 93.585 93.623 93.52 93.498 93.438 93.39 92.923 89.175 85.772 83.62 83.605 83.97 85.435 85.865 85.245 83.87 83.922 83.957 84.097 84.095 84.097 84.09 84.097 84.032 83.992 84.007 84.125 84.467 85.272 84.7 84.52 85.18 85.027 85.84 86.98 91.43 96.147 99.34 100.482 101.575 101.935 100.56 99.227 97.455 89.92 85.492 85.245 84.795 84.627 84.605 84.5 84.487 84.457 84.997 85.045 84.567 84.967 85.317 85.747 86.427 88.495 86.665 84.31 87.692 90.74 90.112 90.225 91.997 88.685 90.765 89.317 86.91 86.055 85.477 84.4 84.305 84.322 84.342 84.277 87.497 87.792 86.657 84.285 84.282 84.93 88.387 88.42 87.6 84.52 84.447 85.507 89.002 91.64 93.927 94.507 94.607 89.675 84.15 85.432 86.747 88.31 90.07 93.307 93.817 94.077 91.682 86.365 84.197 83.644 84.434 86.082 83.192 81.867 81.839 82.182 83.037 81.559 81.399 81.402 81.339 81.094 80.837 80.652 80.484 80.404 80.302 80.274 80.314 80.277 80.274 80.282 80.294 80.254 80.249 80.292 80.354 81.457 80.694 80.762 80.819 80.902 81.162 83.737 87.954 90.624 92.247 93.484 93.212 94.049 93.532 93.329 89.074 85.989 84.752 86.977 86.117 85.897 85.102 85.014 85.057 85.087 85.157 85.889 88.007 91.377 91.814 92.342 88.682 88.789 89.572 89.469 89.522 92.009 93.052 91.799 91.627 91.644 91.867 92.267 92.492 92.382 92.362 92.722 92.539 95.172 95.749 95.144 92.939 94.472 100.547 101.714 102.592 104.579 105.069 104.362 103.244 102.314 100.459 96.649 95.219 96.657 96.354 97.349 98.984 92.614 92.592 94.429 95.422 94.004 93.076 93.046 93.211 93.424 93.519 93.654 94.634 94.299 93.976 94.349 94.861 95.371 94.931 94.704 94.961 94.896 94.836 94.979 95.121 100.806 104.569 106.149 107.256 106.326 104.734 104.414 101.624 98.504 103.646 101.284 98.811 101.951 101.111 100.761 98.066 97.131 94.809 94.759 94.741 94.721 94.654 94.674 96.719 99.106 97.499 98.551 98.141 100.121 98.826 96.324 95.771 95.961 96.116 96.509 97.524 95.874 95.896 95.901 95.929 96.991 96.104 97.579 96.519 97.549 100.126 107.696 109.604 109.654 106.014 99.886 99.531 98.984 98.946 98.591 99.721 101.504 101.401 103.251 102.944 102.124 101.599 104.389 108.254 115.719
76.61 76.725 76.738 76.853 76.945 76.923 76.955 77.088 77.225 77.24 77.358 77.495 77.785 77.84 77.745 77.815 77.918 77.968 77.968 78.068 78.11 78.25 78.223 78.355 78.338 78.473 78.605 78.743 78.71 78.798 78.968 78.96 79.053 79.188 79.168 79.27 79.32 79.388 79.46 79.548 79.66 79.678 79.665 79.72 79.883 80.203 80.28 80.868 84.663 88.71 87.84 88.083 88.94 88.788 87.29 81.13 80.908 80.848 80.79 80.828 80.983 81.218 81.318 81.063 81.113 81.368 89.328 93.108 93.148 93.148 93.108 93.125 87.245 82.11 81.848 82.155 82.338 82.528 81.68 81.598 82.225 81.85 81.823 81.93 82.403 82.338 82.22 82.355 83.73 82.385 83.835 84.98 84.995 83.103 82.978 83.583 82.905 83.425 83.378 85.018 84.708 82.803 84.18 89.37 87.74 87.188 90.943 92.095 90.33 87.213 83.933 83.588 84.07 84.068 83.025 82.978 82.988 85.038 84.315 82.78 82.745 82.683 82.61 82.525 82.445 82.4 82.315 82.258 82.355 82.588 82.825 83.215 86.75 91.998 93.815 93.615 93.603 93.523 93.538 93.565 92.143 89.147 86.002 85.002 83.572 84.155 86.245 85.857 84.54 84.377 83.817 83.942 84.025 84.007 83.995 84.02 83.952 83.902 83.932 84.002 84.065 84.355 84.282 84.532 84.75 84.425 84.62 85.5 86.602 91.257 96.59 98.98 100.032 100.915 99.465 95.857 93.982 89.545 84.81 84.562 84.505 84.51 84.442 84.945 84.942 85.307 84.642 84.337 84.967 87.822 86.17 84.67 85.42 89.37 86.96 86.53 88.217 91.607 89.472 95.042 92.865 90.77 90.057 92.107 88.157 86.05 84.012 84.065 84.115 84.225 84.252 85.887 87.285 87.705 86.57 84.227 84.265 86.132 91.315 92.187 89.232 84.422 84.54 86.852 88.027 88.017 88.485 89.93 91.965 86.667 85.15 86.685 87.082 87.785 87.392 90.887 94.09 93.555 91.68 90.607 88.32 85.102 83.949 85.087 82.707 81.774 81.782 82.107 81.449 82.712 82.102 81.229 81.324 81.644 81.372 80.724 80.444 80.234 80.174 80.214 80.232 80.252 80.247 80.177 80.204 80.177 80.159 80.204 80.342 81.702 80.882 80.812 80.872 80.942 80.979 81.037 83.092 89.072 93.357 93.497 92.969 93.179 92.164 93.049 88.474 85.629 84.467 83.619 86.504 87.484 86.519 85.207 85.062 85.112 86.187 89.507 91.404 92.439 91.307 89.087 87.784 87.654 88.777 89.554 91.114 92.454 93.282 92.984 92.087 92.097 92.369 92.534 92.689 92.969 93.497 93.342 97.829 96.739 95.797 96.044 94.994 95.722 98.492 102.417 103.477 104.049 104.644 103.727 102.324 101.229 98.914 94.229 95.324 96.844 97.709 102.719 96.307 92.727 92.509 93.559 93.197 94.104 92.876 93.009 93.164 93.296 93.479 93.634 94.354 93.859 93.981 95.111 94.446 95.004 95.294 95.006 97.319 99.424 95.741 96.331 97.594 98.371 99.991 104.836 106.281 107.244 106.056 104.484 103.214 99.241 97.166 99.191 100.079 99.634 98.916 100.169 97.374 97.929 94.716 94.681 94.661 94.626 94.564 94.524 94.506 94.921 97.884 98.146 98.014 98.509 99.196 96.989 96.989 97.154 97.216 95.834 95.846 95.846 95.856 95.891 96.159 96.674 95.954 96.166 96.206 97.579 102.831 106.264 108.256 109.459 107.266 99.081 98.946 98.969 98.986 99.059 99.469 98.309 99.394 98.651 99.494 101.749 102.459 106.206 115.486 116.386
76.873 77.015 76.58 76.693 76.785 76.885 77.005 77.083 77.158 77.27 77.45 77.55 77.62 77.663 77.753 77.8 77.835 77.91 77.933 78.003 78.13 78.153 78.273 78.29 78.355 78.465 78.525 79.775 80.588 79.575 79.05 78.995 79.1 79.055 79.125 79.225 79.275 79.398 79.46 79.555 79.628 79.62 79.745 79.89 80.04 80.47 81.725 83.67 85.028 88.878 89.07 88.88 88.028 87.068 85.175 81.085 80.868 80.778 80.78 80.838 80.86 81.038 81.175 81.048 81.103 81.29 90.548 93.13 93.165 93.188 93.298 93.09 86.558 81.81 82.865 82.333 83.718 83.14 81.74 81.688 82.44 82.093 81.803 82.013 82.663 82.635 81.568 82.705 84.298 84.733 84.84 84.878 84.373 82.773 84.61 85.355 84.598 83.693 83.388 88.245 88.525 83.37 82.77 83.44 83.003 86.903 90.733 92.543 90.508 86.175 88.415 85.248 83.095 84.918 83.848 82.978 82.865 83.853 85.133 82.768 82.73 82.665 82.588 82.56 82.453 82.375 82.273 82.225 82.193 82.253 82.75 83.118 83.913 86.96 90.98 93.753 93.638 93.61 93.68 93.538 93.358 92.242 89.085 86.285 84.977 83.562 83.98 85.492 86.055 84.09 84.247 83.792 83.847 83.907 83.91 83.9 83.91 83.885 83.895 83.932 84.01 84.092 84.132 84.215 84.28 84.375 84.457 84.632 85.325 86.092 88.47 94.147 98.087 99.247 97.657 88.59 87.892 84.73 84.452 84.435 84.422 84.322 84.227 87.867 88.212 88.42 86.045 84.33 85.63 85.83 85.05 84.9 85.93 86.025 87.902 88.135 88.66 86.992 86.15 85.067 90.997 88.552 89.315 87.875 86.302 84.047 83.802 83.727 83.73 83.802 84.172 86.565 88.425 87.937 85.157 84.21 86.102 88.97 89.945 89.357 85.255 84.542 84.932 86.32 87.242 88.007 88.047 88.042 87.702 85.102 86.697 85.867 87.812 89.35 88.145 92.717 94.77 94.162 93.337 92.672 92.02 88.354 85.332 90.387 90.179 84.879 82.269 82.189 81.474 82.779 83.757 81.742 81.342 81.099 81.224 81.282 80.552 80.222 80.092 80.142 80.157 80.182 80.164 80.124 80.109 80.102 80.097 80.152 80.204 80.522 81.307 81.494 81.054 80.979 80.964 80.942 80.919 80.219 85.234 93.462 93.669 92.209 90.349 85.959 84.092 83.479 83.257 83.637 84.202 85.857 87.384 86.192 85.797 85.169 88.567 91.059 91.662 91.104 87.524 86.277 86.259 86.837 87.827 90.659 94.947 93.729 92.397 93.457 93.694 92.392 92.432 92.714 93.972 97.887 100.329 100.232 101.059 99.444 96.169 96.529 95.544 94.594 95.019 100.917 103.399 103.554 104.599 104.089 102.899 101.277 98.532 95.792 99.089 96.464 96.139 97.377 97.367 93.799 92.552 92.422 93.709 93.156 92.906 92.949 93.051 93.381 94.409 93.904 93.644 94.096 94.396 94.041 94.684 94.411 97.566 99.124 104.136 102.649 99.409 101.181 102.526 98.819 97.351 101.136 105.169 106.471 106.484 105.404 102.849 95.216 95.171 97.136 97.824 98.834 102.424 99.416 96.851 97.931 94.874 94.594 94.569 94.524 94.511 94.474 94.461 94.456 94.611 97.026 97.236 95.646 95.934 97.161 97.064 97.031 96.236 95.916 95.884 95.809 95.821 95.864 95.894 95.896 95.909 95.921 95.996 102.104 98.436 107.046 106.269 108.104 107.844 99.101 98.864 99.029 99.019 99.014 99.004 98.479 98.774 99.924 101.336 101.426 101.846 109.391 116.084 116.909
76.518 76.47 76.598 76.798 76.823 76.833 77.003 77.153 77.143 77.328 77.393 77.42 77.47 77.593 77.653 77.875 77.918 77.888 77.935 77.985 78.02 78.105 78.248 78.318 78.33 78.428 78.69 80.745 81.265 81.615 78.97 79.148 79.065 79.068 79.1 79.17 79.278 79.38 79.423 79.478 79.665 79.775 80.068 80.178 80.33 80.225 81.623 83.355 84.21 85.835 88.418 87.895 85.573 83.818 81.52 80.838 80.873 80.743 80.805 80.803 80.865 80.868 80.953 81.055 81.083 82.718 92.875 93.095 93.155 93.3 93.195 89.085 81.925 81.493 82.405 83.033 83.675 82.463 81.723 81.783 82.008 82.593 82.39 82.258 82.91 81.93 82.273 85.5 84.953 84.925 85.173 86.343 86.395 84.648 90.35 90.158 89.475 87.963 90.51 91.458 90.285 86.908 84.63 84.855 85.385 86.823 90.058 91.893 90.718 89.798 90.205 89.895 85.755 84.66 85.495 82.91 82.888 82.795 83.173 82.74 82.695 82.685 82.6 82.525 82.458 82.39 82.285 82.23 82.148 82.115 82.195 82.65 83.133 83.74 87.82 92.793 93.838 93.883 93.598 93.505 93.408 93.375 92.417 89.455 86.63 83.925 83.477 84.117 85.03 84.617 83.475 85.827 85.332 83.785 83.787 83.812 83.83 83.812 83.85 83.87 83.94 84 84.092 84.115 84.25 84.335 84.405 84.557 85.13 84.892 85.407 87.017 92.907 92.91 91.185 84.995 85.135 84.4 84.375 84.332 84.252 84.76 86.32 87.495 87.315 89.22 85.017 84.655 84.27 84.317 84.44 84.32 84.605 85.792 91.535 89.537 90.28 86.317 87.45 87.42 88.817 89.235 86.035 84.56 84.607 83.83 83.692 83.665 84.992 85.49 86.022 86.885 90.64 88.235 86.86 86.77 88.902 89.99 90.13 88.695 87.542 85.402 84.507 84.507 84.455 85.357 86.52 87.785 86.822 85.747 86.7 87.045 88.582 89.07 89.282 92.945 93.63 94.517 94.767 94.27 92.35 86.879 87.892 91.439 92.832 89.442 84.409 81.644 81.519 82.987 85.447 85.514 84.974 83.939 79.882 80.344 81.262 80.304 80.389 80.034 80.044 80.042 80.019 80.004 80.044 80.034 80.029 80.074 80.142 80.377 80.364 80.797 81.607 81.609 81.069 80.914 80.579 80.342 81.127 85.322 89.757 91.014 86.757 82.609 82.587 83.629 83.454 83.499 83.579 83.912 87.164 87.024 87.217 88.767 91.419 91.417 91.467 88.539 86.257 86.242 86.284 86.324 87.332 93.057 94.729 92.069 91.047 93.194 94.227 93.129 92.349 93.397 97.754 101.027 101.922 103.164 102.414 101.252 98.619 96.717 95.972 95.789 93.774 95.322 100.184 101.682 102.949 102.829 102.022 99.942 93.202 95.234 96.159 98.024 95.829 96.724 96.282 94.824 92.307 92.224 92.422 92.606 92.734 92.841 93.109 93.394 93.504 93.404 94.339 94.794 94.331 94.019 94.059 94.419 95.029 101.269 103.684 104.056 102.811 103.954 104.536 103.646 98.026 96.934 102.341 104.801 105.371 104.116 97.249 94.866 95.424 94.394 96.604 97.869 98.539 97.784 100.921 97.889 98.114 95.194 94.929 94.464 94.454 94.439 94.421 94.414 94.406 94.456 94.451 94.464 95.024 96.666 98.801 96.611 96.049 95.919 96.451 95.759 95.826 95.859 95.879 95.864 95.879 95.879 96.626 101.561 104.516 106.676 107.736 107.869 104.859 101.064 99.049 99.031 99.024 99.039 99.051 100.441 100.111 101.439 101.379 101.439 108.006 115.934 116.749 117.014
77.593 76.41 76.553 76.73 76.838 76.925 76.995 77.145 77.155 77.295 77.355 77.38 77.4 77.52 77.64 78.183 77.933 78.623 78.203 78.113 78.035 78.125 78.213 78.285 78.4 78.445 78.99 82.43 84.09 82.91 79.513 78.923 78.965 79.045 79.12 79.19 79.243 79.358 79.423 79.468 79.675 79.883 79.953 80.035 80.2 80.365 80.4 80.858 82.93 84.733 85.885 84.158 81.823 80.578 80.53 80.773 80.825 80.698 80.785 80.84 80.828 80.83 80.963 81.013 81.275 84.348 93.14 93.115 93.15 94.115 93.423 87.818 81.54 81.165 81.398 84.325 83.818 81.9 82.098 81.683 81.568 82.088 82.34 82.9 83.803 84.053 86.075 87.093 85.333 84.313 87.745 90.585 91.163 87.003 91.935 91.955 91.51 91.818 91.68 91.8 92.24 89.248 85.498 88.78 90.375 90.393 90.77 91.533 90.985 90.73 90.363 90.053 86.145 86.783 85.863 82.823 82.858 82.765 82.703 82.728 82.645 82.66 82.555 82.513 82.418 82.37 82.29 82.248 82.185 82.093 82.063 82.155 82.808 85.448 85.728 88.008 93.19 93.773 93.608 93.538 93.503 93.442 93.39 91.79 85.047 84.94 84.97 83.332 84.067 84.72 84.272 84.045 84.29 83.697 83.885 83.672 83.7 83.735 83.73 83.78 83.82 83.92 83.987 84.012 84.155 84.317 84.357 84.412 84.575 84.897 84.99 84.947 86.16 89.23 84.785 85.46 85.232 84.285 84.247 84.155 84.092 86.69 87.767 89.33 90.685 88.832 85.402 84.62 85.94 84.662 84.765 84.765 84.292 84.657 88.002 92.745 86.79 87.692 87.887 85.67 85.395 83.94 84.47 85.377 84.462 83.677 83.577 84.112 88.262 89.285 86.04 88.142 91.235 86.837 87.252 87.027 88.885 88.835 90.87 89.82 87.2 87.657 84.492 84.51 84.435 84.455 84.447 85.107 85.497 84.635 85.695 87.31 89.24 89.19 90.327 91.475 92.43 92.892 93.592 94.457 91.222 85.477 90.902 92.432 92.002 89.312 82.987 80.532 81.949 82.764 84.744 85.504 85.509 83.684 79.809 79.807 80.429 80.344 81.349 81.349 79.914 79.892 79.934 79.929 79.909 79.942 79.979 80.049 80.049 80.122 80.259 80.422 80.589 81.234 81.554 81.214 80.639 80.557 82.144 81.797 83.442 83.409 83.067 82.609 82.612 83.157 83.429 83.469 83.537 83.567 84.234 85.677 87.112 88.519 90.027 89.507 89.244 86.957 89.202 87.642 86.319 86.424 87.014 87.659 90.407 89.194 90.292 91.522 93.439 94.147 92.774 92.937 96.714 100.787 102.382 103.907 103.832 102.164 100.747 97.899 96.079 95.457 92.644 93.157 95.112 95.012 101.657 101.527 97.419 91.569 91.909 93.447 96.942 94.892 95.642 95.274 95.439 92.844 92.297 92.177 92.324 92.501 92.621 93.051 93.759 93.084 93.164 93.751 94.644 94.676 94.211 94.254 94.369 99.184 97.606 99.084 102.276 103.706 104.274 104.966 106.166 104.979 102.369 97.709 97.174 102.966 104.866 104.194 96.031 94.231 93.744 93.746 93.844 97.536 100.646 98.901 100.606 96.154 97.694 96.589 94.491 94.404 94.379 94.401 94.366 94.291 94.181 94.149 94.254 94.309 94.339 94.791 95.069 96.421 97.209 98.179 95.841 95.734 95.789 95.824 95.844 95.846 95.864 96.121 100.739 99.069 101.321 105.389 107.176 106.959 100.249 98.784 99.041 99.029 99.094 99.394 99.169 101.569 100.956 101.234 101.279 101.691 107.881 115.064 116.086 116.159
76.788 76.428 76.585 76.735 76.87 76.915 77.043 77.063 77.103 77.3 77.42 77.463 77.42 77.493 77.705 77.92 77.773 78.788 78.268 77.925 78.028 78.14 78.193 78.318 78.4 78.57 82.263 81.578 84.358 80.205 78.81 78.885 78.975 79.04 79.095 79.133 79.225 79.32 79.448 79.538 79.81 79.873 80.023 80.018 80.045 80.65 80.553 80.545 80.755 81.258 80.515 80.53 80.508 80.513 80.693 80.863 80.78 80.695 80.745 80.8 80.803 81.018 81.155 81.185 82.66 87.445 93.148 93.148 93.155 93.153 93.163 82.045 81.295 81.348 81.215 84.265 83.673 82.04 83.813 83.29 81.87 82.013 83.563 87.123 89.03 84.29 90.138 90.66 90.685 91.053 91.39 91.305 91.528 86.58 91.425 92.298 91.868 91.83 91.875 92.053 91.958 87.593 87.683 90.25 88.448 90.3 90.378 90.253 90.198 88.88 84.635 88.373 83.458 85.968 86.29 82.865 82.71 82.705 82.698 82.685 82.66 82.59 82.515 82.52 82.448 82.395 82.288 82.225 82.185 82.108 82.083 82.123 82.175 83.498 84.318 85.77 90.145 93.048 93.73 93.58 93.53 93.517 93.36 86.857 86.03 88.112 86.207 84.505 83.327 84.172 84.802 85.325 85.33 83.877 83.487 83.517 83.585 83.615 83.62 83.59 83.732 83.792 83.882 83.932 85.05 86.322 84.285 84.36 84.392 84.482 84.515 84.82 85.18 85.237 84.987 84.532 84.37 84.172 84.09 84.037 83.935 87.492 89.9 88.392 88.162 89.272 87.737 86.972 88.697 87.187 85.53 85.222 84.695 84.467 85.242 85.095 87.1 88.995 88.69 90.45 86.805 84.472 85.187 85.705 84.082 83.57 83.507 86.84 88.215 87.057 87.227 89.39 87.16 88.11 87.722 86.83 86.537 87.652 89.377 88.332 89.377 86.46 84.517 84.485 84.525 84.422 84.417 84.477 85.352 84.352 83.682 84.357 87.662 87.877 88.915 89.712 89.69 90.705 92.557 93.372 85.207 87.424 91.619 92.657 90.347 85.784 79.697 81.434 82.779 82.797 84.979 85.537 85.507 82.309 79.759 79.737 79.924 80.382 80.767 80.454 79.757 79.767 79.804 79.792 79.807 79.804 79.924 79.939 80.019 80.122 80.297 80.414 80.547 80.704 80.812 81.444 81.257 80.884 81.799 81.597 81.622 81.839 82.364 82.549 83.044 83.387 83.469 83.494 83.529 83.564 84.242 84.427 85.532 87.974 88.107 89.104 90.404 90.377 92.804 90.849 87.974 87.622 87.072 86.892 87.364 87.982 89.907 91.907 92.152 92.287 92.957 92.577 94.492 99.079 101.282 102.654 104.189 103.489 101.929 100.192 96.804 92.932 92.532 92.824 91.677 91.572 98.204 93.732 92.069 90.879 90.947 91.119 94.697 93.557 92.559 91.702 91.954 94.134 92.224 92.117 92.282 92.356 92.474 92.719 92.794 93.006 93.591 93.369 93.854 94.389 94.656 96.831 99.651 102.864 101.814 97.524 100.814 103.621 105.184 106.439 105.646 104.281 103.099 100.514 97.529 96.221 101.391 96.521 93.869 93.779 93.689 93.674 93.676 94.521 100.454 100.024 100.101 98.339 100.841 98.386 94.299 94.279 94.329 94.339 94.179 94.029 94.024 94.066 94.074 94.091 94.256 94.344 95.786 100.891 101.909 99.254 97.609 95.741 95.736 95.771 95.796 95.799 95.831 97.579 103.456 101.184 98.366 105.499 103.344 107.269 98.966 99.416 98.811 99.029 99.039 99.671 100.216 101.006 101.416 101.154 101.369 101.631 101.769 104.554 113.136 115.856
76.333 76.405 76.595 76.738 76.823 76.903 76.865 76.958 77.158 77.175 77.315 77.323 77.408 77.473 77.653 77.663 77.678 78.573 77.85 77.94 78.06 78.18 78.303 78.355 78.493 78.68 78.608 78.61 79.495 78.698 78.823 78.905 78.945 78.988 79.063 79.045 79.113 79.383 79.46 79.558 80.045 79.933 80.065 80.065 80.078 80.113 80.203 80.353 80.583 80.605 80.43 80.475 80.653 80.963 81.56 80.873 80.745 80.655 80.715 80.788 80.743 80.86 80.895 81.005 85.22 90.768 90.903 91.413 91.355 91.97 89.59 82.828 82.43 82.443 81.878 83.55 82.883 83.453 88.54 87.548 85.915 88.113 90.525 90.588 90.768 83.155 91.48 91.613 91.47 91.908 91.583 92.028 91.978 88.805 87.7 90.74 91.928 92.295 92.775 92.145 91.628 90.53 86.228 84.555 83.693 84.908 83.993 84.57 83.648 84.265 87.298 87.925 86.273 84.13 83.298 82.535 82.583 82.598 82.625 82.625 82.59 82.578 82.533 82.508 82.453 82.393 82.305 82.26 82.188 82.093 82.025 83.035 82.075 82.345 84.35 86.465 87.458 88.105 92.343 93.74 93.67 93.157 86.822 86.9 92.032 92.815 88.532 86.465 84.067 83.21 83.44 85.162 84.89 84.1 83.645 83.472 83.497 83.502 83.37 83.45 83.572 83.72 83.76 84.657 87.53 86.175 85.137 85.267 84.34 84.39 84.417 84.51 85.045 85.655 84.865 84.25 84.14 84.02 83.947 83.907 85.855 89.027 87.817 87.785 90.37 91.507 89.185 88.59 89.385 89.142 88.777 87.07 85.835 85.207 84.122 83.85 86.93 88.182 89.365 90.602 89.365 87.052 86.99 85.357 83.762 83.475 85.252 89.055 86.395 92.312 90.25 86.74 85.985 89.487 88.407 87.672 87.057 88.882 87.83 87.975 86.712 84.437 84.505 84.46 84.377 84.285 84.302 85.677 85.375 84.305 83.637 83.582 83.577 86.555 87.265 86.632 86.85 85.815 90.137 88.837 87.42 91.289 92.524 91.867 88.577 82.602 81.652 83.149 83.177 83.132 82.339 82.644 82.909 80.469 79.702 79.657 79.652 79.687 79.582 80.384 79.594 79.619 79.662 79.709 79.667 79.739 79.837 79.892 79.942 80.142 80.289 80.432 80.589 80.657 80.752 80.819 80.912 81.687 82.537 81.769 81.624 81.624 81.809 82.769 83.504 83.439 83.457 83.477 83.522 83.557 84.134 85.542 87.534 87.257 87.257 90.632 96.189 94.297 92.509 92.499 90.862 89.044 86.824 86.582 86.422 88.064 90.729 93.152 92.042 91.337 93.034 94.627 96.002 96.837 100.834 101.487 102.987 104.217 103.187 101.622 99.882 94.682 92.054 91.714 92.034 92.484 91.942 90.674 90.744 90.852 90.949 91.064 93.522 92.434 92.567 92.652 91.914 91.774 91.907 92.044 92.129 92.256 92.866 93.086 92.839 93.029 93.564 93.819 93.506 93.806 97.429 101.551 103.389 104.069 103.911 101.279 96.801 101.696 105.161 105.461 103.944 102.624 101.434 100.941 98.136 95.369 95.734 93.911 93.694 93.756 93.669 93.591 93.611 93.569 97.151 100.171 101.711 100.081 98.291 95.876 94.479 94.176 94.224 94.214 93.979 93.924 93.951 93.966 93.981 94.009 94.164 94.114 95.741 101.329 105.356 105.601 99.999 96.999 95.736 95.721 95.724 95.749 95.811 97.549 99.616 100.884 100.776 102.149 97.159 99.119 97.339 98.924 98.654 100.014 100.739 99.334 100.651 101.969 101.009 102.214 102.276 101.436 101.429 101.564 103.491 114.434
76.343 76.445 76.56 76.803 76.778 76.815 76.898 76.925 77.02 77.165 77.223 77.338 77.665 77.518 77.563 77.6 77.683 77.765 77.855 77.993 78.135 78.18 78.858 78.395 78.498 78.513 78.535 78.57 78.655 78.76 78.798 78.83 78.91 79.003 79.038 79.088 79.178 79.26 79.495 79.553 79.69 79.913 79.94 80 80.073 80.14 80.14 80.15 80.21 80.31 80.34 80.368 80.473 80.73 81.215 80.733 80.7 80.67 80.723 80.743 80.745 80.863 80.903 81.413 90.483 91.3 91.103 90.858 90.075 85.483 83.503 81.63 82.505 82.06 83.518 83.505 83.425 85.025 90.575 90.828 91.108 91.465 91.373 91.573 91.465 84.653 90.593 91.97 91.835 91.945 91.963 91.975 90.875 89.66 86.873 91.223 91.8 91.97 88.7 89.058 86.468 83.063 82.595 83.305 82.815 84.068 84.02 84.995 84.863 83.955 85.99 88.903 84.085 82.565 82.673 82.593 82.498 82.54 82.585 82.583 82.575 82.53 82.533 82.48 82.425 82.398 82.3 82.223 82.138 82.083 82.025 82.268 82.02 83.293 85.06 87.275 86.308 86.418 87.658 93.513 93.475 87.28 86.075 91.98 92.915 92.802 92.52 89.712 86.36 83.862 83.115 83.012 83.592 83.587 83.82 83.505 83.405 83.412 83.28 83.25 83.347 83.552 83.655 83.847 86.552 86.562 86.03 86.387 85.49 84.277 84.34 84.365 84.355 84.485 84.23 84.115 84.002 83.885 83.875 83.822 85.5 87.915 88.99 90.775 87.937 90.432 86.492 90.122 88.485 89.142 89.4 88.977 88.35 87.282 85.385 84.312 87.782 88.922 92.372 90.582 88.065 88.062 87.632 86.487 84.775 83.585 87.837 86.657 86.147 84.865 83.812 83.307 84.605 88.937 86.782 87.662 88.117 90.77 84.775 84.292 84.35 84.31 84.427 84.407 84.192 84.265 85.402 86.762 84.902 83.27 83.332 83.452 84.45 85.93 85.702 85.782 85.155 83.727 83.762 84.262 87.62 91.519 92.699 87.194 86.714 80.802 83.349 83.214 83.254 83.219 83.209 82.809 80.479 79.982 79.622 79.562 79.504 79.499 79.422 79.417 79.399 79.389 79.469 79.544 79.614 79.722 79.812 79.912 80.009 80.119 80.234 80.422 80.564 80.679 80.809 80.817 80.937 81.134 81.559 82.782 82.649 81.624 81.934 83.897 83.412 83.454 83.467 83.474 83.502 83.527 84.562 88.422 87.197 88.042 91.994 96.289 98.839 97.809 95.362 93.942 92.622 91.269 88.694 86.604 86.954 89.499 91.437 92.379 90.979 90.784 94.462 96.279 96.102 96.424 97.784 100.404 101.797 103.239 103.577 102.774 101.417 100.979 100.094 91.569 91.327 91.839 90.964 90.657 90.852 91.552 92.134 91.287 91.159 91.579 93.009 92.234 91.592 91.712 91.854 91.927 92.034 92.129 93.366 92.669 93.426 93.536 93.026 93.156 93.596 99.621 102.024 103.161 104.324 105.486 105.206 103.574 99.739 99.774 102.286 103.986 103.109 101.724 101.004 99.836 97.071 95.061 94.994 95.376 94.144 93.684 93.721 93.594 93.581 93.579 93.661 94.349 97.599 97.636 95.059 94.074 94.064 94.094 94.041 93.946 93.886 93.921 93.921 93.936 93.954 93.951 93.966 93.969 94.349 99.374 107.171 108.111 102.181 99.414 96.441 95.716 96.209 96.164 96.354 96.131 96.611 99.676 101.226 99.154 101.616 100.524 100.036 102.606 102.089 104.341 104.521 102.736 100.056 100.284 101.051 102.399 102.004 101.449 101.376 101.426 102.046 103.426
76.26 76.453 76.513 76.685 76.76 76.818 76.908 76.955 77.063 77.37 77.25 77.333 77.358 77.388 77.533 77.6 77.73 77.805 77.868 78.013 78.205 78.558 78.303 78.448 78.385 78.433 78.553 78.628 78.675 78.693 78.728 78.773 79.355 79.685 79.018 79.225 79.305 79.273 79.495 79.51 79.565 79.925 79.97 80.055 80.07 80.175 80.173 80.155 80.165 80.175 80.205 80.46 80.433 80.715 81.423 80.705 80.638 80.59 80.683 80.695 80.755 80.833 80.9 80.978 90.57 91.638 91.79 91.775 90.03 87.818 87.015 86.633 87.273 85.635 86.408 86.1 85.003 83.083 91.593 91.908 91.47 91.643 91.455 92 91.09 87.59 87.265 90.633 92.178 92.195 92.18 91.59 89.683 85.838 82.623 82.938 84.808 84.34 83.893 82.183 82.235 82.145 82.283 82.133 82.013 84.433 84.758 83.415 83.585 83.128 82.788 83.615 83.12 82.605 82.748 82.583 82.42 82.455 82.505 82.513 82.52 82.465 82.513 82.413 82.42 82.335 82.263 82.315 82.203 82.115 82.025 81.94 81.915 83.673 85.11 87.225 87.023 86.868 84.058 86.983 86.373 87.492 92.512 93.08 92.975 92.88 92.81 92.682 88.637 86.442 83.51 82.922 83.225 83.287 83.31 83.395 83.372 83.38 83.295 83.14 82.985 83.197 83.425 83.547 87.605 85.617 85.045 87.24 86.485 85.337 84.315 84.225 84.225 84.142 84.025 83.955 83.86 83.787 83.752 83.765 86.767 87.507 89.57 90.892 90.122 88.772 85.552 84.27 84.235 87.335 88.527 89.085 89.365 89.035 88.33 87.105 88.64 88.02 92.235 91.815 88.015 85.9 85.477 85.732 87.305 85.16 85.717 86.92 86.96 86.842 86.95 87.142 88.37 90.04 87.257 86.755 86.45 85.047 84.48 84.302 84.37 84.18 84.452 84.217 83.855 84.007 86.145 87.07 84.907 82.975 82.972 82.992 85.41 83.697 84.172 85.86 83.882 84.09 88.14 84.73 83.66 86.349 91.454 87.592 84.752 81.109 86.287 85.984 85.424 84.459 83.587 82.267 80.564 80.297 79.554 79.477 79.409 79.369 79.317 79.284 79.309 79.287 79.274 80.997 79.547 80.217 81.129 81.407 81.259 80.449 80.259 80.372 80.539 80.694 80.852 80.934 81.012 81.327 81.739 81.527 81.784 82.799 83.044 83.579 83.392 83.447 83.482 83.514 83.532 83.624 85.349 86.359 86.544 91.734 96.634 98.534 99.784 98.897 97.729 96.189 93.052 92.572 91.429 87.452 88.974 89.874 92.502 91.767 89.897 94.159 96.574 97.177 95.617 96.159 94.329 95.302 101.107 101.962 102.099 102.984 102.069 100.869 98.142 91.619 91.219 90.919 91.382 91.114 91.709 92.339 92.219 90.952 90.949 91.054 91.207 91.339 91.482 91.602 91.699 91.822 91.934 92.094 93.034 92.896 93.974 95.056 92.871 93.891 98.881 102.291 103.814 104.676 106.051 106.806 106.091 104.609 103.371 99.204 97.411 100.951 103.596 102.891 101.559 96.919 94.771 94.751 94.719 95.371 95.104 93.871 93.554 93.576 93.569 93.466 93.459 93.534 93.801 95.746 94.629 94.084 93.984 93.954 93.866 93.811 93.909 93.916 93.906 93.919 93.951 93.946 93.924 93.961 93.944 95.414 102.374 108.364 105.496 102.099 95.839 95.764 97.409 97.594 96.541 96.579 96.859 96.184 98.579 96.241 99.941 99.646 102.246 105.179 101.574 106.064 105.274 103.559 99.254 100.946 101.739 101.984 101.821 102.199 103.796 103.459 104.211 105.249
76.323 76.358 76.44 76.588 76.665 76.795 76.84 76.978 77.055 77.115 77.163 77.263 77.573 77.583 78.085 77.63 77.77 77.85 78.035 78.248 78.268 78.343 78.243 78.31 78.4 78.488 78.535 78.57 78.585 78.755 78.768 78.708 78.978 80.91 79.29 79.155 79.245 79.225 79.34 79.475 79.565 79.925 79.983 80.003 80.008 80.028 80.055 80.055 80.08 80.108 80.113 80.23 80.28 80.963 81.465 80.695 80.648 80.645 80.728 80.715 80.758 80.815 80.883 80.953 88.933 89.57 89.943 90.315 89.27 87.365 88.04 89.503 88.51 88.423 87.715 87.553 87.435 82.183 90.25 91.385 91.723 92.275 91.703 91.94 90.22 86.403 84.413 85.6 88.93 87.635 85.178 84.188 83.308 82.515 82.883 82.685 83.63 83.183 82.868 81.843 81.843 81.855 81.88 81.833 81.89 81.995 85.393 84.045 82.373 82.288 82.17 82.16 82.163 82.193 82.25 82.32 82.325 82.348 82.378 82.45 82.51 82.49 82.415 82.405 82.393 82.375 82.273 82.225 82.318 82.1 82.055 81.973 82.073 82.688 87.788 85.525 87.345 87.063 89.373 82.71 82.965 90.697 93.237 93.102 93.037 92.947 92.84 92.845 92.85 89.587 86.42 84.617 83.182 82.85 83.232 83.442 83.375 83.357 83.397 83.27 82.972 82.815 83.01 83.32 83.767 83.517 83.957 85.832 86.425 85.945 84.077 84.062 84.007 83.897 83.79 83.755 83.74 83.712 83.69 83.665 83.56 84.465 85.872 85.897 86.405 85.337 84.877 82.94 82.962 83.492 84.892 87.207 88.48 88.967 89.35 89.077 88.555 87.24 88.987 85.957 83.35 83.397 84.297 84.41 86.625 86.932 86.037 84.15 86 84.747 85.367 88.487 88.352 87.982 86.827 86.77 85.32 84.407 84.487 84.492 84.507 84.485 84.455 83.967 83.66 83.69 85.482 85.997 83.802 82.875 82.875 83.117 83.777 83.69 83.437 83.455 84.052 85.135 88.637 87.475 82.56 82.054 82.444 83.304 82.249 83.329 88.304 89.064 88.694 88.599 88.487 87.319 84.237 80.307 79.512 79.639 80.619 79.449 79.214 79.177 79.219 79.239 80.119 82.697 80.989 81.642 80.687 80.542 80.972 82.202 80.587 80.434 80.574 80.647 80.832 80.984 81.089 81.214 81.732 81.744 81.427 81.534 82.652 83.522 83.357 83.437 83.472 83.529 83.532 85.054 87.732 86.822 92.622 96.389 98.264 99.659 99.002 98.459 98.424 98.314 96.502 93.584 91.957 88.417 89.282 91.839 91.952 90.087 95.674 97.422 98.367 97.672 94.639 92.227 92.527 92.489 96.392 100.867 102.192 101.607 101.392 99.464 97.252 91.842 91.879 90.674 90.524 91.552 91.677 91.667 90.682 90.772 90.794 90.992 91.132 91.267 91.419 91.497 91.584 91.684 91.739 92.306 93.396 94.381 92.936 92.341 93.684 99.019 102.021 103.444 104.769 106.141 107.889 106.214 104.866 103.679 104.026 103.181 97.951 96.291 102.096 103.239 101.334 96.214 94.599 94.236 93.459 93.626 95.344 95.241 93.711 93.496 93.621 93.456 93.409 93.714 93.769 93.349 94.811 96.931 95.039 93.874 93.786 93.776 93.894 93.876 93.876 93.901 93.934 93.904 93.896 93.921 93.946 93.974 96.201 99.581 100.456 96.856 97.881 97.721 99.951 98.621 97.351 97.341 97.229 96.851 96.079 96.264 96.684 97.656 100.496 104.576 101.484 103.269 105.489 103.549 99.519 100.126 101.184 101.029 101.519 101.291 106.896 108.604 109.821 111.031
76.258 76.39 76.488 76.743 76.625 76.753 76.818 76.918 76.973 77.105 77.248 77.353 79.703 80.77 80.013 77.69 77.763 77.875 77.963 78.063 78.103 78.158 78.25 78.385 78.438 78.435 78.453 78.555 79.015 79.283 78.825 78.715 78.795 79.568 79.098 79.025 79.303 79.763 79.685 79.425 79.533 79.703 79.81 79.88 79.935 79.965 79.925 79.95 79.995 80.028 80.073 80.153 80.228 80.943 81.025 80.685 80.585 80.64 80.755 80.633 80.708 80.803 80.885 80.935 87.915 87.62 87.815 88.218 87.663 85.968 83.828 89.458 89.398 89.51 89.615 89.623 88.29 81.493 87.36 89.465 91.823 90.145 89.45 88.165 84.818 81.918 81.858 81.698 83.508 82.815 83.805 83.16 82.528 81.753 81.68 81.703 81.838 81.925 81.925 82.325 81.848 82.453 82.205 81.83 81.89 81.903 81.98 81.913 82.635 82.023 82.085 82.098 82.338 82.11 82.113 82.128 82.138 82.22 82.333 82.408 82.418 82.465 82.465 82.37 82.363 82.375 82.28 82.195 82.135 82.09 82.013 81.955 81.88 84.073 84.058 84.155 84 86.855 86.755 83.31 82.39 85.412 90.925 93.27 93.112 93.035 92.932 93.145 92.902 92.732 89.377 86.492 85.132 83.392 82.78 83.515 83.327 83.707 84.055 83.845 83.337 82.852 82.61 82.765 83.192 83.485 83.355 83.422 85.22 84.032 83.705 83.76 83.722 83.622 83.552 83.565 83.61 83.63 83.632 83.552 83.387 83.312 84.175 83.242 82.882 83.557 82.832 82.81 82.855 82.887 82.892 83.192 84.557 87.417 88.697 89.752 89.69 89.18 87.992 85.105 82.622 82.867 83.027 84.6 84.935 86.817 86.125 85.672 86.2 86.107 83.472 83.397 87.86 86.445 86.555 86.652 84.067 83.79 83.617 84.115 84.37 84.465 84.435 83.705 83.557 85.2 86.157 85.487 82.79 82.8 82.8 84.415 83.542 83.315 83.205 82.865 82.89 87.005 88.672 88.402 83.557 81.717 81.737 81.852 82.457 83.972 87.057 88.422 89.587 89.572 89.604 88.994 84.779 80.104 79.517 80.457 80.612 79.244 79.422 79.147 79.154 79.122 80.527 84.809 83.854 80.784 79.672 79.832 80.072 80.274 80.197 81.317 81.749 80.952 80.862 80.904 81.059 81.197 81.329 81.384 81.447 81.509 81.612 81.834 83.079 83.514 83.392 86.417 86.919 88.354 87.242 87.662 96.009 97.959 99.609 99.167 98.487 98.464 98.484 99.407 98.654 96.657 89.769 90.607 91.377 91.839 91.387 95.594 98.162 98.349 97.547 96.102 91.672 90.339 92.234 92.547 90.449 96.334 98.344 100.157 98.132 93.639 92.567 91.742 91.297 90.949 90.359 90.329 90.539 90.462 90.812 90.789 90.782 90.942 91.072 91.147 91.282 91.384 91.442 91.517 91.632 91.701 93.314 94.844 92.494 92.131 93.581 99.471 102.494 104.369 105.839 106.741 106.021 104.664 103.609 102.721 102.729 103.776 101.991 94.519 96.801 100.456 97.709 95.059 94.604 93.514 93.124 93.286 93.426 95.489 95.119 93.584 93.406 93.484 93.776 93.506 93.409 93.994 95.591 98.674 97.464 93.874 93.804 93.824 93.856 93.876 93.884 93.904 93.909 93.886 93.894 93.944 93.961 93.959 94.001 93.994 94.239 95.161 99.371 100.644 100.766 100.396 97.914 97.734 97.584 96.884 96.101 96.274 96.479 98.216 101.259 101.929 103.004 100.814 104.074 100.679 99.926 99.949 99.684 99.404 100.961 102.606 108.039 112.289 112.621 112.649
76.315 76.4 76.568 76.69 76.64 76.723 76.823 76.948 77.09 77.275 77.32 77.428 78.888 80.688 79.81 78.088 78.03 78.03 77.983 78.035 78.12 78.225 78.295 78.328 78.325 78.418 78.535 78.728 79.238 78.63 78.648 78.868 78.923 78.895 78.96 79.6 81.478 79.293 79.508 79.515 79.51 79.57 79.73 79.753 79.805 79.838 79.835 79.888 79.953 80 80.05 80.108 80.195 81.55 81.088 80.618 80.528 80.62 80.648 80.633 80.668 80.78 80.828 81.003 85.875 87.798 88.83 89.365 89.315 87.595 84.598 89.283 89.605 89.273 88.948 88.515 88.195 82.978 82.475 82.63 83.153 82.453 83.6 81.828 81.91 81.618 81.735 81.495 81.545 81.575 85.023 83.213 81.763 82.34 81.808 81.765 82.268 81.998 81.88 81.968 81.755 81.803 81.83 81.808 81.838 81.873 81.858 81.865 82.155 82.485 82.203 82.7 82.633 82.025 82.028 82.033 82.105 82.363 82.61 82.6 82.463 82.42 83.115 83.57 82.298 82.283 82.213 82.18 82.105 82.093 81.998 81.915 81.89 81.815 85.03 84.325 84.683 83.943 82.473 81.82 81.95 83.805 84.992 90.077 93.285 93.157 93.087 93 92.867 92.812 92.765 89.687 86.532 85.572 83.447 85.16 83.102 84.782 85.085 85.052 84.325 83.295 82.717 82.402 83.117 83.052 83.205 83.262 83.33 83.355 83.412 83.47 83.472 83.447 83.435 83.457 83.517 83.517 83.477 83.372 83.232 83.367 83.82 84.365 88.92 84.282 82.685 82.677 82.722 82.762 82.775 82.742 82.77 87.25 89.102 90.385 90.52 89.317 85.535 83.805 82.62 82.6 82.71 83.047 85.217 86.957 84.217 87.8 86.517 87.577 87.55 85.37 85.657 85.505 87.055 84.762 83.72 83.785 83.502 83.562 83.6 83.8 83.902 83.582 84.04 87.382 86.717 84.6 82.745 83.117 83.307 84.012 83.407 82.81 82.672 83.345 86.175 84.452 85.652 90.412 86.25 81.782 81.702 82.199 82.867 79.867 83.794 88.307 89.587 89.469 89.597 88.502 82.347 79.587 79.527 80.479 80.394 79.134 80.217 79.082 79.054 79.042 80.472 79.234 83.514 79.887 79.594 79.687 79.769 79.912 80.289 80.667 81.589 82.414 81.844 81.034 81.062 81.169 81.639 81.417 81.532 81.592 81.709 82.354 81.979 82.642 83.637 84.552 90.007 88.434 86.034 94.264 97.684 99.414 99.327 98.542 98.327 98.107 99.209 99.684 97.932 94.732 88.904 94.294 94.367 92.259 96.874 98.562 99.339 99.284 98.357 96.739 92.167 91.642 94.862 92.714 89.607 90.457 92.644 96.397 91.819 91.747 91.664 91.124 90.839 91.264 90.574 90.179 90.247 90.934 91.574 90.739 90.737 90.854 90.912 91.007 91.132 91.234 91.334 91.449 91.494 91.524 92.014 93.671 95.111 92.149 93.164 97.304 100.304 103.411 104.736 105.509 104.369 103.411 101.884 99.009 96.864 101.671 98.281 97.499 94.561 95.829 95.366 94.906 93.824 93.846 92.786 92.436 93.151 94.919 96.059 94.921 93.501 93.674 93.906 93.386 93.671 94.896 94.906 97.839 99.071 95.316 94.196 94.941 93.964 94.946 93.891 93.914 93.931 93.864 93.921 93.956 93.966 93.961 93.929 94.179 97.776 96.161 98.486 99.066 100.276 100.381 98.651 97.789 96.856 95.926 96.084 96.276 96.491 96.669 99.616 100.834 102.084 101.591 104.244 102.889 100.354 99.256 99.206 99.321 99.926 102.359 107.759 110.746 112.166 112.054
76.28 76.355 76.448 76.55 76.655 76.783 76.85 77.1 77.223 77.305 77.473 77.385 77.665 78.268 77.858 77.945 77.873 77.885 77.975 78.058 78.158 78.173 78.178 78.253 78.398 78.685 78.608 78.553 78.488 78.633 79.07 78.825 78.828 78.87 79.848 83.578 82.793 80.128 79.335 79.505 79.48 79.553 79.955 80.668 81.033 81.13 80.44 79.968 80.328 80.24 80.08 80.08 80.193 81.328 80.718 80.61 80.503 80.648 80.728 80.575 80.685 80.753 80.823 80.888 85.41 87.975 88.71 88.49 88.095 86.818 84.475 86.755 86.445 84.433 84.853 82.958 81.625 81.598 82.003 82.225 82.265 81.77 81.505 81.383 81.393 81.58 81.628 81.915 82.208 81.735 82.705 81.99 81.64 81.96 81.635 81.608 81.643 81.683 81.708 81.728 81.698 81.828 81.94 82.403 82.658 81.855 81.755 81.785 82.02 81.945 81.973 82.043 82.143 82.075 82.44 82.468 83.928 82.795 82.44 82.428 82.493 83.213 86.133 84.89 82.513 82.22 82.198 82.158 82.125 82.043 81.998 81.928 81.885 81.84 81.713 81.9 84.373 83.465 82.04 81.885 82.338 82.477 82.872 85.577 91.962 93.435 93.26 93.01 92.942 92.87 92.817 92.74 89.137 84.43 87.892 87.34 85.032 84.025 84.922 85.135 84.992 83.56 83.362 82.6 82.25 83.242 83.07 83.105 83.202 83.267 83.282 83.277 83.285 83.265 83.32 83.317 83.31 83.332 83.317 83.21 83.302 84.42 83.535 82.947 87.95 84.507 83.092 82.547 82.587 82.612 82.63 82.605 84.12 88.337 89.7 91.012 90.285 88.425 82.61 82.587 82.597 82.58 82.565 82.605 85.062 85.81 85.622 85.932 86.637 86.535 86.105 86.107 86.185 88.577 87.135 84.512 84.99 86.28 84.63 83.525 83.522 83.54 83.522 83.527 84.71 86.035 85.732 83.957 83.907 83.352 84.652 83.135 82.65 82.605 82.62 83.705 88.51 89.37 87.015 83.86 83.685 81.667 81.964 85.057 82.447 79.779 85.429 88.717 89.472 89.459 89.617 88.052 82.484 79.594 79.509 81.284 80.037 79.059 79.427 78.959 78.932 78.934 79.069 79.102 81.044 79.807 79.464 79.569 79.662 79.767 80.037 80.632 80.947 80.859 81.539 82.407 81.697 81.249 81.934 81.782 81.412 81.627 81.739 82.242 82.147 81.967 83.927 86.992 85.147 86.822 84.377 94.684 98.714 99.497 98.527 98.417 98.472 98.999 99.759 98.219 96.314 91.059 93.152 96.027 92.304 95.859 98.137 98.912 100.182 100.407 99.387 99.069 95.442 95.904 97.534 94.612 91.542 90.419 91.089 91.704 91.659 91.154 90.782 90.492 90.452 91.389 89.949 89.987 90.034 90.502 90.382 90.519 91.959 91.924 92.799 92.199 91.064 91.089 91.157 91.254 91.352 91.416 91.409 92.269 92.651 91.799 92.559 93.986 97.641 101.649 103.434 104.116 103.404 101.176 97.389 92.579 91.214 94.001 97.399 95.204 94.499 92.911 94.739 93.876 92.761 93.359 92.441 92.364 92.686 93.966 95.904 96.354 95.211 93.756 93.496 93.526 93.996 94.336 91.911 94.086 97.164 94.704 94.309 95.856 95.464 96.221 94.059 93.934 94.084 93.944 93.969 93.929 93.934 93.916 93.939 94.016 97.299 95.609 96.686 100.724 99.414 99.214 97.426 98.611 95.826 95.956 96.074 96.224 96.411 96.604 96.796 97.201 98.479 102.021 103.881 102.859 99.656 99.189 99.976 100.256 100.111 101.261 104.459 105.366 105.921 106.376
76.3 76.42 76.57 76.708 76.703 76.765 77.023 77.15 77.235 77.238 77.303 77.56 77.713 77.733 77.768 77.745 77.843 77.925 77.965 78.023 78.053 78.073 78.258 78.335 78.423 78.743 78.27 78.468 78.793 78.708 78.633 78.655 78.783 78.86 81.675 85.565 85.65 81.68 79.553 79.843 79.435 79.523 79.97 81.218 80.98 81.313 84.15 85.985 86.593 84.738 83.25 80.998 81.078 81.838 80.688 80.628 80.748 80.568 80.595 80.61 80.695 80.758 80.82 80.863 84.085 85.603 86.783 85.72 82.785 81.763 81.08 82.06 82.338 81.77 81.353 81.585 81.363 81.208 81.195 81.23 81.448 81.498 81.775 82.178 81.808 82.25 81.81 81.488 81.665 81.498 81.463 81.495 81.508 81.525 81.54 81.858 81.968 81.998 81.6 81.61 81.588 82.265 82.023 81.78 81.915 81.803 81.765 81.795 81.913 82.078 82.213 82.373 82.063 82.075 82.72 82.575 84.755 82.865 82.363 82.403 82.8 84.205 87.32 85.853 82.928 82.248 82.173 82.158 82.095 82.08 81.995 81.923 81.87 81.778 81.728 81.613 81.955 81.57 81.473 81.565 81.653 82.605 82.592 83.105 85.777 92.13 93.305 93.055 92.972 92.997 92.925 92.7 86.105 85.607 87.92 88.572 87.535 84.975 83.53 84.382 84.145 83.557 84.405 84.542 84.2 82.37 83.397 82.927 83.172 83.225 83.085 83.8 84.065 83.72 83.26 83.085 83.15 83.207 83.182 83.087 83.067 83.337 83.147 82.8 86.96 85.14 82.387 82.435 82.43 82.475 82.527 82.555 86.37 89.005 90.315 90.692 89.342 85.565 82.58 82.565 82.525 82.52 82.53 82.507 82.507 83.195 82.467 84.89 85.415 86.277 86.777 84.85 87.6 87.765 86.157 84.867 85.16 85.607 86.037 83.825 83.51 83.515 83.48 83.465 86.332 85.087 84.065 83.5 83.632 83.847 85.815 84.312 82.605 82.59 82.555 84.212 88.637 84.247 86.532 85.337 83.782 81.747 81.724 82.424 81.727 80.977 87.577 89.127 89.569 89.494 89.504 87.464 80.904 79.557 79.524 81.339 80.644 78.902 78.819 78.892 78.819 78.849 78.914 79.352 81.422 80.719 79.634 79.402 79.494 79.604 80.057 80.094 80.307 80.557 80.664 81.234 82.142 82.744 81.452 81.424 81.394 81.579 81.724 81.857 81.937 81.939 82.059 84.977 86.874 85.322 83.782 92.034 94.919 98.159 97.359 98.414 98.804 99.869 98.497 96.824 92.957 90.434 92.807 93.202 90.379 94.609 97.587 98.799 99.504 100.549 100.204 98.954 97.559 98.074 98.469 97.452 93.217 89.802 90.137 91.454 91.397 91.077 90.639 90.337 89.789 89.707 89.774 89.829 90.002 90.149 90.292 90.387 93.259 94.554 94.487 91.552 92.307 91.999 91.104 91.089 91.182 91.286 91.311 91.276 91.739 92.831 92.286 91.504 92.316 96.901 98.744 103.669 103.804 101.624 92.556 91.471 91.564 91.389 93.291 94.224 94.264 95.609 96.141 93.674 92.851 92.406 92.309 92.256 92.416 92.354 93.144 94.034 95.484 94.791 93.546 94.551 93.634 92.084 91.786 91.986 92.311 92.559 93.699 95.434 96.641 95.379 95.226 93.906 93.941 93.961 93.969 93.934 93.909 93.901 93.899 93.966 97.649 102.526 100.464 101.254 100.371 99.909 98.556 95.804 95.801 95.936 96.041 96.196 96.371 96.574 96.764 96.941 97.139 100.134 103.944 102.844 102.854 99.524 100.619 100.911 101.281 101.274 102.209 103.501 105.881 107.271
76.358 76.47 76.655 76.755 76.763 77.028 76.923 77.053 77.15 77.228 77.815 77.54 77.783 77.59 77.668 77.803 77.86 77.885 77.91 77.98 78.135 78.068 78.213 78.17 78.133 78.298 78.585 78.798 78.92 80.29 78.683 78.688 78.813 79.32 80.59 85.588 87.288 83.233 79.535 79.238 79.393 79.503 80.42 81.368 80.095 80.038 84.495 86.465 87.308 86.4 83.833 80.298 82.948 83.698 80.62 80.563 80.623 80.54 80.528 80.563 80.683 83.29 84.488 82.225 80.933 81.013 81.598 81.463 80.9 80.953 80.998 81.185 81.1 81.083 81.103 81.133 81.353 81.81 81.388 81.48 81.953 81.618 81.445 81.415 81.313 81.315 81.34 81.353 81.42 81.455 81.65 81.388 81.41 81.938 82.193 82.03 82.313 82.01 81.54 81.745 81.625 81.673 82.035 81.973 81.893 82.345 82.05 81.733 81.793 81.855 81.935 82.365 82.083 82.305 84.043 82.67 84.408 86.493 85.55 86.988 87.625 86.693 89.53 84.053 83.048 82.258 82.16 82.085 82.08 82.06 82.035 81.915 81.883 81.795 81.72 81.638 81.603 81.51 81.463 81.455 81.488 81.757 82.8 82.785 83.262 86.157 90.897 92.375 93.067 92.972 93 88.887 85.552 84.61 86.497 87.78 88.492 89.94 87.587 83.09 83.962 83.38 84.505 85.145 85.435 83.02 82.295 83.062 84.097 82.76 85.507 85.702 83.082 84.102 84.457 83.665 83.125 83.23 83.235 83.085 83.56 82.995 82.575 82.652 82.862 82.23 82.277 82.322 82.337 82.41 82.43 82.562 87.835 89.647 90.875 90.492 88.757 83.862 82.54 84.492 82.95 82.51 82.492 82.48 82.47 82.495 82.472 82.962 84.622 84.422 83.745 83.582 87.147 86.48 84.102 84.81 87.85 86.75 86.295 85.26 86.037 85.182 83.495 84.152 86.565 84.485 85.352 86.275 83.255 85.255 84.517 84.275 82.56 82.542 82.52 84.385 87.39 86.11 84.22 84.445 83.355 83.359 82.969 82.912 83.602 83.432 88.077 89.317 89.482 89.512 89.399 84.977 79.519 79.417 79.524 80.807 79.167 79.544 80.632 78.727 78.759 78.752 78.809 79.622 84.679 87.504 79.902 79.342 79.642 83.199 83.427 81.209 79.642 79.882 80.362 80.614 81.329 81.204 82.269 82.432 81.437 81.502 81.629 81.792 81.997 82.077 82.119 82.977 86.092 85.062 84.622 88.077 91.094 93.619 96.387 98.342 99.767 98.809 96.932 92.952 88.474 91.894 90.794 89.587 90.634 91.032 95.589 96.834 98.707 99.634 100.722 99.964 98.714 98.804 97.557 94.132 87.612 89.254 90.382 90.037 90.677 90.704 91.632 89.669 89.497 89.554 89.669 89.819 89.959 90.069 90.172 90.227 92.862 95.647 94.062 94.017 91.652 92.887 92.207 90.967 91.029 91.174 91.196 91.174 91.189 91.646 92.044 92.006 92.464 91.411 92.561 98.834 103.676 102.306 95.639 91.699 92.401 92.571 91.796 93.274 92.431 91.461 93.544 94.429 95.506 92.724 92.249 92.189 92.141 92.146 92.161 92.416 94.134 95.601 95.039 94.386 91.844 91.754 91.946 91.849 91.774 91.994 94.661 95.721 97.154 94.971 94.821 94.076 93.991 94.006 93.994 93.916 93.916 95.961 94.336 95.871 97.004 103.321 101.939 101.421 98.821 101.099 96.751 97.244 95.866 95.846 95.999 96.166 96.344 96.521 96.706 97.261 98.001 99.686 101.306 103.201 102.996 100.609 101.716 100.236 100.396 102.036 106.776 110.019 112.204 113.579
76.5 76.558 76.715 76.968 76.808 77.333 77.398 77.16 77.425 77.253 77.68 77.493 77.523 77.633 77.685 77.745 77.768 77.865 78.04 78.165 78.09 78.083 78.033 83.243 82.465 79.043 78.94 78.458 78.515 78.505 78.663 78.705 78.803 79.315 79.99 81.968 81.53 79.51 79.208 79.303 79.45 79.505 79.54 80.455 81.07 81.165 85.758 86.598 86.925 86.248 82.873 84.448 88.415 87.295 86.615 83.083 80.438 80.488 80.528 80.568 80.705 83.95 86.343 85.47 83.943 80.828 80.838 80.828 80.898 81.028 81.005 81.54 81.79 81.068 81.408 81.345 81.225 81.413 81.123 81.14 81.225 81.21 81.23 81.28 81.503 81.615 81.59 82.048 81.705 82.115 82.108 81.343 81.323 81.393 81.483 81.585 81.56 82.155 81.9 82.245 81.62 82.11 82.408 81.978 81.915 82.938 82.238 81.655 81.91 83.46 85.205 84.44 87.608 90.353 87.44 82.743 85.528 89.808 90.073 88.87 88.873 90.188 90.82 88.15 82.49 82.823 82.255 82.085 82.048 82.063 81.99 81.913 81.853 81.783 81.718 81.668 81.575 81.528 81.46 81.378 81.383 81.442 81.65 82.635 82.727 83.287 83.97 90.567 93.272 93.022 88.525 84.645 86.24 85.387 85.867 86.372 91.05 94.77 91.252 89.587 84.31 83.635 83.862 84.292 84.767 82.977 82.395 82.997 83.332 81.55 89.755 90.545 87.985 87.372 87.242 83.125 83.207 83.037 82.56 82.895 83.602 82.647 83.795 83.97 82.237 82.157 82.257 82.847 82.452 82.472 82.52 84.555 88.985 90.172 90.537 89.382 85.587 82.57 82.53 82.687 83.17 82.48 82.46 82.442 82.457 82.442 82.442 82.42 82.447 82.412 82.415 83.017 84.672 84.012 83.26 85.482 88.815 88.685 84.125 84.777 87.002 86.35 85.12 83.775 83.75 83.177 83.19 83.465 85.715 86.592 83.502 84.527 82.525 82.48 82.462 84.122 86.927 85.925 86.277 81.835 82.732 82.219 82.239 80.904 81.817 81.677 85.442 86.574 87.567 89.227 88.442 83.867 80.337 79.279 79.437 80.489 80.667 78.772 80.444 78.657 78.604 78.672 78.647 79.524 81.432 81.414 79.349 79.257 80.764 86.597 86.992 85.969 82.449 80.319 80.162 80.512 80.737 81.259 81.564 81.619 81.499 82.667 81.734 81.789 81.952 82.077 82.227 82.844 82.907 82.477 84.402 83.537 83.599 90.062 93.147 97.872 99.072 97.247 92.129 91.932 88.527 89.797 88.094 88.054 90.074 91.787 93.709 94.687 97.049 98.459 99.884 99.947 98.892 97.614 96.529 88.247 87.989 88.572 89.937 89.232 89.824 90.172 91.667 90.427 89.884 89.434 90.889 95.919 94.682 92.082 90.412 90.152 90.359 92.354 93.829 91.972 90.724 91.637 93.222 92.072 91.002 90.969 91.086 91.076 91.064 91.036 91.881 93.034 92.626 91.506 92.216 93.011 100.941 98.024 96.956 94.879 91.389 93.684 92.794 91.376 91.299 91.381 91.724 98.906 100.391 92.969 92.161 92.129 92.119 92.101 92.146 92.256 93.689 94.889 94.649 95.274 92.781 91.936 91.844 91.786 91.779 91.791 92.156 94.389 94.831 94.924 93.834 93.911 93.966 94.006 93.989 94.611 96.801 97.169 97.116 98.701 99.769 100.801 100.009 98.396 95.654 98.841 99.286 98.841 96.849 96.086 95.964 96.124 96.326 96.491 98.529 97.249 99.311 101.399 101.281 100.481 99.939 100.791 101.049 99.956 100.066 100.379 111.976 114.039 114.601 114.576
76.48 76.74 76.973 76.843 76.76 76.933 77.033 77.153 77.258 77.323 77.368 77.493 77.575 77.633 77.665 77.725 77.753 77.985 78.22 78.023 77.915 78.015 80.755 84.62 84.07 79.845 78.403 78.44 78.385 78.51 78.65 78.76 78.793 78.878 78.975 78.98 79.03 79.133 79.223 79.298 79.408 79.53 79.538 81.128 79.923 81.668 85.87 86.705 86.95 86.115 83.003 88.745 90.765 89.04 87.41 85.27 80.418 80.47 80.483 80.548 80.658 82.065 82.893 84.388 82.118 81.083 81.5 81.46 81.09 81.455 81.045 81.183 80.983 81.008 81.048 81.043 81.053 81.113 81.088 81.513 81.26 81.648 82.098 81.695 81.933 81.81 81.35 81.32 81.348 81.63 81.74 81.723 81.308 82.595 82.345 82.198 82.115 81.835 81.88 82.418 81.635 81.705 83.108 82.678 82.743 85.213 86.96 82.863 86.928 91.888 92.27 92.33 92.86 92.97 90.468 86.86 88.808 89.35 90.033 90.023 90.223 90.783 89.138 85.665 84.603 82.773 82.693 82.108 82.023 81.973 81.955 81.905 81.855 81.798 81.713 81.653 81.598 81.515 81.438 81.363 81.343 81.27 81.38 81.462 82.64 82.5 83.187 82.975 88.762 89.285 84.707 85.642 86.435 85.867 85.935 87.832 91.677 93.845 94.862 93.025 88.762 84.247 82.89 82.797 82.785 82.797 83.04 82.025 81.397 84.717 90.48 91.935 91.687 91.53 90.67 87.322 84.7 81.755 82.005 82.617 83.685 82.337 85.277 84.987 82.022 82.11 82.482 83.025 83.442 82.747 84.505 86.07 88.612 89.202 89.705 88.557 83.05 82.562 82.595 82.682 82.422 82.432 82.41 82.422 82.415 82.407 82.4 82.387 82.412 82.395 82.402 82.405 82.427 82.835 83.39 84.32 85.252 86.085 86.86 83.335 84.182 85.927 86.087 83.802 84.407 85.12 90.332 87.19 85.612 85.265 84.662 83.502 82.477 82.455 82.422 83.525 84.395 84.525 83.077 81.895 81.932 82.309 82.442 80.542 80.324 79.714 79.717 79.967 80.887 81.722 83.104 82.417 79.974 79.159 79.302 80.384 78.817 81.789 78.547 78.582 78.489 79.504 78.634 79.987 79.622 79.189 79.657 79.394 84.547 87.264 87.837 88.272 87.222 84.524 81.457 81.002 80.509 81.084 81.417 81.152 81.672 83.564 83.504 82.054 81.934 82.084 82.184 82.367 82.749 82.447 82.737 83.172 83.072 84.279 90.519 91.207 95.624 94.459 88.552 94.217 89.937 87.127 86.659 86.682 88.407 89.674 92.079 93.619 95.797 97.949 98.704 98.927 97.707 95.662 92.702 88.044 87.649 88.462 88.579 89.267 88.849 90.479 91.752 90.579 91.064 90.064 92.052 96.262 94.274 96.732 92.337 91.489 90.512 92.994 93.407 91.072 90.594 90.599 91.024 92.942 92.632 91.059 90.824 90.986 90.991 90.936 90.934 92.041 91.819 92.159 92.684 94.386 96.789 96.944 97.059 96.146 93.274 91.784 92.094 91.959 91.969 91.309 91.369 93.034 95.089 92.359 92.466 92.064 92.046 92.071 93.219 93.221 93.034 93.816 94.626 95.229 94.976 94.186 91.979 91.779 91.724 91.729 91.856 92.156 92.406 94.009 93.951 93.884 93.971 93.976 93.944 96.321 99.131 96.324 99.174 99.611 100.049 97.429 97.724 95.066 95.069 96.044 102.171 101.481 98.341 96.309 95.956 97.064 98.244 101.181 98.846 97.696 98.676 101.484 100.071 101.109 99.664 99.596 99.171 99.261 100.266 100.416 108.581 113.736 113.966 114.064
76.615 76.648 76.693 76.773 76.978 77.17 77.215 77.185 77.213 77.323 77.46 77.498 77.503 77.578 77.67 77.9 78.105 78.093 77.798 77.82 78.135 77.988 79.495 81.238 82.18 78.368 78.443 78.478 78.468 78.58 78.713 78.755 78.815 78.963 78.955 78.978 79.063 79.118 79.145 79.255 79.443 79.563 79.515 80.508 82.638 82.61 86.023 86.845 86.848 86.01 84.953 87.508 87.4 89.223 88.745 83.728 80.413 80.49 80.478 80.478 80.513 81.783 80.585 81.628 81.97 80.878 81.163 80.918 80.81 80.86 80.898 80.95 80.96 81.06 81.205 81.108 81.575 81.43 81.54 81.848 81.308 81.32 81.313 81.455 81.348 81.378 82.05 82.18 82.025 82.165 82.668 81.885 81.218 81.335 81.595 81.895 81.973 81.943 83.02 82.413 81.663 88.65 89.565 91.765 90.665 92.015 92.56 85.485 86.048 92.683 93.463 93.878 93.985 93.715 92.6 88.783 88.715 88.765 89.333 90.518 90.733 88.745 84.633 89.638 88.968 85.98 82.815 82.515 82.035 81.968 81.963 81.873 81.865 81.79 81.743 81.62 81.588 81.495 81.468 81.383 81.308 81.24 81.212 81.3 82.817 82.585 82.362 82.235 82.342 83.295 85.042 87.242 87.58 86.412 88.43 92.595 93.415 94.927 95.175 94.162 92.365 87.587 84.045 82.732 82.73 82.585 82.692 81.857 80.647 88.862 91.587 93.042 93.467 92.46 91.797 91.2 89.33 81.762 81.902 82.98 82.395 82.482 89.902 85.552 82.85 82.932 82.517 82.282 83.172 84.122 84.427 87.917 87.785 88.135 88.247 86.577 85.58 84.922 82.475 82.435 82.347 82.322 82.34 82.355 82.382 82.39 82.375 82.392 82.372 82.355 82.342 82.447 83.72 83.745 82.922 83.762 83.08 82.337 82.275 82.552 82.665 83.335 86.29 85.93 84.06 84.895 89.04 87.58 90.497 89.867 83.747 85.792 82.417 82.38 82.35 83.36 82.462 81.855 81.837 82.265 82.832 84.432 85.202 80.619 79.759 79.782 79.742 79.789 79.867 79.849 79.799 80.167 79.269 79.017 79.339 80.169 78.589 78.459 78.469 78.442 78.449 79.129 78.937 81.687 84.054 80.647 79.317 81.227 84.307 86.627 87.699 88.877 88.262 87.919 86.709 83.497 80.689 80.929 80.802 80.994 81.104 84.867 84.534 84.397 82.467 82.064 82.244 82.382 82.467 82.482 82.567 82.827 83.072 82.969 83.099 84.964 88.487 87.754 91.577 92.822 89.009 87.334 86.812 86.632 86.697 88.252 90.037 92.112 93.574 97.059 98.124 97.147 91.522 89.894 87.674 88.389 88.274 88.149 88.404 88.934 88.654 88.707 90.312 89.597 89.177 91.814 95.879 96.194 94.374 94.052 94.149 95.032 92.807 90.672 90.557 90.882 91.369 91.619 91.187 91.592 93.807 91.829 91.411 90.789 90.881 90.829 90.806 90.816 92.074 91.921 94.941 95.639 94.916 97.049 96.949 96.984 93.804 90.861 91.306 93.029 92.394 91.299 91.321 91.294 91.559 92.786 92.491 92.411 92.674 92.969 94.489 94.046 92.406 92.951 94.189 94.864 94.421 93.906 92.314 91.766 91.716 91.696 91.784 91.851 92.124 92.924 93.561 94.049 93.949 93.971 95.606 96.556 99.671 100.841 101.419 99.106 95.121 95.059 95.116 95.064 95.069 95.084 96.534 102.336 101.091 98.354 96.506 96.564 98.721 98.554 103.249 97.639 102.149 99.736 100.004 103.149 103.961 99.039 99.116 99.229 99.359 99.931 102.446 113.176 113.924 114.054
76.56 76.648 76.78 77.225 77.145 77.108 77.07 77.165 77.273 77.353 77.393 77.455 77.538 77.78 77.96 78.015 77.728 79.415 77.95 77.853 78.188 78.913 78.738 78.385 78.243 78.358 78.415 78.473 78.488 78.543 78.76 78.75 78.805 79.18 78.94 79.208 79.093 79.088 79.193 79.233 79.41 79.528 79.498 81.04 84.545 83.845 86.158 86.908 86.758 85.895 86.593 86.758 89.838 90.138 89.208 82.365 80.838 80.435 80.47 80.44 80.493 80.54 80.573 80.658 80.675 80.723 80.728 80.838 80.983 81.115 81.023 81.85 81.338 81.333 81.37 81.2 81.168 81.133 81.38 81.145 81.78 81.708 82.01 82.658 82.59 81.383 81.343 81.238 81.225 81.235 81.863 82.695 81.403 81.765 84.74 88.48 88.95 89.183 91.268 89.71 83.235 90.938 92.74 93.025 93.418 93.513 93.763 91.413 81.788 92.545 93.513 94.18 93.96 93.618 92.825 90.92 88.098 86.665 88.155 90.165 89.275 83.78 88.183 90.525 90.37 90.335 86.513 83.745 82.27 81.985 81.88 81.863 81.793 81.76 81.733 81.633 81.593 81.528 81.46 81.383 81.325 81.24 81.195 81.205 81.815 82.425 81.51 81.5 82.365 82.772 83.755 86.417 87.795 88.325 91.942 93.702 94.895 95.2 94.875 95.002 94.22 92.047 85.89 83.275 82.57 82.692 81.752 80.892 82.122 90.192 92.192 93.727 94.357 94.295 92.65 91.735 89.897 81.6 82.395 83.265 82.752 83.532 83.637 83.482 81.752 83.785 84.03 83.482 82.7 83.515 85.68 87.55 88.192 87.975 87.162 83.932 86.89 87.137 84.755 82.49 82.29 82.275 82.28 82.285 82.32 82.332 82.357 82.337 82.34 82.337 82.775 86.487 89.23 88.36 84.562 82.72 82.282 82.05 82.065 81.867 82.062 82.662 85.925 87.742 89.652 87.267 92.32 83.512 91.677 90.172 85.66 86.257 82.365 82.315 82.862 83.68 83.487 82.325 82.315 82.42 82.3 85.042 84.944 80.492 79.784 79.797 79.777 79.779 79.827 79.814 80.117 80.637 78.939 78.837 79.207 79.469 78.447 78.357 78.374 78.347 79.194 79.782 80.669 86.897 85.347 81.549 79.079 79.124 84.624 87.102 89.269 89.904 89.792 89.014 89.154 87.319 86.127 82.449 80.664 80.604 81.362 82.877 82.987 86.944 84.392 82.874 82.214 82.347 82.514 82.594 82.612 82.667 82.857 83.512 83.079 83.212 86.384 89.404 89.367 88.829 87.412 87.194 87.074 86.759 86.939 86.929 88.987 90.282 90.324 93.764 95.494 91.252 90.734 89.194 88.354 88.289 89.287 88.424 88.824 88.442 88.449 88.624 88.799 88.954 89.387 92.642 94.364 92.252 96.184 97.789 95.734 94.724 92.994 90.397 91.272 91.082 90.554 94.079 91.939 90.284 93.362 94.566 93.791 91.894 91.579 90.776 90.721 91.274 90.986 92.506 95.814 94.736 98.259 97.396 96.946 94.256 90.951 90.736 90.584 90.924 91.579 91.441 91.219 91.224 91.251 91.574 92.309 94.794 93.776 93.139 93.791 92.126 91.546 90.951 91.604 92.726 92.239 91.896 92.014 91.831 91.736 91.686 91.731 91.764 91.826 93.194 93.084 93.726 93.884 96.606 95.766 97.924 100.869 103.419 103.016 98.089 95.034 95.064 95.054 95.079 95.094 95.094 95.099 95.596 102.549 102.361 100.921 99.904 100.769 98.599 98.884 100.186 99.776 98.996 98.904 100.734 104.371 100.434 99.086 99.151 99.266 100.654 102.836 112.096 113.964 113.139
