ncols 427
nrows 32
xllcorner    525092
yllcorner    189770
cellsize     2
NODATA_value -9999
81.121 81.766 82.346 83.098 79.613 79.288 78.521 80.978 85.261 85.128 85.401 85.821 83.076 86.998 84.756 79.228 78.858 82.663 80.426 79.516 78.518 78.398 78.933 78.406 79.278 78.623 78.733 81.086 82.446 83.461 85.636 86.718 86.263 82.588 79.323 79.191 78.473 78.216 78.258 78.166 78.101 78.078 78.501 78.398 80.876 80.886 81.876 79.891 79.398 78.763 77.856 77.486 77.438 80.153 78.941 78.156 77.621 77.276 77.141 77.093 77.186 77.551 77.321 79.286 82.133 83.871 82.236 84.413 84.363 83.646 85.221 83.641 78.568 76.556 76.553 76.036 75.861 75.868 75.966 75.988 76.678 79.798 76.648 76.263 76.268 76.683 79.296 79.491 81.181 81.633 79.551 77.726 78.458 82.471 82.293 79.733 77.556 76.746 76.893 76.816 76.891 76.981 77.186 82.798 85.576 79.294 81.016 82.319 81.134 79.681 79.304 79.296 81.979 81.926 88.179 86.991 82.504 80.014 80.144 80.256 80.56 81.64 84.675 84.765 82.242 81.351 81.361 81.414 81.565 82.019 82.184 83.304 83.466 87.154 88.567 89.976 91.193 91.247 91.243 89.93 87.503 82.647 82.334 82.708 83.278 83.106 83.174 82.32 82.237 82.24 82.329 82.384 82.564 83.61 84.538 83.994 85.321 88.734 89.244 90.481 91.044 91.619 89.559 87.309 86.771 86.999 83.951 86.951 84.244 83.391 83.474 84.289 83.936 83.571 85.016 84.626 83.501 83.316 83.266 83.204 83.061 84.421 90.551 92.466 93.401 93.556 93.656 93.784 92.941 91.961 87.079 83.116 83.079 83.154 83.186 83.136 83.089 83.016 82.851 82.371 82.261 82.316 82.361 82.299 82.194 82.119 82.011 81.931 81.846 81.741 81.706 81.656 83.859 87.516 89.776 90.929 89.896 87.059 83.076 81.779 82.059 83.899 87.329 90.024 89.606 85.049 82.064 82.049 82.241 82.304 82.074 82.179 82.334 82.474 82.571 83.256 82.694 82.289 82.246 82.349 84.114 87.319 84.564 82.826 85.476 85.626 88.991 89.081 85.809 83.251 83.669 87.214 86.769 87.211 84.966 83.699 83.876 83.836 83.861 83.891 83.899 85.179 87.949 90.844 91.339 91.044 90.341 89.116 86.361 85.224 84.861 84.861 84.894 84.961 85.009 85.109 85.239 85.366 85.609 85.864 86.041 86.164 86.244 86.324 86.389 86.449 86.499 86.536 86.579 86.889 87.291 87.451 87.364 87.406 86.694 86.341 86.136 86.006 85.331 83.321 80.024 79.519 79.619 79.704 79.866 80.476 80.661 79.961 80.109 80.404 80.404 80.191 80.204 80.196 80.181 80.201 80.201 80.171 80.261 81.026 82.151 84.376 85.281 84.806 84.774 84.859 85.079 85.261 85.221 85.909 88.016 89.159 89.211 89.409 91.021 91.606 92.274 91.414 90.879 91.059 91.341 90.849 92.271 91.239 90.009 89.994 90.041 90.324 98.109 98.904 99.719 99.574 100.324 97.701 94.084 90.309 90.209 90.246 92.809 94.256 91.576 90.329 90.251 90.246 90.229 90.231 90.206 90.209 90.206 90.171 90.051 90.091 90.109 90.129 90.271 90.354 90.384 90.456 90.461 90.471 90.506 90.461 90.459 90.424 90.421 90.349 90.359 90.369 90.361 90.399 90.394 90.329 90.344 90.611 90.586 90.464 90.384 90.351 90.389 90.404 90.411 90.379 90.406 90.479 90.559 90.489 90.561 90.571 90.519 90.639 90.589 90.541 90.694 90.631 90.621 90.604 90.646 90.554 90.611 90.824 91.094 91.196 91.056 91.306 91.374 91.881 95.854
80.561 81.988 82.176 81.916 80.281 80.538 79.618 80.233 84.271 85.216 85.133 84.011 78.858 82.643 82.546 79.933 79.741 79.148 78.308 78.623 78.321 78.941 81.301 78.466 79.593 78.971 80.213 82.763 81.186 81.113 79.011 80.063 81.741 82.121 81.418 83.096 79.161 79.166 78.986 78.498 78.063 78.236 78.248 79.491 84.266 80.578 78.211 79.143 77.751 78.621 79.703 77.793 77.276 77.981 77.533 77.203 77.613 77.673 77.028 76.958 76.893 76.751 78.281 79.911 80.228 83.836 84.166 85.148 85.486 84.658 83.681 79.363 77.566 76.373 76.438 75.886 76.138 75.846 75.868 75.861 76.478 78.876 77.256 76.246 76.231 77.308 80.981 83.201 83.453 83.971 83.261 81.356 77.511 79.546 78.206 78.741 78.991 78.643 77.108 76.828 76.941 76.988 77.641 84.666 86.589 79.716 79.089 80.319 79.351 79.969 79.999 80.399 85.716 83.561 87.861 82.731 80.169 80.051 80.191 80.289 80.764 81.429 81.344 81.064 81.139 81.252 81.346 81.392 81.521 82.508 83.088 82.72 82.514 86.349 88.581 88.958 90.681 91.271 91.278 90.688 89.369 84.474 83.359 83.297 82.824 83.653 83.663 82.616 82.211 82.213 82.235 82.474 83.446 84.383 83.157 83.014 83.674 86.404 87.069 88.794 89.751 88.489 86.224 85.546 87.286 88.811 87.809 89.101 87.471 83.504 84.166 83.851 83.454 85.039 84.601 83.569 83.256 83.184 83.084 82.879 82.844 85.459 90.719 92.261 93.281 94.006 93.724 93.071 92.986 89.279 83.574 82.999 82.924 82.974 83.016 83.051 82.979 82.884 82.664 82.271 82.171 82.174 82.189 82.129 82.041 81.964 81.886 81.829 81.741 81.691 81.656 81.601 81.729 83.336 87.114 89.106 85.701 82.431 81.684 81.671 81.744 81.749 83.326 86.054 84.736 82.179 81.806 82.246 82.689 81.871 81.974 82.126 82.254 82.341 82.406 82.559 82.916 82.436 82.144 82.056 82.241 82.969 82.309 82.844 84.731 89.011 90.154 90.211 89.104 85.809 83.374 86.991 86.386 84.864 83.501 83.626 84.204 84.534 85.341 84.701 85.746 88.799 90.316 90.941 90.669 89.461 86.986 85.316 84.639 84.629 84.799 85.171 85.629 84.874 84.984 85.141 85.399 85.689 85.846 85.966 86.056 86.154 86.221 86.306 86.374 86.389 86.439 86.491 87.401 87.416 87.169 87.339 86.831 86.714 86.254 85.876 85.599 85.209 83.819 79.644 79.471 79.566 79.641 79.704 80.121 80.631 79.956 80.031 80.289 80.234 80.091 80.091 80.106 80.101 80.104 80.131 80.116 80.161 80.546 82.471 83.819 84.741 85.754 85.729 84.761 84.699 84.864 85.471 86.784 88.859 88.829 89.799 89.531 89.384 90.031 91.649 90.779 90.636 91.956 91.776 90.649 90.614 90.799 90.896 89.949 89.994 90.084 90.781 95.724 95.344 99.219 99.019 98.869 95.806 92.916 90.184 90.209 90.229 90.511 92.236 91.226 90.841 90.204 90.189 90.381 90.166 90.144 90.194 90.226 90.141 90.026 90.094 90.061 90.144 90.251 90.329 90.381 90.396 90.414 90.419 90.391 90.499 90.439 90.434 90.414 90.386 90.386 90.304 90.339 90.381 90.356 90.274 90.371 90.429 90.526 90.441 90.409 90.514 90.376 90.324 90.331 90.386 90.384 90.371 90.379 90.454 90.564 90.594 90.629 90.706 90.621 90.556 90.601 90.556 90.704 90.616 90.541 90.499 90.634 90.876 91.336 91.094 91.621 91.399 91.339 92.189 92.314
80.186 80.363 80.318 81.383 80.528 80.193 79.436 78.933 79.288 79.623 82.038 81.141 79.281 79.373 78.726 78.783 78.796 78.278 78.323 78.753 78.266 78.258 78.336 78.483 78.783 79.021 83.043 86.288 86.413 86.123 84.041 83.733 81.508 79.638 81.706 81.888 80.486 80.186 81.113 79.236 78.071 81.623 78.836 79.028 80.448 81.121 77.986 77.536 77.411 78.853 78.916 80.308 79.933 79.158 78.116 77.086 77.041 77.228 77.671 77.336 76.836 76.603 77.298 82.573 83.146 79.636 81.651 84.051 84.976 85.591 82.368 76.833 78.241 77.093 75.943 78.338 76.173 75.796 75.803 75.781 76.156 77.108 76.426 76.183 76.403 81.406 83.176 84.161 82.783 84.846 83.928 83.546 82.896 80.133 79.173 79.171 79.161 79.551 78.693 76.906 76.971 77.251 80.176 79.046 79.426 77.909 78.209 78.336 78.484 79.014 79.236 82.401 85.566 86.036 85.936 81.836 79.979 80.096 80.396 81.054 82.024 81.746 81.249 81.024 81.124 81.203 81.282 81.471 83.192 83.18 82.281 82.284 82.295 84.09 88.685 88.641 89.954 91.037 90.409 88.606 86.077 83.661 83.314 82.529 82.434 83.477 84.295 83.287 82.185 82.222 82.189 82.248 83.236 83.39 82.982 82.989 83 84.886 84.821 86.594 87.529 85.561 85.976 87.526 89.214 89.689 89.446 89.824 89.266 86.839 85.936 83.344 84.551 84.411 83.321 83.179 83.121 82.981 83.709 82.709 84.246 88.956 92.006 93.106 93.869 93.589 92.769 91.831 90.204 86.056 82.969 82.949 82.884 82.766 82.834 82.899 82.756 82.539 82.384 82.234 82.106 82.019 82.001 81.946 81.839 81.761 81.739 81.689 81.634 81.614 81.589 81.526 81.466 81.431 82.626 83.631 81.909 81.509 81.489 81.544 81.576 81.604 81.576 81.931 81.749 81.621 82.029 82.194 81.859 81.761 81.941 82.204 82.154 82.549 82.194 82.294 82.294 82.496 82.626 81.974 81.899 81.869 81.979 82.006 85.684 88.439 89.829 90.736 90.219 89.046 85.849 85.161 83.989 83.429 83.491 83.571 83.591 83.856 86.176 87.386 89.531 90.404 90.604 89.754 88.329 86.016 84.421 84.444 84.534 84.514 84.789 84.804 84.744 84.906 85.146 85.454 85.664 85.781 85.871 85.964 86.036 86.104 86.184 86.274 86.281 86.296 86.349 86.594 86.931 87.016 87.544 86.674 86.414 86.246 85.684 85.416 84.911 83.096 79.906 79.396 79.466 79.556 79.616 79.709 79.771 79.926 80.024 80.231 80.149 80.036 80.024 79.994 80.069 80.064 80.041 80.056 80.066 80.334 83.179 83.914 84.384 85.041 86.176 86.821 85.279 84.806 85.939 88.239 88.676 88.426 88.691 89.724 89.964 89.689 90.136 91.009 90.174 90.396 90.776 91.974 91.129 91.331 91.489 89.856 89.899 89.966 90.371 91.994 94.026 92.864 94.546 94.299 94.796 93.564 90.131 90.126 90.161 90.156 90.629 90.529 90.349 90.186 90.186 90.184 90.961 90.109 90.061 90.159 90.131 90.054 90.006 90.036 90.081 90.169 90.221 90.374 90.384 90.414 90.469 90.504 90.416 90.481 90.429 90.386 90.406 90.399 90.321 90.241 90.279 90.309 90.231 90.289 90.414 90.429 90.451 90.389 90.381 90.504 90.591 90.511 90.319 90.289 90.311 90.366 90.354 90.356 90.381 90.486 90.634 90.864 90.626 90.541 90.639 90.646 90.714 90.659 90.494 90.529 91.146 92.156 91.444 92.591 93.359 93.844 93.224 92.046 91.594
80.446 80.526 80.288 80.201 80.253 80.463 79.791 78.103 78.238 81.091 80.821 81.353 79.163 79.103 79.143 79.433 80.461 78.911 78.506 78.961 78.103 79.493 79.226 78.356 78.601 78.691 83.648 85.926 87.098 88.003 87.138 85.886 83.531 80.663 80.031 79.723 78.463 79.853 81.103 79.501 80.428 83.358 80.351 82.441 81.293 78.921 77.903 77.368 77.288 78.996 78.798 80.673 80.286 80.201 78.311 76.926 76.871 76.828 76.773 77.721 77.693 76.633 77.746 81.986 83.308 83.403 81.471 80.098 83.203 83.598 79.081 77.401 77.866 77.223 79.663 78.496 75.686 75.708 75.721 75.793 76.058 76.521 76.308 76.233 78.163 82.558 83.531 84.621 84.903 84.711 83.631 83.106 83.621 82.891 78.086 78.161 77.403 78.763 77.511 76.946 77.168 80.796 85.261 79.523 77.946 78.139 78.289 78.641 78.754 78.676 78.781 80.704 82.864 88.809 88.346 86.921 80.629 80.129 80.944 81.149 80.794 81.181 81.146 81.004 81.079 81.144 81.326 81.667 82.582 82.369 81.83 82.23 83.211 87.725 88.608 88.595 88.695 90.033 87.476 84.829 83.799 82.968 82.693 82.354 82.386 82.445 83.376 82.423 82.154 82.196 82.206 82.255 82.603 84.449 83.143 82.917 82.873 84.082 83.552 83.672 83.764 85.137 86.898 89.286 89.864 90.406 90.101 89.611 88.869 86.346 83.606 84.599 84.401 83.384 83.064 83.019 82.864 84.294 86.841 84.066 89.319 92.106 93.269 93.889 93.416 92.559 91.556 89.466 85.734 83.189 82.904 83.366 83.016 82.719 82.606 82.576 82.459 82.379 82.244 82.189 82.096 82.006 81.931 82.321 82.374 81.719 81.826 81.551 81.471 81.439 81.416 81.386 81.336 81.316 81.264 81.286 81.319 81.364 81.366 81.386 81.411 81.436 81.496 81.424 81.424 81.436 82.134 81.666 81.581 81.716 81.836 81.836 82.411 81.921 81.894 82.054 82.104 82.306 82.449 81.929 81.816 81.736 81.731 81.864 82.661 85.931 88.639 89.849 90.731 90.154 88.946 84.501 83.231 83.289 83.414 83.534 83.541 83.504 85.801 89.651 90.521 90.511 89.549 86.961 84.964 84.154 84.241 84.739 85.309 84.629 84.506 84.619 84.816 85.146 85.309 85.454 85.574 85.706 85.861 85.969 86.056 86.089 86.164 86.159 86.159 86.226 86.536 86.989 86.974 86.949 86.526 86.494 85.974 85.534 85.346 84.609 82.196 79.536 79.346 79.414 79.484 79.574 79.629 79.716 79.781 79.929 80.169 80.021 79.974 79.931 79.936 79.941 79.984 79.981 80.001 79.991 80.801 83.574 83.654 84.071 84.716 85.204 86.114 86.921 87.171 87.236 88.004 87.969 88.121 88.509 88.956 90.089 90.921 89.801 89.849 90.014 89.871 89.861 90.081 92.579 90.779 92.464 90.824 89.829 89.919 89.971 91.411 92.519 95.886 96.034 93.034 92.161 90.656 90.621 90.289 90.114 90.194 90.326 90.421 90.474 90.216 90.311 90.419 90.221 90.659 90.336 90.054 90.124 90.024 89.966 90.034 90.039 90.231 90.209 90.259 90.281 90.319 90.366 90.419 90.444 90.494 90.509 90.456 90.369 90.379 90.356 90.276 90.236 90.311 90.296 90.224 90.341 90.371 90.344 90.324 90.379 90.351 90.326 90.426 90.501 90.411 90.434 90.391 90.281 90.321 90.344 90.351 90.331 90.364 90.504 90.459 90.476 90.516 90.521 90.444 90.446 90.426 90.571 93.044 94.721 91.969 91.616 92.916 92.616 93.751 93.939 93.346
80.396 80.613 80.411 80.328 80.348 80.626 78.623 77.846 77.848 82.523 84.758 84.926 83.518 78.106 78.318 78.448 78.288 78.881 78.238 78.211 78.083 79.941 81.603 78.916 79.301 79.806 84.051 86.036 87.483 88.248 86.943 85.558 82.513 79.938 78.506 77.846 77.743 77.681 78.916 80.903 81.256 80.281 82.783 82.186 82.378 77.838 77.328 77.343 77.803 77.143 77.726 79.981 80.311 80.418 78.228 77.961 76.821 76.708 76.656 76.496 76.851 76.988 78.913 79.906 83.233 84.361 83.961 83.251 78.893 79.421 77.978 77.013 77.316 75.763 79.023 77.351 75.588 75.653 75.661 76.026 76.466 75.886 75.863 75.823 77.431 79.591 81.878 83.863 84.031 83.741 82.468 80.683 82.451 81.278 76.696 76.933 77.146 78.928 78.131 78.338 78.761 81.293 81.566 78.703 80.924 79.216 78.374 78.344 78.821 78.764 79.099 80.731 80.716 84.109 89.721 90.219 86.269 83.226 82.864 80.641 80.769 80.844 80.889 80.944 81.036 81.474 81.926 81.511 81.509 81.569 81.707 82.062 82.655 87.257 88.611 88.259 87.359 86.763 87.97 88.213 82.921 82.465 82.33 82.335 82.316 82.533 82.569 82.289 82.153 82.151 82.247 82.376 82.242 82.692 83.185 82.737 82.788 83.039 83.98 83.375 84.406 87.347 89.18 89.102 89.273 90.051 89.564 88.796 86.586 83.921 84.091 83.951 83.139 83.021 82.914 82.799 84.636 87.626 91.296 90.666 90.734 93.029 93.751 93.259 92.361 91.341 88.511 84.884 83.069 83.039 83.149 83.544 83.426 82.654 82.544 82.439 82.341 82.306 82.274 82.214 82.129 82.026 81.929 81.819 81.679 81.674 82.219 82.016 81.499 81.264 81.221 81.201 81.186 81.179 81.209 81.206 81.201 81.186 81.206 81.204 81.236 81.294 81.309 81.251 81.209 81.261 81.304 81.391 81.491 81.631 81.619 81.844 82.289 81.776 81.869 81.791 82.074 83.356 84.151 82.481 81.791 81.679 81.626 81.606 81.694 83.321 86.359 88.706 89.911 90.726 90.106 88.881 85.861 83.216 83.366 83.456 83.396 86.121 88.839 90.841 90.429 89.284 86.006 84.409 83.964 84.079 84.134 84.536 84.306 84.471 84.869 84.661 84.981 85.169 85.256 85.381 85.514 85.609 85.769 85.911 86.016 86.039 86.039 86.061 86.379 87.199 86.856 87.399 86.849 86.369 86.024 85.764 85.394 85.081 84.491 81.394 79.339 79.231 79.324 79.421 79.494 79.581 79.621 79.711 79.911 80.036 79.994 79.881 79.851 79.879 79.886 79.911 79.904 79.884 79.954 81.551 83.484 83.716 84.061 84.864 85.184 85.516 86.061 86.646 87.349 87.524 87.551 88.024 88.374 88.729 89.326 89.571 90.031 89.944 89.836 90.296 89.696 89.639 89.884 92.011 90.796 89.971 89.794 89.831 89.884 89.994 91.259 95.324 93.816 96.241 95.904 92.879 90.114 89.979 90.056 90.111 90.366 90.939 91.039 90.681 90.344 90.321 90.129 90.161 90.099 90.034 90.179 90.449 89.911 89.936 89.986 90.066 90.106 90.189 90.221 90.266 90.291 90.384 90.341 90.396 90.451 90.526 90.449 90.366 90.389 90.301 90.241 90.239 90.346 90.224 90.244 90.491 90.416 90.311 90.309 90.316 90.431 90.324 90.384 90.266 90.334 90.479 90.541 90.364 90.341 90.249 90.266 90.316 90.329 90.311 90.319 90.339 90.394 90.404 90.456 90.494 90.464 90.524 93.501 96.824 98.456 94.126 91.801 91.231 91.626 92.314 93.029
80.738 80.068 78.186 78.461 79.673 80.336 78.041 77.861 78.881 83.896 84.988 84.683 83.283 79.353 78.473 78.651 78.201 78.006 78.286 79.476 78.016 79.998 78.066 78.368 78.533 80.703 85.148 86.313 87.776 88.166 87.168 84.971 82.191 79.226 78.838 77.833 77.713 77.686 77.643 78.723 77.818 78.101 81.451 81.711 81.271 77.733 77.088 76.928 77.078 76.973 76.936 79.713 79.681 77.751 77.068 77.326 78.483 77.093 76.743 76.491 76.506 76.601 78.448 82.591 84.066 85.226 84.823 83.671 81.776 77.876 76.041 76.788 75.548 75.458 75.483 75.506 75.508 75.571 75.678 76.953 76.648 75.866 75.846 76.926 82.706 80.306 76.833 79.346 82.911 82.826 80.558 79.683 79.898 77.121 76.958 77.066 77.123 77.503 77.708 79.006 78.373 78.426 78.153 77.983 85.011 81.689 78.299 79.769 80.504 79.656 80.946 81.614 80.536 80.164 82.514 87.426 87.889 86.856 80.726 80.616 80.764 80.846 80.914 81.129 81.484 81.391 81.336 81.406 81.479 81.534 81.629 82.111 82.337 83.496 87.255 86.039 88.197 89.433 90.45 90.306 87.945 84.948 82.476 82.29 82.694 82.325 82.292 82.281 82.174 82.102 82.109 82.201 82.116 82.195 82.319 82.52 82.554 82.825 83.153 84.628 84.746 86.88 88.535 87.828 88.375 89.161 88.61 86.038 83.924 84.676 84.046 83.009 82.996 82.846 82.696 85.679 89.419 92.106 92.764 92.571 93.206 93.471 92.661 92.056 90.944 87.706 84.114 82.844 82.821 82.989 83.334 83.191 82.586 82.521 82.456 82.391 82.376 82.764 82.664 82.236 82.156 82.059 81.939 81.821 81.639 81.506 81.424 81.326 82.029 81.994 81.234 81.034 80.999 81.044 81.051 81.011 81.041 81.036 81.049 81.009 81.031 81.004 80.996 81.079 81.719 81.131 81.194 81.316 81.434 81.456 81.264 82.101 82.569 81.266 81.254 81.571 83.201 83.434 82.561 82.579 82.366 81.674 81.576 81.486 81.941 81.966 83.076 86.731 88.721 89.974 90.661 89.721 88.559 83.574 83.234 83.519 84.929 89.414 90.544 90.376 88.986 86.694 84.049 83.846 84.281 84.844 83.971 84.116 84.241 84.864 85.264 84.926 85.084 85.151 85.254 85.376 85.509 85.586 85.674 85.819 85.886 85.914 85.946 86.371 86.566 86.651 86.754 86.731 86.301 85.866 85.616 85.139 84.911 84.354 80.929 79.279 79.224 79.269 79.346 79.406 79.494 79.561 79.641 79.831 80.039 79.924 79.774 79.799 79.824 79.784 79.786 79.806 79.826 79.879 81.554 82.996 83.721 84.156 84.519 85.076 85.394 85.956 86.276 86.836 87.001 87.441 89.301 88.334 88.699 89.059 89.424 89.501 89.696 90.139 90.214 89.836 89.579 89.596 90.701 91.091 90.059 89.759 89.771 89.814 89.916 90.006 92.059 94.779 94.444 95.319 95.676 92.334 90.051 90.034 90.076 90.769 90.721 90.341 90.311 90.234 90.541 90.774 90.631 90.144 90.009 89.981 90.009 89.899 89.859 89.949 89.951 90.054 90.119 90.211 90.224 90.274 90.254 90.311 90.381 90.399 90.471 90.524 90.409 90.359 90.316 90.256 90.269 90.346 90.224 90.169 90.291 90.304 90.304 90.284 90.399 90.324 90.229 90.286 90.246 90.234 90.376 90.316 90.406 90.309 90.464 90.416 90.299 90.226 90.251 90.311 90.316 90.301 90.356 90.441 90.481 90.509 90.514 90.539 93.724 98.126 95.444 92.636 93.514 91.209 91.206 91.249 91.399
80.658 79.733 77.786 77.858 77.913 79.828 80.786 77.871 81.131 84.143 85.123 84.411 82.436 78.681 78.356 78.196 78.478 77.926 80.111 78.123 78.241 78.453 78.048 78.578 78.448 81.461 85.158 86.563 87.888 87.421 86.718 84.478 81.466 79.526 79.433 78.708 78.216 77.638 78.418 80.123 80.138 79.943 81.656 81.821 80.998 80.003 80.261 78.881 76.778 76.681 76.801 77.198 76.993 77.208 76.568 76.496 77.033 77.503 77.213 78.866 79.683 81.531 81.663 83.583 84.936 86.308 84.143 82.726 78.646 76.171 75.678 75.436 75.343 75.376 75.428 75.466 75.451 75.553 76.348 76.973 76.211 75.841 76.243 80.041 83.591 83.801 81.656 80.311 79.333 80.636 79.866 79.798 76.863 76.648 77.051 77.113 77.133 77.183 78.308 77.873 78.861 78.508 77.878 80.246 81.059 79.101 78.536 79.931 81.431 81.851 80.096 81.054 80.696 81.954 81.636 81.394 82.856 84.201 82.371 82.246 81.089 82.044 83.746 83.679 81.279 81.191 81.289 81.374 81.451 81.541 81.616 81.889 82.336 82.361 82.866 87.586 90.064 91.044 91.201 91.123 90.565 87.712 82.874 82.296 82.939 82.48 82.41 82.505 82.221 82.091 82.058 82.075 82.043 82.118 82.22 82.327 82.881 83.04 83.779 83.918 83.789 83.953 85.997 85.139 86.25 88.148 85.814 83.675 84.735 83.879 82.971 82.906 82.806 82.669 82.536 89.234 91.589 92.584 93.484 93.374 93.419 93.364 91.634 90.374 86.731 83.604 82.759 82.899 83.714 82.704 82.939 82.561 82.496 82.414 82.439 82.836 82.941 82.661 82.366 82.329 82.251 82.151 82.021 81.869 81.714 81.636 81.416 81.254 81.164 81.241 81.049 80.876 80.859 80.831 80.819 80.786 80.794 80.784 80.776 80.741 80.756 80.741 80.879 80.924 81.249 81.019 81.101 81.266 81.276 81.171 81.869 86.046 84.169 82.189 81.044 81.334 83.324 81.934 81.354 82.104 83.161 82.041 81.531 81.426 81.551 82.526 81.936 83.569 86.954 88.836 89.689 88.794 87.244 83.179 82.996 84.406 88.529 90.601 90.316 88.961 86.539 84.024 83.706 83.696 84.116 84.149 83.976 84.359 84.509 84.504 84.756 84.961 85.066 85.126 85.249 85.401 85.479 85.569 85.671 85.746 85.759 85.784 86.039 86.364 86.799 86.841 86.346 86.086 85.694 85.414 85.036 84.731 84.131 80.456 79.081 79.114 79.169 79.271 79.349 79.434 79.501 79.596 79.774 79.936 79.786 79.746 79.749 79.726 79.739 79.754 79.739 79.784 80.059 81.416 83.164 83.794 83.969 84.586 85.036 85.446 85.971 87.109 86.686 87.104 87.411 87.854 88.266 88.679 89.196 89.419 89.429 89.554 90.206 90.519 89.924 89.546 89.559 89.564 89.639 89.734 89.919 89.674 89.744 89.776 89.894 91.581 93.174 95.821 93.199 92.276 93.611 92.471 90.376 89.989 90.426 90.619 90.269 90.191 90.279 90.226 90.186 90.994 90.524 90.151 89.971 89.959 89.941 89.821 89.856 89.919 89.946 90.071 90.109 90.136 90.151 90.244 90.259 90.224 90.224 90.286 90.316 90.321 90.286 90.254 90.209 90.196 90.166 90.269 90.104 90.136 90.244 90.284 90.329 90.314 90.306 90.201 90.191 90.216 90.299 90.251 90.281 90.234 90.184 90.279 90.291 90.311 90.306 90.316 90.234 90.216 90.221 90.311 90.379 90.406 90.439 90.464 90.494 90.839 91.244 91.729 93.296 92.481 91.234 91.194 91.191 91.236 91.241
80.498 79.076 77.753 77.791 77.861 81.266 82.663 81.896 82.811 84.423 85.093 84.096 80.151 77.996 77.983 77.988 77.971 78.041 78.118 77.853 78.563 78.448 78.278 78.528 78.451 84.601 86.098 86.928 88.001 87.253 86.076 83.486 80.573 78.051 79.431 81.913 81.023 78.963 79.596 81.771 81.478 80.118 82.281 81.006 79.818 79.628 80.716 79.628 76.851 76.631 76.781 78.511 77.741 76.683 76.446 76.401 76.281 76.111 77.503 77.713 80.933 83.566 83.406 84.391 85.371 84.618 83.433 79.661 76.581 75.913 75.438 75.288 75.243 75.298 75.351 75.356 75.386 76.371 76.543 76.128 75.866 75.938 78.478 83.063 84.436 85.046 84.128 83.121 80.121 76.581 77.671 78.096 76.536 76.868 77.041 77.101 77.138 77.198 77.291 77.306 77.833 78.613 78.613 79.178 80.969 79.861 79.461 80.311 79.684 79.736 79.114 79.234 80.279 82.391 80.999 81.184 80.766 82.171 83.169 83.489 84.499 85.564 86.324 85.866 81.486 81.156 81.251 81.331 81.441 81.529 81.841 82.329 82.131 82.161 82.184 84.009 89.629 91.129 91.174 91.214 90.71 88.484 82.414 82.247 82.724 82.81 82.881 82.325 82.417 82.127 82.019 82.046 82.041 82.013 82.102 82.477 82.993 83.337 83.222 82.971 83.069 83.108 83.551 83.235 83.558 84.663 84.201 84.643 83.655 82.907 82.833 82.712 82.531 82.459 83.731 90.004 91.779 92.671 93.334 93.261 92.366 91.646 90.119 86.579 83.086 82.719 82.631 83.246 83.194 83.066 82.501 82.431 82.394 82.436 82.656 83.081 82.651 82.471 82.429 82.304 82.169 81.996 81.826 81.646 81.551 81.714 81.596 81.251 81.109 80.976 80.854 80.806 81.139 81.241 80.726 80.584 80.519 80.526 80.539 80.569 80.656 81.584 81.291 80.789 80.849 80.936 81.091 81.111 80.981 81.944 85.439 87.656 88.721 84.814 82.084 80.836 81.209 81.541 83.161 84.711 82.284 83.129 81.694 81.449 81.419 81.454 81.761 81.769 83.986 86.461 88.491 86.604 83.876 82.804 82.729 83.789 86.539 88.989 89.229 85.651 83.904 83.501 83.521 83.554 83.664 83.794 83.956 85.064 84.564 84.704 84.879 84.971 85.021 85.111 85.256 85.374 85.436 85.516 85.601 85.646 85.664 85.876 86.124 86.399 86.964 86.769 85.926 85.606 85.209 84.989 84.584 83.514 80.516 78.976 79.059 79.146 79.216 79.271 79.319 79.444 79.526 79.716 80.009 79.716 79.661 79.646 79.674 79.659 79.654 79.621 79.694 79.911 80.954 83.439 83.879 84.049 84.464 85.319 85.456 86.011 86.311 87.369 87.261 87.566 87.801 88.191 88.654 89.094 89.629 89.839 89.971 89.989 90.019 89.589 89.479 89.501 89.524 89.536 89.594 89.669 89.639 89.666 90.214 90.619 90.681 93.479 94.024 98.224 96.316 92.924 95.756 92.299 90.084 90.149 90.829 90.206 90.341 90.229 90.126 90.124 90.106 90.364 90.129 89.969 89.934 89.951 89.874 89.801 89.879 89.886 89.954 90.054 90.076 90.159 90.199 90.236 90.169 90.206 90.259 90.239 90.286 90.409 90.194 90.224 90.164 90.171 90.179 90.214 90.089 90.224 90.269 90.339 90.276 90.276 90.201 90.129 90.186 90.171 90.179 90.204 90.271 90.179 90.254 90.244 90.179 90.166 90.586 92.479 92.856 91.626 90.221 90.204 90.279 90.351 90.411 90.464 90.484 90.579 90.771 91.181 91.064 91.119 91.166 91.209 91.221 91.224 91.241
80.311 77.756 77.743 78.033 78.223 79.628 81.518 79.801 82.918 84.703 85.638 84.603 78.563 78.078 77.978 77.963 77.843 77.743 77.761 77.763 78.058 77.858 78.236 78.216 78.508 84.038 85.633 86.268 86.898 86.691 85.723 83.598 79.623 77.496 77.731 77.398 77.318 77.413 79.168 80.476 80.956 83.771 83.438 80.933 79.798 78.826 80.163 80.538 77.373 77.278 76.563 77.823 78.161 76.588 76.588 76.261 76.168 76.116 78.261 81.538 79.578 80.246 82.993 83.866 84.601 83.806 81.876 76.366 75.943 75.818 75.251 75.168 75.178 75.271 75.281 75.256 76.511 76.803 76.328 75.858 75.843 77.241 82.741 84.026 85.298 85.138 83.796 82.558 80.516 75.866 77.108 77.481 77.056 77.048 77.071 77.103 77.168 77.203 77.283 77.278 77.388 77.678 77.946 78.931 79.694 81.991 81.921 81.956 81.604 79.131 79.164 79.316 79.461 81.419 80.124 79.906 80.971 82.771 80.731 81.266 85.924 85.826 85.921 85.436 81.616 81.109 81.194 81.311 81.369 81.536 82.331 82.074 81.934 81.911 82.136 83.414 88.336 90.409 91.234 91.156 91.121 89.701 83.658 82.86 83.013 82.583 82.246 82.405 83.35 82.244 82.065 82.003 82.013 82.072 82.304 82.138 83.269 83.332 82.777 82.861 82.974 83.232 84.105 83.801 83.849 84.115 84.634 83.308 82.801 82.744 82.633 82.427 83.394 84.558 88.716 91.956 92.866 93.436 93.121 92.169 91.109 89.051 85.846 82.941 82.671 83.266 82.554 82.606 82.751 82.469 82.396 82.399 82.399 83.176 82.676 82.489 82.491 82.421 82.264 82.209 82.036 81.831 81.509 81.301 81.169 81.179 81.254 81.249 81.121 80.979 80.844 80.761 80.839 81.271 80.799 81.194 81.159 80.774 81.384 81.251 80.496 80.839 80.704 80.694 80.816 81.024 81.121 81.404 83.006 85.206 87.524 88.589 88.466 87.316 82.824 80.574 80.844 83.516 87.116 88.036 85.926 81.514 83.064 81.726 81.389 81.329 81.451 82.299 81.846 83.174 84.534 82.689 82.134 82.879 83.001 82.854 83.464 85.004 85.674 83.789 83.371 83.489 83.339 83.469 83.621 83.736 83.974 84.294 84.594 84.729 84.849 84.926 84.969 85.096 85.251 85.339 85.419 85.459 85.476 85.564 85.734 85.971 86.091 86.016 86.309 85.769 85.369 85.104 84.784 84.526 83.111 80.106 78.924 78.989 79.069 79.156 79.201 79.284 79.344 79.434 79.709 79.759 79.611 79.584 79.586 79.594 79.586 79.579 79.539 79.536 79.681 81.794 83.501 83.646 84.279 84.601 84.976 85.409 86.081 86.489 86.626 87.261 87.814 87.881 88.259 88.716 89.029 89.221 89.284 89.704 90.414 89.656 89.451 89.461 89.459 89.469 89.471 89.516 89.534 89.566 89.604 89.661 89.711 91.311 92.614 95.406 97.416 98.866 92.516 93.204 92.599 89.881 89.934 90.351 90.481 90.024 90.054 90.084 90.036 90.131 90.096 90.654 90.061 89.906 89.921 89.934 89.809 89.789 89.844 89.839 89.941 89.986 90.059 90.131 90.171 90.169 90.201 90.169 90.194 90.196 90.206 90.286 90.229 90.191 90.139 90.216 90.314 90.111 90.114 90.194 90.326 90.261 90.306 90.234 90.251 90.156 90.151 90.149 90.081 90.124 90.159 90.161 90.184 90.174 90.106 90.136 90.204 93.019 93.874 91.879 90.311 90.194 90.146 90.281 90.346 90.406 90.454 90.581 90.766 91.049 91.089 91.121 91.174 91.229 91.249 91.231 91.249
80.176 79.828 78.933 78.646 78.288 78.003 78.201 79.323 83.848 84.958 84.746 82.616 78.301 78.866 78.453 78.251 77.751 77.666 77.701 77.716 77.693 77.801 77.851 77.848 77.878 80.283 80.346 82.421 83.596 85.278 85.013 84.311 79.083 77.508 77.468 77.416 77.383 77.323 77.473 78.718 82.258 87.186 81.676 80.293 80.431 77.978 76.731 79.358 80.341 78.651 76.811 76.306 76.266 76.243 76.423 76.386 76.158 76.178 77.473 81.438 83.033 81.728 79.358 81.463 83.448 82.923 78.476 75.728 75.568 76.391 75.143 75.101 75.121 75.203 75.181 75.263 77.833 78.111 75.833 76.046 76.168 81.593 83.751 84.783 85.463 84.323 82.988 81.818 80.303 77.896 76.396 78.273 78.711 77.796 77.076 77.133 77.181 77.238 77.293 77.316 77.338 78.168 78.421 78.318 78.776 80.521 81.539 80.329 81.524 79.384 79.256 79.389 79.511 79.604 79.709 79.856 79.981 80.744 80.396 80.481 82.339 84.999 84.536 81.821 81.544 81.071 81.281 81.404 82.116 83.366 81.886 81.484 81.579 82.209 82.194 82.569 85.656 89.401 91.009 91.119 89.881 88.069 83.546 82.922 82.419 82.15 82.446 83.831 84.072 83.073 82.123 81.993 81.942 81.996 82.427 82.231 82.165 83.433 83.023 82.918 83.097 83.244 82.921 83.194 84.578 84.344 83.08 82.703 82.675 82.574 82.373 84.463 88.876 89.215 90.974 92.889 93.514 93.036 92.604 91.079 88.604 84.819 82.826 82.599 83.159 82.964 83.419 82.371 82.389 82.344 82.329 82.361 82.371 82.729 82.526 82.461 82.331 82.456 82.441 82.479 82.361 82.264 81.906 81.109 80.926 80.971 81.104 81.146 81.096 80.966 80.864 80.761 80.661 80.586 80.509 80.464 80.579 80.381 80.359 80.454 80.461 80.569 80.626 80.731 80.816 80.884 80.829 82.904 85.174 87.436 88.526 88.704 87.431 86.319 82.061 80.794 84.744 87.364 88.571 89.084 88.109 85.254 82.081 82.104 81.486 81.346 81.299 81.334 81.381 81.559 81.681 81.806 82.104 82.339 82.479 82.654 82.761 82.894 82.959 83.101 83.296 83.351 83.274 83.486 83.734 84.001 84.254 84.456 84.599 84.704 84.799 84.874 84.964 85.104 85.221 85.311 85.341 85.391 85.459 85.619 85.891 85.969 86.056 85.879 85.649 85.234 84.911 84.586 84.294 82.754 80.104 78.816 78.924 78.981 79.036 79.121 79.219 79.279 79.396 79.651 79.681 79.501 79.546 79.521 79.469 79.511 79.524 79.566 79.524 79.651 82.416 83.371 83.636 84.099 84.511 85.239 85.426 85.746 86.234 86.984 87.236 87.499 88.194 88.371 88.824 89.139 89.334 89.706 90.246 90.801 89.839 89.361 89.384 89.416 89.441 89.426 89.451 89.464 89.526 89.524 89.591 89.644 89.756 91.651 98.561 97.304 97.466 95.604 91.654 92.676 90.389 89.844 89.916 90.799 90.286 90.046 90.011 90.081 89.976 90.156 90.016 90.801 90.071 89.914 90.161 90.279 89.754 89.789 89.799 89.854 89.956 89.994 90.006 90.069 90.109 90.254 90.176 90.144 90.239 90.146 90.186 90.319 90.184 90.114 90.119 90.276 90.224 90.046 90.181 90.229 90.266 90.234 90.294 90.236 90.214 90.221 90.241 90.106 90.064 90.119 90.081 90.079 90.086 90.156 90.066 90.046 90.091 90.439 92.079 91.061 90.171 90.131 90.099 90.176 90.274 90.364 90.466 90.381 90.449 90.664 90.946 91.126 91.194 91.256 91.214 91.246 91.239
80.166 80.091 79.706 77.716 78.023 77.926 77.901 80.003 84.086 85.136 84.443 82.341 78.241 77.981 77.963 78.031 77.653 77.593 77.626 77.643 77.658 77.888 77.873 77.813 78.446 81.766 81.781 81.426 79.473 78.193 78.568 79.778 79.363 78.931 77.436 77.331 77.281 77.233 77.148 77.216 85.726 88.556 82.733 78.923 78.523 76.768 76.511 76.443 77.368 79.431 79.446 77.243 76.136 76.203 76.556 75.793 75.971 76.636 75.981 77.118 82.378 83.448 82.781 80.618 77.068 80.183 77.158 75.716 76.346 75.881 75.006 75.076 75.111 75.221 75.141 75.303 76.826 75.933 75.816 76.681 77.861 82.921 84.286 85.511 84.796 83.451 81.811 80.878 80.478 80.248 77.496 76.821 77.071 78.216 78.583 77.341 77.201 77.266 77.326 77.318 77.503 77.926 78.218 78.373 78.581 78.741 80.359 81.056 79.879 79.151 79.316 79.439 79.566 79.656 79.756 79.904 80.051 80.279 80.416 80.521 80.949 83.794 82.279 82.119 81.676 81.024 81.444 81.481 81.636 81.971 81.521 81.381 81.594 82.559 82.174 82.171 82.166 87.099 89.774 88.151 84.144 82.199 82.686 82.463 82.048 82.213 84.013 82.796 84.198 83.646 83.147 82.118 81.962 81.925 82.002 82.773 82.26 82.307 83.666 83.471 83.156 82.689 83.139 84.332 83.916 82.91 82.664 82.597 82.502 82.383 85.963 90.846 91.572 91.939 92.861 93.17 92.749 91.906 90.599 87.786 84.454 82.501 82.464 82.391 82.596 82.759 82.554 82.389 82.264 82.266 82.374 82.956 82.419 82.466 82.381 82.171 82.031 82.664 82.394 82.216 82.129 81.661 81.509 83.359 81.489 80.871 80.956 81.001 80.966 80.894 80.861 80.771 80.704 80.606 80.514 80.454 80.384 80.354 80.346 80.414 80.499 80.604 80.664 80.716 80.716 80.651 80.696 85.216 87.281 88.491 88.611 87.559 86.156 83.486 80.744 80.674 83.599 86.729 88.124 89.241 89.264 88.019 85.499 81.261 81.461 81.414 81.294 81.286 81.306 81.386 81.499 81.686 81.954 82.186 82.346 82.491 82.679 82.774 82.851 82.886 82.974 83.064 83.316 83.766 84.089 84.236 84.364 84.489 84.571 84.669 84.754 84.814 84.944 85.096 85.206 85.241 85.271 85.354 85.579 85.749 85.854 85.879 85.776 85.446 85.106 84.774 84.459 84.244 82.324 79.554 78.776 78.849 78.916 78.979 79.044 79.144 79.204 79.304 79.651 79.644 79.454 79.409 79.399 79.449 79.411 79.426 79.414 79.444 79.901 82.804 83.119 83.679 84.104 84.596 84.986 85.429 85.719 86.291 86.649 87.011 87.729 88.629 89.451 88.814 88.929 89.024 89.551 90.311 90.209 89.599 89.291 89.321 89.361 89.366 89.396 89.456 89.556 89.544 89.479 89.529 89.604 89.691 89.959 91.751 95.001 93.219 92.239 92.339 91.894 90.119 89.834 89.809 89.999 90.831 90.024 90.014 89.961 89.979 89.934 89.966 90.086 90.829 89.859 89.896 90.089 89.724 89.689 89.714 89.816 89.904 89.951 90.034 90.039 90.056 90.026 90.146 90.081 90.089 90.134 90.129 90.139 90.319 90.184 90.094 90.099 90.211 90.074 90.056 90.166 90.159 90.249 90.186 90.236 90.146 90.159 90.124 90.164 90.066 90.234 90.046 90.066 90.101 90.056 90.126 90.079 89.921 89.939 89.976 90.024 90.031 90.219 90.044 90.046 90.124 90.146 90.286 90.326 90.449 90.474 90.446 90.539 90.724 90.984 91.219 91.236 91.254 91.244
80.076 80.073 79.276 77.681 78.341 77.861 77.901 81.283 84.368 85.108 84.168 81.771 78.186 78.066 77.876 77.966 77.713 77.656 77.583 77.561 77.596 78.096 78.598 78.971 78.758 79.681 80.258 80.636 78.413 77.771 77.611 77.513 78.023 78.578 77.553 77.263 77.208 77.158 77.028 78.318 86.731 88.341 81.396 78.491 78.263 77.278 76.513 76.351 76.283 76.323 77.008 79.913 78.516 76.256 75.811 75.651 75.653 78.241 78.623 81.106 82.963 84.018 84.136 83.288 79.973 77.043 77.166 76.511 76.178 75.213 75.413 75.031 75.073 76.233 75.233 76.396 76.288 75.766 75.801 76.723 82.368 83.798 85.126 85.218 83.908 82.528 79.413 80.136 80.436 80.431 78.708 76.426 77.396 80.166 77.893 78.033 77.656 77.253 77.271 77.323 77.793 77.993 78.286 78.413 78.621 78.791 78.929 79.056 79.581 81.789 80.436 79.444 79.589 79.706 79.821 79.956 80.186 80.314 80.414 80.519 81.819 83.814 83.161 84.056 82.589 81.641 81.654 81.696 81.186 81.266 82.229 81.529 81.411 81.709 82.094 82.121 82.351 83.419 84.929 82.281 82.219 83.226 81.956 81.974 81.989 82.284 82.549 82.169 82.227 84.504 85.105 83.011 82.038 81.897 81.9 82.128 82.512 81.961 82.345 82.704 82.405 83.468 84.407 83.341 82.624 82.634 82.559 82.433 82.357 87.657 90.967 92.221 92.645 92.991 93.1 92.337 91.374 90.257 87.03 83.676 82.511 82.626 82.801 82.301 82.264 82.224 82.206 82.176 82.181 82.261 82.504 82.531 82.459 82.301 82.044 81.829 81.736 81.741 82.314 82.971 82.654 80.926 82.836 87.294 85.301 81.009 80.834 80.834 80.851 80.874 80.836 80.794 80.759 80.721 80.619 80.576 80.524 80.481 80.469 80.474 80.519 80.616 80.624 80.539 80.471 81.986 84.669 87.256 88.474 88.606 87.626 86.126 83.691 80.526 80.431 80.496 81.086 84.309 86.971 88.191 89.314 89.226 87.941 84.846 81.666 81.404 81.404 81.314 81.304 81.331 81.419 81.579 81.834 82.061 82.226 82.366 82.539 82.654 82.709 82.761 82.896 83.141 83.676 83.951 84.156 84.259 84.366 84.471 84.549 84.639 84.704 84.804 84.956 85.066 85.086 85.106 85.201 85.546 86.041 86.039 86.284 85.641 85.344 84.966 84.536 84.246 84.046 82.576 79.116 78.689 78.726 78.831 78.901 78.964 79.061 79.141 79.246 79.594 79.534 79.354 79.329 79.364 79.331 79.351 79.369 79.356 79.349 80.246 82.151 83.274 83.721 84.324 85.256 85.174 85.429 85.726 86.164 86.689 86.999 87.436 88.541 89.856 88.759 88.789 89.179 89.309 89.959 89.631 89.314 89.246 89.246 89.281 89.334 89.341 89.366 89.994 92.251 89.531 89.416 89.556 89.561 91.694 92.704 94.346 97.136 95.406 90.734 94.014 91.216 89.764 89.741 89.754 90.129 90.706 89.946 89.966 90.044 89.979 89.994 90.001 90.381 90.531 89.779 89.779 89.719 89.616 89.691 89.714 89.801 89.891 89.949 89.991 90.026 89.989 90.019 90.021 90.039 90.041 90.141 90.151 90.209 90.109 90.086 90.134 90.124 90.081 89.954 90.131 90.129 90.094 90.126 90.204 90.166 90.096 90.061 90.061 90.074 90.064 90.096 89.984 90.059 90.124 89.991 89.976 89.864 89.844 89.831 89.846 89.909 90.061 90.004 89.886 89.979 90.026 90.104 90.311 90.414 90.391 90.404 90.534 90.556 90.556 90.646 90.796 91.044 91.194 91.241
79.971 79.901 78.091 77.701 79.031 78.463 78.418 82.996 84.653 85.098 83.906 79.251 77.946 77.891 77.873 77.626 78.216 77.676 77.516 77.498 77.571 77.631 77.688 77.756 79.746 83.176 81.586 80.496 78.856 78.998 77.686 77.836 77.511 77.341 77.258 77.188 77.128 77.073 77.263 83.043 88.658 87.076 79.908 77.683 77.036 77.373 77.838 76.258 77.153 79.608 76.063 76.023 78.676 79.696 75.678 77.351 78.613 80.386 79.473 82.458 84.378 82.751 83.678 83.281 78.966 76.561 75.736 75.848 75.321 76.056 75.041 74.958 75.506 75.638 75.391 76.343 75.651 75.608 75.873 82.888 83.541 84.981 85.448 84.383 83.058 79.531 78.811 79.203 79.818 80.416 79.178 76.246 76.796 80.091 78.178 77.321 78.531 81.533 79.583 78.778 78.288 78.306 78.328 78.428 79.226 79.719 79.041 79.119 80.301 81.224 80.964 79.494 79.589 79.731 79.829 80.071 80.194 80.361 80.439 80.454 80.536 82.494 83.539 84.284 82.251 81.764 81.099 81.016 81.139 81.199 81.266 81.349 81.401 81.431 81.706 82.274 83.874 84.871 82.611 82.516 82.839 82.024 81.879 81.924 82.449 83.259 82.571 82.776 82.507 84.974 84.652 83.956 82.25 81.969 81.867 81.872 81.871 81.815 81.838 82.042 83.621 84.351 83.016 82.543 82.573 82.544 82.423 82.287 82.767 88.798 91.642 92.642 93.314 93.031 92.344 91.482 89.807 86.237 83.188 82.421 82.614 83.011 82.616 82.349 82.176 82.136 82.114 82.131 82.434 83.149 82.299 82.376 82.226 81.939 81.739 82.644 81.584 83.011 82.899 82.044 81.174 83.646 88.236 88.521 87.394 85.036 81.951 80.959 80.774 80.826 80.804 80.779 80.696 80.634 80.676 80.854 80.654 80.476 80.511 80.464 80.459 80.459 80.394 80.306 81.031 85.611 87.086 88.369 88.739 87.734 86.506 83.926 80.569 80.289 80.301 80.364 81.239 83.104 86.684 87.156 88.221 89.299 89.064 87.806 85.016 81.384 81.449 81.411 81.309 81.336 81.381 81.544 81.774 81.984 82.139 82.306 82.441 82.529 82.561 82.699 82.994 83.529 83.796 83.999 84.139 84.271 84.366 84.444 84.516 84.599 84.679 84.824 84.919 84.971 84.999 85.061 85.299 86.044 86.316 86.496 85.491 85.276 84.766 84.499 84.046 83.954 82.469 78.934 78.631 78.676 78.751 78.844 78.904 78.981 79.066 79.211 79.566 79.366 79.274 79.299 79.261 79.289 79.289 79.309 79.316 79.336 80.411 82.269 83.209 83.806 84.166 84.589 85.036 85.424 85.719 86.124 86.549 87.034 87.364 87.859 88.264 88.864 88.699 88.839 89.706 89.506 89.211 89.156 89.184 89.191 89.231 89.244 89.296 89.309 89.326 90.361 90.486 89.466 89.461 89.531 89.549 94.999 95.584 97.339 97.454 96.184 93.049 93.801 91.036 89.694 89.704 89.754 89.836 90.676 90.046 90.039 89.964 89.931 89.889 90.331 90.189 89.806 89.726 89.726 89.626 89.609 89.686 89.691 89.806 89.874 89.924 89.936 89.999 90.024 89.971 89.971 90.001 90.036 90.069 90.121 90.084 90.119 90.064 90.026 90.106 89.969 89.929 90.061 90.106 90.114 90.116 90.129 90.089 90.036 90.069 90.149 90.011 90.026 89.966 89.969 90.069 90.044 89.876 89.859 89.766 89.689 90.736 91.561 89.839 89.911 89.804 89.829 89.936 89.954 90.131 90.321 90.181 90.256 90.409 90.551 90.594 90.616 90.691 90.659 90.686 90.739 90.894
79.938 79.748 77.751 78.161 78.933 78.151 80.228 83.783 84.981 85.103 84.213 78.036 78.338 78.253 77.823 77.466 77.763 77.483 77.448 77.608 77.538 77.728 77.751 77.723 78.456 84.938 85.941 85.556 85.458 83.958 81.103 78.713 78.571 78.033 78.191 77.861 77.448 77.388 76.791 85.503 88.118 83.561 80.041 76.643 76.306 76.316 76.548 78.426 79.806 79.983 78.253 75.871 75.843 76.668 76.768 77.783 81.858 82.681 82.358 83.408 83.163 82.821 83.658 80.238 75.701 75.436 75.151 74.961 74.733 75.068 74.836 74.861 74.891 75.023 76.308 75.836 75.431 75.583 77.476 82.943 84.071 85.131 84.841 83.508 81.298 78.601 78.923 79.113 80.158 80.473 79.628 76.353 77.736 80.213 77.461 77.336 79.646 81.183 81.976 79.136 78.528 79.031 78.478 78.578 80.879 80.621 79.476 81.206 81.474 79.961 80.161 79.531 79.641 81.314 81.934 81.264 80.199 80.339 80.384 80.441 81.601 83.579 83.966 84.006 81.316 80.921 80.996 81.801 82.374 81.614 81.356 81.376 81.279 81.341 81.749 84.464 84.906 84.856 84.284 82.949 82.169 81.809 82.344 82.371 82.729 84.211 83.279 82.164 82.257 82.62 83.827 82.96 83.256 82.062 81.925 81.828 81.845 81.838 81.958 81.804 83.44 84.222 82.711 82.49 82.482 82.452 82.315 82.819 89.311 91.507 92.394 93.102 92.955 92.585 91.695 90.617 86.459 83.248 82.363 82.376 82.253 82.863 82.331 82.111 82.036 82.036 82.084 82.139 82.334 82.244 82.284 82.124 81.924 81.709 83.091 86.331 83.554 81.624 81.229 81.021 81.241 85.394 87.721 88.759 88.586 87.504 86.251 83.021 80.739 80.656 80.734 80.706 80.811 80.561 80.489 80.449 80.401 80.409 80.456 80.399 80.331 80.264 80.231 81.219 84.904 87.021 88.176 88.604 87.824 86.576 83.741 81.144 80.246 80.254 80.291 80.309 84.751 86.869 88.779 87.104 87.089 88.314 89.416 88.611 87.519 83.571 81.269 81.454 81.454 81.354 81.401 81.509 81.721 81.924 82.091 82.239 82.289 82.391 82.516 82.889 83.379 83.639 83.769 83.969 84.081 84.161 84.306 84.391 84.496 84.559 84.644 84.754 84.819 84.856 84.989 85.246 85.866 86.174 85.976 85.451 85.091 84.679 84.196 83.844 83.481 81.806 78.829 78.564 78.641 78.699 78.771 78.841 78.931 79.009 79.151 79.521 79.296 79.189 79.154 79.176 79.191 79.176 79.216 79.194 79.259 80.934 82.434 83.386 83.869 84.134 84.519 84.949 85.326 85.674 86.726 86.489 86.944 87.339 87.784 88.259 89.019 89.289 88.889 89.294 89.394 89.176 89.064 89.111 89.131 89.181 89.224 89.244 89.259 89.251 89.339 90.404 89.576 89.399 89.439 89.489 90.881 98.964 100.964 100.191 98.486 97.596 95.236 91.664 89.879 89.659 89.664 89.839 89.789 90.626 90.069 89.774 89.874 89.846 90.041 90.734 89.749 89.674 89.679 89.671 89.574 89.601 89.604 89.701 89.791 89.836 89.939 89.991 90.014 90.041 90.011 90.141 89.989 90.009 90.044 90.009 89.986 90.034 90.079 89.966 90.014 89.896 89.964 90.069 90.081 90.066 90.121 90.074 90.019 90.014 90.014 89.974 89.971 89.979 90.041 89.986 90.059 89.976 89.804 89.756 89.684 89.634 91.074 92.456 90.389 89.861 89.701 89.784 89.804 89.944 90.024 90.049 90.104 90.276 90.339 90.449 90.471 90.499 90.559 90.679 90.849 90.879 90.654
79.953 79.541 77.623 77.971 79.013 77.996 80.543 84.071 85.083 84.493 82.521 78.571 77.871 77.711 77.696 78.288 77.588 77.361 77.641 78.256 77.613 78.363 78.291 79.866 73.593 85.398 86.396 86.391 86.278 83.916 81.456 77.923 77.823 77.863 77.941 77.408 79.403 79.321 82.356 87.733 86.173 82.258 80.201 77.033 77.308 78.131 76.681 76.323 77.103 78.488 76.628 75.746 75.676 75.441 78.321 78.718 78.446 81.626 82.916 83.958 84.136 83.353 81.661 76.033 75.911 75.233 74.826 76.028 75.086 74.753 74.771 74.766 74.883 75.023 75.251 75.293 75.458 75.571 76.478 81.273 83.226 84.078 84.298 83.291 81.688 79.723 78.653 79.836 80.461 80.496 80.291 77.771 76.433 76.991 78.088 77.356 78.206 80.311 77.846 83.883 80.753 79.608 78.593 78.691 79.456 79.526 79.379 83.271 82.256 79.489 79.484 79.589 80.436 82.014 81.864 82.886 80.341 80.274 80.361 80.794 82.181 82.299 83.564 82.651 80.796 80.854 81.286 84.569 84.541 82.309 81.849 81.296 81.364 83.086 83.179 83.171 84.939 84.876 83.074 81.779 81.694 82.566 83.646 82.149 81.826 82.784 83.734 82.064 81.949 82.016 82.042 82.024 83.065 82.168 81.98 82.405 81.913 81.807 82.085 82.41 81.916 83.627 84.03 82.395 82.358 82.485 82.349 83.097 88.425 91.638 92.707 92.914 91.996 91.523 90.403 86.834 83.076 82.399 82.421 82.693 82.168 82.035 82.019 81.983 81.951 82.189 82.801 82.359 82.191 82.221 82.039 81.856 82.686 84.129 87.249 88.594 89.459 82.391 81.174 81.209 81.124 84.429 86.519 87.639 88.696 88.694 87.624 85.929 82.156 80.566 80.531 80.561 80.599 80.476 80.449 80.399 80.319 80.369 80.361 80.316 80.229 80.279 82.899 85.306 86.911 87.941 87.979 86.754 86.014 84.181 80.994 80.201 80.201 80.209 80.221 80.259 87.776 90.241 89.406 85.971 84.749 87.044 88.371 87.774 86.061 81.709 81.179 81.356 81.574 81.504 81.424 81.501 81.631 81.801 81.971 82.096 82.194 82.369 82.711 83.239 83.509 83.651 83.764 83.954 84.086 84.141 84.251 84.351 84.436 84.511 84.584 84.679 84.816 84.826 85.164 85.421 85.364 85.424 85.289 84.984 85.011 84.244 83.884 83.264 80.904 78.691 78.514 78.589 78.661 78.724 78.781 78.844 78.894 79.089 79.264 79.254 79.116 79.116 79.129 79.121 79.111 79.141 79.121 79.271 79.714 82.869 83.261 83.589 84.039 84.451 85.291 85.234 86.071 86.039 86.486 86.941 87.644 87.876 88.256 88.396 88.714 89.324 89.651 89.384 90.061 89.256 89.026 89.084 89.111 89.121 89.176 89.221 89.216 89.251 89.259 89.341 89.356 89.369 89.436 89.469 90.426 96.281 98.936 98.354 94.444 97.851 95.124 91.694 89.654 89.614 89.664 89.831 90.024 89.934 90.356 90.071 90.324 90.456 90.461 89.736 89.634 89.651 89.624 89.571 89.541 89.606 89.611 89.771 89.786 89.834 89.904 90.026 90.104 89.951 89.964 90.031 90.016 89.989 89.889 89.891 89.921 89.876 89.961 89.949 89.861 89.864 90.029 90.096 90.006 89.964 90.001 89.984 89.999 89.986 89.989 89.891 89.931 89.954 89.986 90.041 89.929 89.836 89.764 89.709 89.556 91.151 92.354 90.674 89.786 89.654 89.639 89.709 89.731 89.909 89.926 90.006 90.154 90.354 90.381 90.346 90.309 90.524 90.506 90.571 90.659 90.894 90.796
79.948 79.098 77.618 78.221 77.886 77.923 81.566 84.318 85.113 84.206 81.833 77.901 77.708 77.626 77.558 78.088 79.293 77.343 77.451 77.623 77.903 78.816 78.611 83.906 84.966 85.906 86.356 86.378 85.946 82.448 80.863 77.981 78.043 77.076 77.053 77.003 77.981 79.241 81.013 85.846 81.791 78.593 77.558 78.733 78.213 78.811 76.806 75.908 75.878 76.041 76.356 76.743 75.596 75.248 76.881 81.658 82.038 78.798 78.818 82.621 83.543 83.598 77.018 74.786 74.968 76.976 79.016 76.508 76.463 74.698 74.711 74.736 75.358 76.071 75.391 75.373 75.466 75.561 76.641 78.168 81.348 83.206 84.041 84.258 83.688 82.806 80.726 80.363 80.463 80.768 80.481 80.256 77.496 76.706 77.326 77.468 77.481 77.896 79.111 80.083 78.493 79.296 79.866 78.858 79.356 79.006 79.956 81.919 81.756 83.051 79.989 80.856 80.539 81.901 82.194 80.976 80.171 80.264 80.326 81.559 80.939 81.146 84.891 83.229 82.216 80.844 81.134 82.624 82.049 81.346 81.361 81.331 85.804 91.164 86.004 82.094 84.409 82.834 81.584 81.604 82.871 83.174 82.039 81.746 81.766 81.754 83.171 82.274 81.801 82.124 81.864 81.849 82.013 82.54 82.121 84.76 83.847 82.693 81.742 81.797 82.24 81.874 83.747 83.644 82.319 82.619 82.692 82.232 85.792 90.656 91.715 91.86 91.116 89.935 85.647 82.897 82.289 82.314 82.73 82.414 82.317 81.923 81.879 81.897 81.915 82.239 82.436 82.166 82.151 81.924 81.704 82.649 85.809 87.676 88.796 89.711 89.204 86.976 81.771 81.421 81.186 81.919 84.776 86.411 87.516 88.644 88.734 87.709 85.954 82.421 80.439 80.401 80.414 80.389 80.331 80.296 80.266 80.304 80.286 80.239 80.524 81.939 84.144 86.836 88.004 88.091 86.836 85.521 82.089 80.311 80.146 80.091 80.109 80.109 80.209 80.971 86.264 87.964 85.636 81.929 81.349 84.316 86.864 85.619 82.644 80.986 81.209 81.329 81.496 81.499 81.494 81.509 81.629 81.726 81.856 82.006 82.191 82.529 83.034 83.336 83.491 83.631 83.776 83.899 84.026 84.114 84.221 84.319 84.404 84.454 84.524 84.616 84.796 84.976 85.114 85.149 85.321 85.014 84.696 84.354 84.069 83.776 83.589 80.271 78.461 78.449 78.501 78.549 78.656 78.729 78.821 78.854 79.086 79.301 79.129 79.044 79.041 79.051 79.076 79.026 79.056 79.076 79.111 80.281 83.206 83.349 83.486 83.981 84.406 84.769 85.249 85.619 86.201 86.466 87.024 87.486 87.841 88.114 88.311 88.964 90.219 90.499 92.091 92.351 90.411 90.416 89.709 89.061 89.069 89.094 89.144 89.156 89.179 89.196 89.226 89.266 89.294 89.384 89.406 89.486 91.761 94.849 97.474 98.316 99.191 99.059 92.601 92.454 89.551 89.551 89.594 89.804 90.049 90.116 89.671 90.609 90.149 89.909 89.609 89.606 89.631 89.609 89.561 89.539 89.539 89.554 89.619 89.709 89.769 89.816 89.871 89.961 90.019 89.989 89.914 89.946 89.969 89.924 89.954 89.946 89.924 89.889 89.936 90.019 89.801 89.951 90.059 89.949 89.946 89.999 89.944 89.879 89.959 89.889 89.941 89.856 89.839 89.826 89.854 89.866 89.831 89.684 89.586 89.499 89.534 91.301 93.606 91.034 89.544 89.529 89.579 89.591 89.696 89.844 89.834 89.946 89.964 89.966 90.214 90.269 90.226 90.306 90.359 90.461 90.596 90.649 90.701
79.598 78.108 77.576 78.868 78.038 78.471 83.343 84.583 85.003 83.938 80.256 77.966 77.813 77.661 77.366 77.528 78.186 77.201 77.231 77.253 77.851 80.571 79.668 84.228 85.261 85.513 85.953 86.141 85.103 81.423 80.496 78.193 77.488 76.973 76.966 76.933 76.941 77.236 79.351 80.948 79.518 76.856 76.908 77.088 76.473 77.486 76.976 76.013 75.778 75.726 76.013 77.001 77.121 75.681 75.383 79.388 81.766 81.908 81.476 79.806 81.831 80.698 76.143 74.673 74.583 74.423 78.211 83.133 76.856 74.701 74.796 74.706 75.026 76.261 78.606 76.573 75.523 75.556 75.976 77.011 78.573 81.696 83.843 83.573 84.243 84.118 83.148 81.611 80.471 80.463 80.491 80.431 77.783 76.511 77.223 77.536 77.608 77.666 78.343 78.008 78.231 78.831 79.096 81.491 80.269 80.321 80.526 81.386 82.261 80.554 80.381 81.711 82.921 81.949 80.036 80.104 80.159 80.239 80.489 82.096 81.944 82.209 83.394 83.376 82.851 80.819 80.894 81.536 82.089 81.886 82.526 84.011 88.131 92.639 85.736 81.861 81.976 81.506 81.581 82.831 82.681 81.606 81.624 81.701 81.749 81.699 81.856 83.009 81.924 81.636 81.574 81.564 81.644 81.831 82.006 83.969 84.195 83.967 83.005 81.754 82.374 81.737 81.897 83.791 82.676 82.3 82.668 82.307 82.849 86.919 90.777 90.31 88.366 84.623 82.771 82.165 82.977 82.426 82.059 81.863 81.849 81.805 81.815 81.902 81.936 81.963 82.057 82.051 81.846 81.754 82.576 84.891 87.899 88.971 89.721 89.094 88.011 85.939 82.076 81.171 81.341 81.021 81.696 83.899 86.184 87.394 88.511 88.826 87.789 85.639 80.859 80.334 80.279 80.271 80.234 80.231 80.224 80.246 80.186 80.229 81.934 84.089 86.704 87.964 88.101 86.999 85.511 83.744 80.221 80.081 80.066 80.049 80.021 80.151 80.324 81.024 82.761 83.721 81.569 80.169 80.091 81.491 84.611 82.971 80.726 81.076 81.271 81.371 81.384 81.461 81.501 81.471 81.596 81.676 81.819 81.961 82.404 82.944 83.154 83.311 83.466 83.609 83.769 83.876 83.956 84.076 84.151 84.256 84.349 84.416 84.529 84.759 85.129 85.019 85.049 85.091 84.849 84.521 84.224 83.786 83.676 83.264 80.724 78.699 78.354 78.416 78.504 78.591 78.671 78.719 78.806 79.044 79.231 79.126 78.954 78.954 78.961 78.954 78.956 78.959 78.954 79.059 80.936 82.926 83.176 83.616 83.969 84.391 84.931 85.319 85.606 86.056 86.439 86.906 87.376 87.824 88.079 88.924 89.276 90.211 89.966 91.784 93.004 92.516 90.061 89.659 89.279 89.169 89.081 89.064 89.126 89.114 89.176 89.214 89.249 89.259 89.289 89.391 89.429 89.534 93.669 92.506 95.996 93.421 93.641 92.664 91.406 90.054 89.531 89.511 89.544 89.539 89.679 89.811 89.886 89.884 89.669 89.561 89.579 89.541 89.544 89.549 89.469 89.494 89.539 89.536 89.641 89.694 89.759 89.859 89.879 89.919 89.936 89.886 89.906 89.986 89.911 89.891 89.979 89.949 89.866 89.864 89.889 89.779 89.769 89.846 89.849 89.836 89.889 90.026 89.901 89.846 89.856 89.839 89.784 89.786 89.846 89.761 89.819 89.759 89.716 89.604 89.419 89.386 89.579 93.164 91.154 89.464 89.406 89.404 89.476 89.516 89.656 89.714 89.829 89.966 89.871 89.941 90.114 90.199 90.331 90.266 90.286 90.359 90.416 90.571 90.831
79.881 77.551 77.491 77.964 77.731 78.671 81.321 83.664 85.191 83.936 77.774 77.644 77.563 77.504 77.254 78.259 77.194 77.131 77.176 77.321 77.263 78.133 77.514 78.104 80.164 81.404 82.761 84.416 84.181 80.781 80.741 80.131 77.501 76.921 76.891 76.846 76.826 77.066 79.346 81.521 80.254 78.646 77.979 75.976 75.871 76.909 76.116 77.096 76.886 75.806 75.501 75.236 75.504 77.358 76.886 80.643 82.206 83.243 83.378 81.908 78.911 76.901 74.843 74.496 74.436 75.216 76.566 74.488 74.446 75.431 74.956 74.863 74.791 75.231 78.206 79.018 76.496 75.701 75.666 76.431 76.938 77.356 78.758 80.721 83.093 83.791 82.966 80.486 80.053 80.478 80.461 80.488 79.008 76.428 77.163 77.586 77.713 77.758 77.861 78.076 78.298 78.451 79.003 80.756 80.001 80.596 80.673 81.486 81.483 81.621 80.736 81.303 80.781 80.268 80.061 80.128 80.161 80.218 80.953 83.631 81.556 80.998 80.606 81.646 81.618 80.773 80.861 82.231 83.653 83.091 82.728 81.558 83.296 85.983 82.393 81.668 81.401 81.423 82.178 82.871 81.641 81.503 81.626 81.681 81.703 81.651 81.581 81.826 82.986 81.561 81.186 81.308 81.463 81.533 81.654 84.459 85.571 83.489 81.769 81.647 81.71 81.731 81.662 81.735 83.196 82.575 82.175 82.149 82.204 83.05 86.487 85.953 83.231 82.379 82.115 82.315 82.049 82.275 81.784 81.749 81.715 81.746 82.048 82.106 82.014 81.996 81.95 81.75 81.923 82.892 85.899 88.09 89.101 89.671 88.919 87.831 86.684 83.316 81.189 81.174 81.176 81.261 81.501 81.481 84.244 86.301 87.316 88.421 88.171 86.734 84.454 80.454 80.291 80.229 80.149 80.161 80.164 80.186 80.169 80.119 83.819 86.449 87.884 88.099 87.029 85.544 82.896 80.531 80.019 80.014 79.954 79.909 79.861 80.041 80.221 79.751 80.261 80.074 79.846 79.869 79.911 79.899 81.226 81.476 80.921 80.906 81.071 81.194 81.304 81.386 81.426 81.394 81.519 81.626 81.819 82.266 82.764 82.989 83.156 83.314 83.391 83.524 83.724 84.324 83.941 84.036 84.096 84.244 84.274 84.311 84.696 85.139 84.906 84.951 84.944 84.749 84.436 84.964 83.649 83.471 82.866 80.281 78.321 78.244 78.331 78.421 78.511 78.591 78.639 78.771 78.991 79.134 78.941 78.879 78.899 78.861 78.879 78.886 78.889 78.886 78.951 81.286 82.606 83.051 83.401 83.921 84.396 84.834 85.304 85.619 86.006 86.421 86.879 87.369 87.766 87.954 88.351 90.371 90.921 90.216 89.716 89.529 91.429 89.549 88.724 88.746 89.489 89.259 89.529 89.224 89.316 89.084 89.141 89.239 89.221 89.204 89.319 89.331 89.471 90.526 95.321 93.601 94.079 90.786 93.286 94.959 92.186 91.269 89.466 89.454 89.499 89.499 89.514 89.771 89.556 89.601 89.496 89.486 89.536 89.516 89.531 89.494 89.389 89.461 89.484 89.544 89.634 89.711 89.716 89.804 89.836 89.869 89.869 89.914 89.871 89.904 89.861 89.896 89.879 89.909 89.996 89.906 89.946 89.714 89.749 89.791 89.844 89.856 89.911 89.789 89.809 89.769 89.831 89.779 89.804 89.761 89.704 89.681 89.726 89.736 89.571 89.481 89.349 89.336 89.746 91.314 90.071 89.346 89.276 89.379 89.374 89.551 89.644 89.609 89.754 89.739 89.824 89.926 89.974 90.224 90.186 90.244 90.254 90.269 90.506 90.504 90.641
79.589 77.516 77.466 77.486 77.746 78.606 78.409 78.149 79.336 78.381 77.754 77.756 77.934 78.476 77.171 78.541 77.099 77.096 78.341 80.919 77.224 77.243 78.596 83.368 81.748 78.608 77.964 77.581 78.964 79.216 80.514 79.071 77.301 77.031 76.819 76.799 76.754 76.916 79.019 80.346 79.316 79.354 78.539 76.934 75.861 75.736 75.614 75.894 77.413 76.724 75.766 76.416 76.886 77.946 79.336 82.638 83.008 83.681 82.641 81.693 78.603 75.406 74.658 74.416 74.288 74.251 74.303 74.326 74.376 74.653 74.653 75.786 74.863 74.911 75.161 80.906 78.323 77.813 76.128 76.008 76.781 76.066 76.078 76.601 78.833 81.941 81.556 79.808 79.843 79.863 80.396 79.598 76.981 76.526 77.296 77.613 77.768 77.836 77.926 78.078 78.293 78.556 79.496 78.956 78.908 79.408 80.556 81.623 81.888 80.488 79.721 79.753 79.911 80.298 80.041 80.128 80.166 80.191 81.361 81.838 83.351 81.231 81.151 81.233 80.691 80.773 80.881 81.166 83.586 82.181 82.816 83.158 85.266 83.971 81.453 81.313 81.326 82.323 83.603 83.033 81.491 81.488 81.506 81.598 81.643 81.563 81.431 81.238 82.301 82.111 82.403 81.868 81.073 81.373 82.494 83.064 84.341 82.396 81.751 81.601 81.61 81.593 81.586 81.62 82.655 83.953 82.561 82.046 82.086 82.156 82.468 82.404 82.073 82.052 82.006 82.357 81.89 81.721 81.658 81.643 81.678 81.99 82.263 81.952 81.901 81.824 81.676 81.645 83.198 86.043 88.292 89.341 89.653 88.763 87.639 85.891 83.056 81.446 81.116 81.214 81.126 81.049 81.161 81.186 81.641 84.334 86.046 87.199 88.201 87.981 86.851 84.864 83.196 80.411 80.066 80.014 80.079 80.156 80.111 80.149 83.866 87.851 88.111 87.104 85.936 83.019 80.234 79.984 81.834 80.359 81.506 79.794 80.626 80.006 79.649 79.689 79.774 80.014 79.791 79.924 79.911 80.626 83.066 81.944 81.351 80.804 80.961 81.074 81.226 81.316 81.344 81.384 81.489 81.641 82.141 82.616 82.796 82.964 83.136 83.329 83.404 83.484 84.491 84.801 85.944 84.799 84.089 84.146 84.186 84.574 84.636 84.884 84.961 84.844 84.594 84.259 83.969 83.566 83.304 82.339 79.954 78.141 78.171 78.286 78.324 78.431 78.529 78.564 78.691 78.876 79.049 78.861 78.841 78.799 78.776 78.821 78.796 78.811 78.814 78.946 81.196 82.504 83.056 83.479 83.889 84.364 84.721 85.181 85.634 86.024 86.429 86.819 87.264 87.694 88.294 89.604 89.886 88.949 89.516 90.029 90.254 91.294 89.804 88.851 88.619 88.809 90.429 88.839 89.081 89.684 89.979 89.599 89.141 89.214 89.166 89.229 89.324 89.374 89.796 92.119 96.066 96.234 94.396 96.981 94.994 91.796 91.656 89.471 89.394 89.374 90.056 90.111 89.449 89.436 89.441 89.419 89.474 89.516 89.441 89.511 91.036 89.446 89.394 89.441 89.439 89.514 89.601 89.696 89.686 89.751 89.859 89.804 89.829 89.821 89.844 89.889 89.841 89.839 89.864 89.811 89.756 89.866 89.714 89.674 89.794 89.821 89.779 89.749 89.731 89.746 89.736 89.731 89.841 89.719 89.771 89.709 89.651 89.671 89.616 89.549 89.446 89.329 89.364 89.226 89.231 89.204 89.331 89.254 89.224 89.264 89.301 89.501 89.684 89.571 89.659 89.686 89.876 89.819 89.874 89.999 90.101 90.154 90.194 90.229 90.336 90.436 90.551
79.409 78.651 78.181 78.061 77.421 77.429 77.409 77.449 77.541 77.476 77.688 78.188 78.629 78.126 77.023 77.126 77.046 77.394 79.271 78.641 78.516 77.181 81.139 85.116 85.091 84.781 84.351 83.858 80.368 79.574 78.534 80.299 82.541 81.391 78.481 77.801 77.078 77.561 79.071 77.539 75.819 75.881 76.591 78.171 76.498 75.574 75.519 75.749 76.696 77.316 76.959 78.169 80.334 80.866 81.923 83.873 84.948 84.141 82.078 80.293 75.881 75.331 74.808 74.203 74.113 74.198 74.288 74.276 74.308 74.406 74.706 74.878 74.791 75.081 79.686 82.283 82.323 81.166 77.258 75.858 76.041 76.008 76.128 76.288 76.378 76.493 78.741 77.286 77.841 78.401 78.021 76.923 76.433 76.786 77.258 77.808 78.276 77.913 78.048 78.176 78.351 78.608 79.168 79.793 78.953 79.018 79.338 81.741 79.321 79.578 82.226 79.978 81.136 80.486 80.036 80.096 80.143 80.241 81.068 84.348 81.456 80.496 80.556 81.536 80.723 80.936 83.433 83.988 85.288 81.973 83.528 83.991 83.191 81.356 81.258 81.231 82.763 84.261 83.696 83.511 82.853 81.431 81.448 81.486 81.468 81.266 81.181 81.243 81.238 82.991 83.426 83.538 83.786 82.578 83.079 83.051 82.746 83.079 82.574 81.724 81.569 81.581 81.554 82.605 81.91 82.781 84.045 82.784 82.231 81.921 81.89 81.969 81.959 81.921 81.828 81.72 81.62 81.574 81.567 81.62 82.192 82.059 81.848 81.861 81.714 81.707 82.012 84.122 86.516 88.205 89.482 89.635 88.529 87.484 86.067 82.435 81.144 81.024 81.066 81.044 81.026 80.991 80.866 80.886 80.921 81.501 84.034 85.954 87.059 88.184 88.059 86.946 85.599 82.176 80.016 79.974 79.991 80.071 80.094 79.996 81.476 85.324 86.981 85.956 83.879 80.926 79.994 81.274 82.454 79.914 84.304 81.341 81.249 80.819 79.614 79.601 79.609 79.734 80.214 79.976 80.846 82.406 86.181 85.534 80.771 80.614 80.879 81.099 81.159 81.196 81.224 81.339 81.504 81.949 82.476 82.654 82.809 82.954 83.124 83.311 83.454 85.579 83.854 86.919 86.491 85.379 85.469 84.414 84.181 84.344 84.504 84.706 85.066 84.676 84.214 83.749 83.359 83.136 81.721 79.289 78.064 78.106 78.181 78.269 78.361 78.439 78.491 78.606 78.894 78.941 78.771 78.736 78.754 78.736 78.749 78.746 78.721 78.741 79.319 81.541 82.694 82.939 83.376 83.886 84.299 84.771 85.294 85.816 85.946 86.431 86.866 87.369 87.544 88.709 89.661 90.079 89.304 88.476 88.681 89.316 90.449 90.526 88.811 88.609 88.744 90.539 91.889 91.569 89.331 88.844 91.374 90.069 91.786 89.166 89.194 89.239 89.306 89.381 90.669 92.331 95.229 95.371 91.529 90.929 91.071 93.169 90.501 89.699 89.319 89.374 90.376 89.886 89.469 89.924 89.814 89.456 89.434 89.421 89.421 89.449 89.826 89.389 89.419 89.406 89.424 89.549 89.596 89.671 89.704 89.756 89.816 89.779 89.821 89.794 89.779 89.816 89.784 89.806 89.784 89.769 89.746 89.879 89.701 89.691 89.766 89.714 89.656 89.696 89.721 89.661 89.684 89.669 89.636 89.606 89.631 89.641 89.684 89.631 89.551 89.436 89.346 89.279 89.209 89.119 89.021 89.216 89.154 89.081 89.124 89.154 89.234 89.444 89.451 89.524 89.591 89.669 89.634 89.819 89.861 89.991 90.021 90.054 90.144 90.224 90.236 90.384 90.514
78.286 77.841 80.059 81.941 80.781 79.076 77.373 77.841 78.706 77.196 78.214 77.136 77.066 76.991 77.983 76.926 76.966 77.336 77.686 78.066 77.576 77.126 80.038 84.176 85.724 86.446 85.626 84.006 83.309 78.534 76.709 77.516 77.629 80.046 78.539 80.834 80.691 78.968 79.086 77.746 76.341 75.731 75.651 75.864 75.824 78.169 76.071 75.356 75.319 75.349 77.133 75.991 80.373 82.354 83.736 83.896 83.523 82.491 81.403 76.083 75.418 75.091 74.561 74.111 74.078 74.146 75.513 74.243 74.731 74.393 74.568 74.698 74.848 77.241 81.643 82.873 83.473 82.761 81.946 79.533 79.041 77.076 76.133 76.226 76.378 76.451 76.413 76.556 76.881 76.551 76.706 76.821 77.051 77.353 78.558 79.221 78.426 78.011 78.078 78.263 78.421 78.583 78.731 78.846 79.531 79.813 79.191 79.146 81.271 79.821 80.271 80.188 82.193 80.941 80.031 80.101 81.088 81.406 82.386 82.278 81.411 81.106 80.466 80.508 80.596 80.953 83.548 85.116 87.566 83.641 81.058 81.593 81.173 81.161 81.231 81.358 82.741 84.091 83.708 82.478 81.623 81.368 81.391 81.351 81.166 81.066 82.521 86.798 84.073 83.398 83.966 87.456 88.001 86.671 82.291 81.759 83.454 83.859 83.094 83.449 81.889 81.516 81.514 82.674 84.226 84.739 84.301 84.105 83.945 82.11 81.857 81.862 81.817 81.759 81.617 81.538 81.49 81.484 81.553 82.003 81.955 81.764 81.814 81.71 81.497 82.63 85.411 86.842 88.401 89.331 89.099 88.27 87.243 85.144 82.726 80.958 80.975 80.979 80.914 80.911 80.886 80.889 80.779 80.689 80.929 81.194 81.456 84.036 85.819 87.011 88.091 88.166 87.064 85.944 81.704 79.866 79.871 80.011 80.051 80.004 80.029 81.116 83.651 83.491 81.069 80.186 81.116 84.996 82.601 81.036 83.564 82.146 81.579 82.276 82.901 79.489 79.561 79.621 79.744 80.796 83.676 86.244 86.776 86.151 83.211 80.351 80.771 81.141 81.139 81.031 81.171 81.351 81.831 82.319 82.499 82.621 82.804 82.979 83.151 83.299 83.736 86.629 85.809 86.799 88.639 87.731 85.849 85.176 84.691 84.349 84.501 85.029 84.484 84.064 83.674 83.169 82.931 81.681 79.604 77.976 78.004 78.156 78.186 78.274 78.369 78.419 78.506 78.794 78.764 78.716 78.714 78.671 78.664 78.651 78.641 78.644 78.649 79.376 81.349 82.661 82.969 83.341 83.794 84.279 84.624 85.059 85.491 86.424 86.359 86.699 87.169 87.446 88.626 90.166 89.684 89.064 89.581 89.399 88.746 89.284 89.609 90.589 88.706 88.616 90.504 91.996 91.754 91.514 91.289 90.519 89.771 90.066 92.491 89.114 89.176 89.246 89.339 90.401 92.799 94.419 94.166 91.516 91.719 94.609 92.856 95.299 92.296 90.221 89.251 89.394 90.106 89.396 89.404 90.044 89.869 89.566 89.399 89.424 89.386 89.356 89.366 89.319 89.394 89.434 89.491 90.339 89.546 89.634 89.659 89.744 89.744 89.736 89.734 89.796 89.746 89.754 89.731 89.761 89.721 89.691 89.701 89.709 89.606 89.749 89.829 89.716 89.669 89.739 89.636 89.646 89.624 89.626 89.561 89.631 89.646 89.644 89.596 89.574 89.499 89.304 89.174 89.161 89.461 89.034 89.039 89.266 89.031 88.974 89.056 89.046 89.239 89.259 89.371 89.456 89.491 89.586 89.609 89.676 89.854 90.036 89.971 90.021 90.076 90.096 90.179 90.291 90.471
76.814 76.959 80.751 84.166 84.201 83.913 83.566 83.321 83.239 79.874 81.761 78.521 80.733 79.956 79.763 77.694 76.888 76.903 76.938 77.199 77.076 77.096 81.386 84.381 86.171 86.758 85.278 83.016 82.328 79.288 77.194 76.508 76.539 76.834 76.116 76.756 77.566 81.101 79.489 77.231 77.306 78.411 76.703 75.971 75.538 77.551 79.311 75.339 75.201 75.811 78.328 80.616 79.406 78.058 83.043 83.801 82.818 81.748 78.873 74.838 74.633 74.691 74.038 74.026 74.083 74.121 75.713 77.841 77.441 74.801 75.753 75.626 75.121 77.208 81.313 82.423 83.201 83.571 82.581 81.398 78.368 78.931 76.946 76.311 76.356 76.531 76.696 76.853 76.993 77.086 77.206 77.348 77.471 77.566 78.511 79.461 78.461 78.003 78.443 78.748 78.516 78.663 78.796 78.806 79.836 80.733 80.643 79.533 79.651 79.498 79.701 79.781 80.583 80.353 79.973 82.311 82.673 83.078 81.796 81.653 83.293 82.756 80.806 80.463 80.553 80.848 83.293 84.031 84.716 82.728 82.128 81.061 81.086 81.166 81.176 81.371 81.298 82.561 82.468 82.478 81.443 81.276 81.238 81.158 81.036 83.638 86.968 88.053 88.543 84.231 85.666 87.496 88.458 87.823 85.449 81.279 82.974 81.686 81.579 84.641 83.239 82.604 81.479 81.474 82.679 85.304 83.461 84.809 82.29 81.712 81.783 81.743 81.67 81.568 81.714 81.489 81.42 81.504 82.311 81.758 81.705 81.731 81.671 81.47 81.871 85.338 87.344 88.594 89.403 88.933 87.826 86.612 84.648 81.584 80.899 80.98 80.888 80.835 80.781 80.786 80.774 80.744 80.729 80.639 80.586 80.636 81.239 81.154 84.019 85.591 86.824 87.934 88.184 87.169 85.759 82.211 79.829 79.931 80.004 79.959 80.881 80.241 80.529 80.129 80.316 82.194 82.504 87.496 85.694 86.319 82.076 81.944 84.376 83.796 81.194 79.449 79.534 79.626 80.379 84.434 86.341 86.794 86.039 84.456 82.261 80.489 80.799 81.626 81.431 80.996 81.176 81.696 82.151 82.369 82.509 82.639 82.786 82.946 83.144 83.261 84.706 87.436 85.259 87.006 88.701 89.706 88.904 86.801 84.521 84.496 85.314 84.179 84.389 83.721 83.006 82.919 82.031 78.759 77.936 77.986 78.031 78.144 78.169 78.306 78.329 78.464 78.701 78.651 78.639 78.586 78.589 78.576 78.579 78.589 78.594 78.596 78.971 81.256 82.654 83.074 83.376 83.791 84.181 84.561 85.026 85.604 85.966 86.346 86.714 87.149 87.374 87.829 89.989 90.929 89.506 88.659 89.284 90.054 90.421 90.039 90.321 88.731 88.571 88.634 91.401 91.864 91.606 90.959 90.019 91.084 91.384 91.339 93.619 89.084 89.139 89.246 91.439 92.091 97.824 94.339 93.566 94.986 93.691 94.306 93.294 95.051 91.631 89.229 89.184 89.194 89.276 89.316 89.279 89.306 89.466 89.419 89.351 89.351 89.359 89.336 89.319 89.316 89.354 89.389 89.456 89.486 89.526 89.566 89.601 89.661 89.706 89.716 89.771 89.846 89.694 89.704 89.791 89.576 89.626 89.659 89.681 89.551 89.599 89.686 89.634 89.641 89.696 89.731 89.509 89.626 89.606 89.591 89.516 89.476 89.461 89.439 89.491 89.404 89.319 89.201 89.091 89.056 90.111 91.499 89.039 88.971 88.891 88.911 88.931 89.039 89.194 89.206 89.294 89.391 89.454 89.436 89.546 89.666 89.811 89.884 89.881 89.959 90.029 90.056 90.139 90.249 90.351
76.899 78.479 82.281 84.179 84.696 84.826 84.786 84.549 84.236 81.096 78.159 76.871 79.751 77.104 77.096 76.831 76.824 76.834 76.886 76.996 77.071 77.089 84.461 84.968 86.566 86.493 84.826 81.953 80.161 80.006 76.944 76.521 76.226 76.141 76.044 75.949 78.211 80.263 80.074 76.788 79.056 79.729 78.339 75.846 76.531 75.221 76.121 76.794 75.184 74.791 76.414 80.623 81.616 80.699 76.458 80.961 81.998 80.651 76.538 74.591 75.603 74.046 73.903 73.958 74.021 74.036 73.993 75.093 75.263 74.463 75.481 76.771 76.258 75.331 77.276 81.046 82.048 82.658 81.836 78.943 76.451 76.983 81.173 77.603 76.666 77.293 77.361 76.903 77.088 77.258 77.356 77.476 78.328 77.713 77.878 77.958 77.991 78.211 78.138 78.416 78.618 78.811 78.926 79.023 79.011 79.196 79.768 79.753 80.691 80.141 80.083 80.118 80.138 80.596 79.971 84.326 82.908 81.486 80.461 82.221 83.518 82.951 83.633 81.463 80.678 83.078 84.473 83.486 81.178 81.653 80.916 80.951 81.451 81.548 81.263 81.026 81.088 81.091 81.048 81.436 81.468 81.586 81.121 81.178 84.158 87.098 88.116 88.383 87.356 83.688 81.121 86.026 87.598 88.601 87.869 85.241 81.196 81.226 81.644 82.926 85.896 82.044 81.431 81.409 81.426 82.409 84.121 82.306 81.495 81.691 81.676 82.083 81.465 81.387 81.361 81.369 81.395 81.522 81.721 81.796 81.797 81.67 81.468 82.158 85.645 87.544 88.777 89.404 88.726 87.659 86.49 83.798 81.26 80.944 80.983 80.917 80.805 80.686 80.665 80.644 80.634 80.676 80.591 80.576 80.524 80.434 80.414 80.404 81.104 82.876 85.416 86.709 87.816 88.244 86.006 82.346 80.069 79.971 79.949 79.864 79.809 80.476 80.489 79.776 81.136 81.319 86.571 88.291 83.654 84.244 83.269 82.536 86.029 83.111 81.519 79.654 79.669 79.949 84.674 86.386 86.706 85.994 83.844 81.624 80.501 80.939 80.676 80.736 80.856 81.059 81.599 82.014 82.211 82.386 82.546 82.684 82.799 82.944 83.081 83.191 85.756 87.694 86.961 90.066 89.306 87.491 86.324 85.604 84.309 84.624 84.701 83.676 83.346 83.129 82.424 80.259 78.196 77.811 77.916 77.954 78.044 78.109 78.176 78.294 78.489 78.671 78.561 78.521 78.489 78.484 78.436 78.484 78.511 78.494 78.519 78.989 81.606 82.734 82.986 83.346 83.779 84.154 84.526 84.946 85.434 85.836 86.259 86.681 87.026 87.259 87.659 89.059 89.289 89.724 89.141 88.894 88.889 89.709 91.319 91.474 89.401 88.576 88.546 89.281 91.891 91.714 91.484 89.516 88.761 90.289 89.966 88.939 89.211 89.104 89.139 89.246 90.744 93.711 95.749 94.431 92.531 94.194 93.026 93.974 92.594 90.576 89.864 89.211 89.159 89.129 89.484 89.304 89.309 89.246 89.236 89.284 89.339 89.336 89.301 89.279 89.204 89.294 89.299 89.356 89.439 89.486 89.579 89.539 89.561 89.606 89.636 89.724 89.861 89.771 89.634 89.609 89.704 89.576 89.599 89.696 89.544 89.474 89.601 89.626 89.676 89.739 89.844 89.576 89.489 89.579 89.546 89.499 89.551 89.481 89.439 89.306 89.351 89.274 89.126 89.066 88.999 89.136 91.216 91.111 88.886 88.834 88.739 88.834 89.054 89.559 89.476 89.176 89.264 89.259 89.294 89.454 89.534 89.651 89.724 90.401 89.919 90.499 89.951 90.169 90.104 90.136 90.246
77.131 79.214 81.846 84.276 84.696 84.741 84.819 83.784 83.151 78.641 78.206 79.504 78.554 79.216 77.604 76.754 76.761 76.813 77.586 79.336 78.426 78.974 85.313 85.541 86.201 86.051 84.419 80.849 80.161 79.174 76.813 76.276 76.136 76.074 75.961 76.296 78.769 79.589 79.631 78.001 78.866 79.104 77.826 75.981 75.229 75.188 75.196 75.169 75.221 76.081 76.483 79.319 81.864 82.438 81.276 77.938 77.111 78.401 75.963 74.928 74.948 73.883 74.151 73.921 73.956 74.236 74.166 74.098 75.371 77.033 74.561 76.976 79.136 76.381 76.498 80.603 81.581 81.533 80.266 78.146 77.403 78.343 82.251 80.543 81.536 78.026 77.443 79.721 79.473 77.536 77.421 77.703 79.918 78.088 77.991 78.038 78.066 78.263 78.478 78.528 78.561 78.766 78.973 79.076 79.081 79.548 79.311 79.256 81.458 79.598 81.078 80.073 81.073 82.046 81.866 82.448 83.181 81.538 82.348 82.963 81.433 81.526 84.303 82.593 82.873 84.178 83.923 82.266 81.388 80.831 80.838 81.191 81.206 81.821 82.636 81.111 81.023 81.006 81.028 81.031 80.991 81.006 81.498 82.668 87.246 88.388 88.276 87.191 84.786 83.356 83.081 82.096 86.238 87.788 88.671 86.409 82.034 81.211 81.879 82.689 85.104 84.059 81.709 81.366 81.374 81.374 82.861 81.941 81.404 81.429 81.626 82.029 81.307 81.241 81.288 81.326 81.357 81.43 81.593 81.715 82.111 82.078 81.445 86.171 87.802 88.948 89.435 88.553 87.459 86.161 83.216 81.004 80.938 80.881 80.851 80.766 80.66 80.565 80.546 80.512 80.542 80.571 80.539 80.471 80.429 80.396 80.351 80.279 80.201 80.364 83.281 85.591 86.606 87.709 84.464 80.394 80.051 80.164 79.809 79.761 79.701 79.674 79.969 81.544 82.631 82.159 86.249 83.636 90.511 85.571 83.526 80.681 79.371 80.064 79.611 80.614 81.131 85.109 86.539 86.641 85.776 83.646 81.079 80.414 80.634 81.664 80.681 80.684 80.934 81.499 81.874 82.044 82.224 82.381 82.536 82.671 82.801 82.944 83.034 83.151 83.291 84.051 85.451 89.284 86.969 85.934 87.524 84.561 84.289 84.169 83.639 83.209 83.496 82.286 81.289 77.949 77.774 77.846 77.899 77.954 78.036 78.106 78.189 78.414 78.509 78.534 78.434 78.396 78.424 78.409 78.409 78.421 78.431 78.469 78.924 81.859 82.584 82.906 83.421 83.704 84.194 84.509 84.924 85.359 85.829 86.226 86.721 86.989 87.244 88.139 89.059 89.706 88.361 88.601 88.511 89.406 89.984 91.529 93.264 93.356 89.746 88.501 88.541 89.351 91.529 91.851 91.646 91.201 89.386 88.849 88.806 89.016 89.029 89.104 89.149 89.449 91.856 93.736 96.371 94.869 91.859 91.091 94.454 93.139 91.796 90.504 89.326 89.199 89.109 89.069 89.249 89.229 89.246 89.241 89.249 89.259 89.276 89.279 89.244 89.156 89.219 89.264 89.321 89.374 89.419 89.411 89.476 89.504 89.536 89.584 89.679 89.766 89.734 89.671 89.664 89.614 89.659 89.621 89.549 89.579 89.404 89.454 89.554 89.526 89.561 89.571 89.506 89.451 89.459 89.479 89.454 89.404 89.351 89.389 89.369 89.324 89.146 89.059 89.006 88.936 88.831 89.974 91.859 90.109 88.789 88.614 88.714 88.749 89.371 89.549 90.079 89.204 89.091 89.179 89.251 89.339 89.454 89.569 89.724 90.826 90.636 92.879 92.984 92.354 90.024 90.039 90.219
77.614 77.811 82.149 84.266 84.743 84.474 84.258 83.389 79.676 77.184 76.938 77.919 78.481 77.386 76.654 76.679 76.711 76.776 77.339 79.729 80.021 79.934 82.749 84.093 84.508 84.891 83.014 78.721 79.721 78.341 76.489 76.146 76.041 75.981 75.846 77.066 80.411 79.584 78.911 78.661 78.154 78.071 75.868 75.684 75.629 75.746 75.196 74.739 76.581 77.084 78.301 81.063 82.078 83.004 82.866 82.253 79.013 76.513 74.488 75.128 73.956 74.508 74.121 73.823 73.848 75.006 74.268 75.061 74.383 75.176 75.173 81.191 81.958 80.513 78.121 77.376 80.423 79.333 79.331 77.963 76.306 79.178 78.123 76.808 77.776 80.463 81.218 83.811 81.748 78.026 77.426 77.608 77.911 77.886 78.031 78.993 78.196 78.401 78.616 78.741 78.806 79.006 78.883 79.096 80.713 81.406 81.363 79.726 80.376 81.168 81.191 81.401 79.866 80.178 82.271 82.773 81.263 83.591 80.803 81.256 81.051 81.346 82.688 85.563 89.576 84.238 84.006 80.971 80.718 81.773 81.021 80.998 81.806 81.973 81.051 81.046 81.526 80.971 80.973 80.973 80.981 81.301 85.286 87.328 87.453 88.206 87.076 83.998 81.256 82.071 85.361 84.766 82.493 86.306 85.966 81.111 81.166 81.316 81.296 81.414 84.456 84.444 82.224 81.304 81.341 81.306 81.541 81.684 81.261 81.334 81.801 81.244 81.188 81.223 81.245 81.267 81.386 81.504 81.663 81.68 82.074 82.022 81.785 83.872 88.754 89.331 88.377 87.271 85.221 82.245 80.876 80.836 80.815 80.775 80.696 80.608 80.538 80.509 80.403 80.363 80.356 80.375 80.439 80.391 80.309 80.314 80.276 80.251 80.151 80.031 80.461 83.181 84.531 83.854 80.936 79.911 79.881 80.659 80.034 79.701 79.629 79.601 79.889 81.511 80.874 81.039 81.706 88.151 93.361 92.559 80.026 79.071 79.141 79.214 79.296 81.131 84.774 86.701 86.549 85.484 83.564 80.756 80.351 80.374 80.474 80.669 80.509 80.839 81.381 81.741 81.894 82.074 82.211 82.339 82.509 82.641 82.796 82.936 83.019 83.114 83.236 83.311 84.011 87.079 85.379 83.756 83.929 84.434 83.939 83.309 83.036 82.696 82.349 80.671 78.074 77.666 77.756 78.056 78.044 77.954 78.051 78.114 78.366 78.456 78.444 78.319 78.306 78.319 78.331 78.351 78.334 78.364 78.414 79.061 82.341 82.521 82.961 83.294 83.651 84.091 84.516 84.964 85.356 85.824 86.179 86.694 86.954 87.404 88.304 88.431 90.109 89.171 89.956 89.786 89.511 93.216 93.619 92.264 92.611 91.879 91.496 89.049 88.566 88.526 89.111 90.804 91.979 91.834 92.191 89.979 88.854 88.936 89.001 89.084 89.239 91.061 91.079 92.084 97.034 94.241 92.061 94.009 92.971 91.984 91.564 89.326 89.384 89.309 89.089 89.074 89.094 89.154 89.166 89.206 89.244 89.236 89.229 89.236 89.146 89.101 89.184 89.191 89.266 89.314 89.284 89.311 89.326 89.386 89.464 89.474 89.629 89.654 89.624 89.559 89.529 89.494 89.529 89.539 89.504 89.484 89.349 89.526 89.724 89.539 89.469 89.486 89.464 89.429 89.459 89.441 89.359 89.394 89.359 89.269 89.196 89.169 89.101 88.986 88.899 88.684 88.684 89.124 90.501 88.961 88.704 88.521 88.621 88.651 89.171 89.731 89.469 89.034 89.059 89.124 89.216 89.286 89.476 90.089 91.971 91.796 95.489 94.089 95.026 94.861 90.281 90.034 90.151
79.511 79.186 79.859 79.866 81.051 82.881 82.246 82.108 78.574 76.751 76.711 77.511 77.571 77.521 76.636 76.664 76.621 76.711 77.129 77.271 77.356 80.596 80.056 79.386 79.721 80.176 79.566 80.321 80.794 79.644 79.374 76.086 75.986 76.536 78.336 76.618 77.906 79.516 79.104 77.931 78.334 76.209 75.133 75.389 77.086 76.331 74.936 76.911 77.116 78.849 80.629 81.981 82.111 81.624 82.326 80.518 76.778 74.593 75.568 74.686 73.828 73.943 73.768 73.751 73.698 73.818 75.073 74.748 75.143 74.436 76.366 81.771 83.056 82.733 81.873 79.118 76.671 77.903 78.073 77.298 78.678 76.426 76.741 77.058 76.416 77.118 83.218 85.351 81.416 80.311 78.258 77.611 77.743 77.956 78.161 78.208 78.408 78.586 78.753 78.843 79.313 80.123 78.928 79.806 82.063 81.473 82.036 82.916 81.583 80.551 79.468 79.756 81.903 81.766 81.536 81.093 80.206 82.001 81.888 80.091 80.296 82.266 82.538 84.258 86.423 82.308 82.183 80.616 82.223 85.146 82.516 80.786 80.898 81.013 80.806 80.908 81.118 82.093 81.758 81.078 80.943 80.931 85.053 87.203 83.756 86.163 83.538 81.873 80.953 81.313 83.496 82.513 82.428 82.388 82.151 81.174 81.266 81.291 81.314 83.334 82.979 81.289 81.226 81.256 81.279 81.271 81.249 81.221 81.194 81.136 81.144 81.146 81.169 81.184 81.233 81.292 81.443 81.51 81.501 81.459 81.438 81.695 81.922 82.675 84.753 87.96 87.092 85 81.269 80.62 80.647 80.83 80.666 80.608 80.551 80.475 80.455 80.302 80.283 80.212 80.138 80.168 80.243 80.271 80.241 80.229 80.201 80.134 80.091 79.959 79.861 80.209 81.169 80.524 79.741 79.764 79.719 79.664 79.856 79.601 79.564 79.514 81.014 79.779 80.829 80.819 83.444 85.511 83.549 88.189 83.971 81.361 80.971 79.179 80.174 83.554 85.839 86.261 85.611 83.566 80.309 80.179 80.691 80.424 80.289 80.399 80.616 81.244 81.576 81.776 81.924 82.081 82.229 82.346 82.491 82.601 82.774 82.879 82.966 83.069 83.126 83.221 83.284 88.711 85.716 84.214 83.774 83.451 83.409 82.901 82.509 82.086 80.001 78.034 77.616 77.711 78.164 78.889 78.014 77.984 78.059 78.271 78.434 78.401 78.219 78.274 78.286 78.259 78.254 78.254 78.249 78.346 79.019 82.494 82.551 82.934 83.214 83.626 84.091 84.474 84.989 85.361 85.791 86.249 86.559 86.846 87.389 87.809 87.651 88.189 89.759 88.399 88.406 90.126 90.341 94.374 95.319 93.436 92.721 92.851 89.924 88.769 88.554 88.564 88.581 88.556 89.546 91.749 92.711 94.036 88.871 88.916 88.981 89.064 89.181 92.731 90.324 98.009 96.764 96.341 95.899 96.279 91.731 89.741 89.439 89.179 89.246 89.304 89.156 89.036 89.009 89.104 89.131 89.151 89.186 89.216 89.191 89.206 89.089 89.096 89.141 89.154 89.221 89.221 89.186 89.236 89.316 89.291 89.344 89.424 89.469 89.519 89.614 89.591 89.486 89.479 89.524 89.411 89.436 89.309 89.326 89.399 89.444 89.401 89.404 89.441 89.391 89.371 89.339 89.346 89.239 89.256 89.281 89.159 89.054 88.991 88.934 88.814 88.711 88.674 89.344 88.576 88.776 88.604 88.479 88.444 88.499 88.616 88.814 88.766 88.849 88.996 89.116 89.081 89.161 89.246 89.399 90.689 93.314 93.496 96.236 94.304 92.114 95.386 92.556 90.731 90.104
76.811 78.349 81.114 81.244 78.898 78.176 79.331 78.921 77.836 77.776 77.416 76.644 76.536 76.489 76.561 76.589 76.569 76.671 76.926 77.303 77.354 81.736 83.938 84.274 83.858 82.919 80.146 79.784 79.666 81.711 79.631 79.886 76.976 76.406 76.636 78.873 79.524 76.661 76.341 77.356 76.733 75.186 75.121 75.254 75.669 75.233 75.511 77.529 80.836 81.303 81.743 82.531 81.748 82.063 80.626 77.633 74.428 74.978 75.141 74.173 74.538 73.861 73.703 75.498 74.096 75.403 74.018 74.221 74.481 76.283 79.896 82.636 83.938 83.211 81.788 79.296 77.048 78.953 80.301 76.971 82.228 78.413 76.203 76.048 76.196 76.571 79.011 77.901 77.566 79.441 78.533 77.633 77.798 77.973 78.126 78.186 78.446 78.658 78.823 78.921 79.508 80.601 79.093 81.921 82.063 82.048 82.043 82.681 83.533 83.638 80.041 80.126 85.693 82.471 85.456 82.493 80.546 80.738 81.623 82.126 80.168 80.308 81.243 83.133 82.311 83.098 80.496 82.831 85.258 85.546 83.898 80.711 80.761 80.761 80.741 80.733 80.791 83.738 85.803 83.131 80.911 80.923 81.688 81.386 81.311 83.313 83.203 83.588 81.986 80.971 81.401 82.103 82.296 83.381 82.394 81.246 82.339 81.224 82.094 82.746 81.421 81.164 81.144 81.189 81.194 81.194 81.204 81.169 81.156 81.104 81.104 81.091 81.094 81.126 81.389 81.423 81.495 81.436 81.403 81.333 81.298 82.437 82.206 83.018 82.367 83.832 83.944 81.03 80.568 80.55 80.642 80.648 80.518 80.386 80.409 80.487 80.303 80.119 80.142 80.065 80.029 80.032 80.048 80.074 80.071 80.016 79.989 79.984 79.936 79.821 79.801 79.751 79.699 79.699 79.661 79.641 79.624 79.589 79.549 79.491 79.489 79.439 80.144 80.874 81.029 81.689 84.444 85.361 84.374 85.161 81.386 81.236 80.814 79.461 83.374 85.519 86.006 85.044 82.719 80.666 80.171 80.149 81.114 80.429 80.259 80.394 80.801 81.456 81.631 81.784 81.951 82.101 82.229 82.339 82.471 82.596 82.731 82.816 82.929 82.976 83.031 83.116 83.456 84.169 83.711 83.581 83.239 83.716 82.684 82.681 82.091 79.236 77.741 77.546 77.631 77.656 78.251 78.119 77.896 77.959 78.161 78.409 78.326 78.154 78.181 78.161 78.196 78.189 78.184 78.176 78.459 79.106 82.576 82.546 82.839 83.201 83.611 84.069 84.474 84.874 85.259 85.736 86.151 86.531 86.734 86.866 88.704 90.106 89.801 89.421 89.356 88.754 88.174 88.114 91.201 94.319 94.051 93.489 88.916 91.206 89.509 88.424 88.494 88.669 88.749 89.129 88.741 90.189 89.589 90.256 89.641 88.896 89.009 89.209 94.721 95.009 92.104 93.774 97.556 97.734 97.081 95.946 94.474 89.099 89.061 89.031 89.144 89.206 89.219 88.999 88.949 89.026 89.091 89.116 89.144 89.171 89.166 89.166 89.076 89.089 89.071 89.114 89.126 89.144 89.099 89.184 89.281 89.174 89.224 89.271 89.311 89.409 89.351 89.394 89.406 89.384 89.344 89.364 89.299 89.171 89.381 89.379 89.369 89.351 89.449 89.316 89.266 89.276 89.289 89.254 89.126 89.194 89.076 89.046 88.924 88.921 88.801 88.659 88.614 88.696 92.686 92.559 88.836 88.384 88.341 88.386 88.356 88.584 88.696 88.684 88.889 88.859 88.919 89.034 89.119 89.351 90.596 91.799 92.504 93.966 94.804 95.364 93.351 93.961 92.464 89.926 90.476
76.616 81.396 83.869 83.799 83.699 83.309 82.078 77.769 77.151 76.779 77.311 77.891 76.508 76.479 76.521 76.534 77.156 77.016 76.824 76.709 80.554 84.078 84.461 85.663 85.229 83.806 80.671 79.826 78.519 77.741 77.104 78.961 79.611 78.046 82.093 79.971 75.621 76.776 77.666 75.809 75.351 75.566 77.536 75.004 74.873 75.678 77.391 78.864 76.739 81.029 81.831 82.731 82.959 81.876 78.128 74.136 74.128 77.331 80.733 74.516 73.828 73.578 73.536 73.703 78.658 74.063 74.148 74.263 74.383 80.916 82.301 83.533 83.658 82.266 79.983 77.768 75.896 78.038 80.326 81.083 81.908 78.853 77.261 76.111 76.268 76.408 76.861 76.823 77.581 78.306 80.996 83.493 78.741 78.581 78.331 79.081 78.468 78.713 78.886 78.968 78.996 79.013 79.093 81.036 82.056 82.051 82.033 82.033 82.011 82.421 82.048 83.058 79.641 81.076 83.576 84.578 81.253 82.353 81.608 80.138 80.193 80.988 83.543 83.581 81.341 80.628 83.206 85.236 85.638 84.621 81.828 80.883 80.753 80.726 80.693 80.698 80.711 82.068 85.956 84.748 81.098 80.871 80.771 80.403 80.341 81.243 81.978 83.156 83.598 81.256 81.041 81.653 83.538 85.626 84.861 82.549 81.126 82.544 82.591 81.166 81.081 81.064 81.086 81.129 81.119 81.141 81.106 81.111 81.071 81.071 81.054 81.024 81.631 81.169 81.369 81.894 81.476 81.322 81.302 81.229 81.567 82.007 81.686 82.123 82.797 81.744 80.652 80.464 80.443 80.47 80.527 80.485 80.403 80.553 80.314 80.213 80.07 79.909 79.904 79.883 79.917 79.89 79.854 79.885 79.899 79.811 79.841 79.779 79.701 79.706 79.654 79.656 80.444 79.599 79.539 79.566 79.549 79.489 79.454 79.421 79.366 79.354 81.339 80.659 83.876 86.149 84.359 83.519 83.271 83.161 80.334 79.019 79.656 82.001 85.476 85.979 85.254 82.979 81.006 80.241 80.026 79.976 80.041 80.154 80.226 80.446 81.031 81.501 81.674 81.806 81.944 82.096 82.216 82.354 82.504 82.596 82.699 82.771 82.844 82.874 83.054 83.664 83.474 83.514 83.436 83.169 82.784 84.281 82.936 81.919 78.901 77.541 77.499 77.571 77.589 77.671 77.741 77.839 77.921 78.106 78.244 78.149 78.131 78.094 78.111 78.096 78.106 78.096 78.104 78.404 79.399 82.406 82.544 82.864 83.326 83.586 84.004 84.439 84.851 85.231 85.686 86.109 86.499 86.681 86.939 87.534 88.254 89.311 89.786 88.734 87.904 88.204 89.721 88.979 90.876 91.574 90.404 91.139 88.951 90.706 89.789 88.431 88.454 88.529 89.264 96.091 92.459 92.071 90.369 88.776 88.804 88.871 88.974 89.264 94.149 98.524 90.301 90.186 96.011 93.226 97.154 96.974 95.331 89.911 88.996 88.989 89.021 89.194 89.196 89.109 88.909 88.919 89.026 89.119 89.141 89.124 89.111 89.064 89.036 89.054 88.999 89.064 89.064 89.034 89.019 89.061 89.199 89.026 89.036 89.084 89.106 89.089 89.164 89.294 89.209 89.276 89.286 89.259 89.096 89.119 89.259 89.229 89.259 89.246 89.264 89.256 89.211 89.196 89.194 89.076 89.044 89.086 88.921 88.889 88.816 88.709 88.634 88.511 88.421 89.121 91.719 91.024 88.559 88.214 88.254 88.279 88.324 88.456 88.494 88.626 88.734 88.809 88.881 88.911 89.091 89.139 89.639 92.856 93.751 93.026 94.851 93.099 93.094 94.314 92.401 90.096 90.389
76.626 78.709 81.776 83.264 84.574 83.711 81.459 77.011 76.834 76.756 76.559 76.496 76.431 76.431 76.459 76.468 77.171 78.654 76.716 76.676 81.624 83.811 84.778 85.966 85.474 83.346 80.146 79.586 76.949 77.146 76.441 76.104 76.513 79.856 83.324 83.409 75.946 77.694 78.031 76.989 75.383 75.176 76.273 75.453 74.536 74.716 77.481 80.721 80.743 77.413 78.311 80.881 82.256 80.563 75.943 74.728 73.913 74.431 76.238 74.331 73.508 73.501 73.483 78.318 79.863 74.166 74.366 75.096 75.176 81.573 82.991 83.898 82.786 81.071 78.223 76.288 75.333 75.966 76.958 77.401 77.556 80.021 77.703 76.293 76.346 76.501 76.688 76.841 77.051 78.063 79.858 82.191 79.711 78.708 79.356 78.336 78.446 78.796 78.896 78.978 78.991 79.086 79.658 82.076 82.068 82.051 82.041 82.016 82.026 82.028 82.258 82.436 80.923 80.663 82.228 82.571 82.201 83.341 80.793 80.156 80.233 82.316 82.593 81.066 80.661 80.521 82.776 84.861 82.891 80.461 80.501 80.566 80.708 80.756 80.596 81.276 80.723 80.691 81.503 82.813 86.523 87.423 81.376 80.306 80.358 81.548 84.943 83.198 83.136 82.876 82.368 80.898 81.933 84.973 83.764 81.506 82.981 82.334 81.044 80.994 80.966 80.981 81.039 81.054 81.104 81.454 81.104 81.039 81.026 81.029 81.019 80.971 81.304 81.154 81.521 82.114 81.901 81.209 81.174 81.124 81.071 81.234 81.588 83.356 84.814 83.624 80.422 80.367 80.221 80.282 80.388 80.404 80.266 80.136 80.065 80.017 79.912 79.763 79.705 79.693 79.727 79.724 79.704 79.731 79.716 79.674 79.998 81.075 79.803 79.464 81.352 82.65 80.441 79.491 79.461 79.484 79.451 79.411 79.359 79.354 79.291 79.216 79.276 81.106 85.684 84.146 80.744 79.079 79.591 79.186 78.939 78.919 80.879 85.256 86.516 85.566 83.884 80.666 80.109 80.101 80.204 79.884 80.006 80.109 80.251 80.826 81.291 81.544 81.689 81.814 81.951 82.076 82.174 82.339 82.451 82.539 82.626 82.686 82.744 82.831 83.079 83.921 83.924 84.136 83.326 82.676 82.541 82.791 81.716 78.576 77.416 77.414 77.519 77.524 77.601 77.656 77.789 77.856 78.101 78.269 78.084 78.011 78.014 78.051 78.054 78.021 78.026 78.001 78.076 80.006 82.389 82.521 82.899 83.344 83.719 84.056 84.411 84.816 85.246 85.644 86.036 86.419 86.626 86.919 87.409 88.801 88.746 88.501 87.871 89.016 88.886 88.149 91.696 90.106 88.621 89.456 91.684 89.489 88.479 88.681 88.894 89.981 88.659 88.814 92.874 98.759 96.979 92.596 88.771 88.771 88.821 88.926 88.989 89.346 89.976 94.136 93.416 98.654 99.319 99.576 102.611 99.636 89.191 88.979 88.994 89.049 89.011 89.086 89.111 89.101 88.926 88.864 88.894 89.054 89.089 89.034 89.011 88.976 89.004 89.016 88.921 88.906 88.954 88.964 88.974 88.934 88.929 88.939 88.974 88.954 88.974 88.966 89.054 89.131 89.046 89.094 89.159 89.036 88.884 89.046 89.144 89.114 89.216 89.134 89.131 89.091 89.086 89.056 88.959 88.946 88.956 88.941 88.829 88.709 88.656 88.584 88.616 88.379 88.294 90.604 91.789 88.296 88.259 88.074 88.139 88.166 88.314 88.386 88.474 88.591 88.629 88.686 88.799 88.961 89.006 89.501 90.261 91.521 93.506 94.911 94.621 91.799 94.201 91.604 90.754 90.761 91.109
76.629 76.649 78.001 83.429 84.664 83.476 81.421 76.656 76.841 77.011 76.941 76.506 76.364 76.391 76.406 76.784 77.794 78.653 76.721 77.341 81.276 83.541 85.106 85.466 84.949 82.676 79.951 79.401 76.843 77.254 76.049 75.766 76.139 79.431 81.521 80.456 76.216 78.336 75.514 74.951 75.566 74.914 74.846 74.929 75.136 74.491 75.676 79.843 81.034 80.956 78.921 76.239 80.276 77.871 74.871 73.961 73.486 73.311 73.466 73.533 73.401 73.436 73.441 73.833 77.066 74.831 74.771 74.243 78.046 82.378 83.571 83.311 82.236 81.411 78.771 75.131 75.136 75.518 75.891 76.113 76.381 78.593 78.726 77.883 76.598 76.583 76.746 76.886 77.033 79.078 81.896 82.488 80.723 79.236 78.301 78.293 78.356 78.878 78.918 79.073 79.063 79.576 81.891 82.078 82.066 82.051 82.046 82.026 82.036 82.026 82.048 80.511 79.591 83.271 85.586 82.043 80.533 80.968 81.108 80.848 80.651 80.763 80.321 80.263 80.598 81.483 81.406 81.093 80.281 80.368 80.448 80.533 80.706 81.761 80.816 80.983 80.551 80.586 80.541 82.701 92.838 92.868 85.191 84.218 86.531 83.901 83.123 83.353 84.551 83.968 82.453 80.998 80.906 81.168 82.149 80.951 81.064 80.954 80.944 80.904 80.914 80.926 80.981 81.131 82.094 81.951 81.791 81.086 81.664 81.434 80.924 80.916 80.936 80.969 81.159 81.696 81.981 81.641 81.166 81.009 80.976 80.948 81.971 84.318 84.258 82.737 81.835 83.094 81.884 80.047 80.179 80.13 80.013 79.935 79.905 79.839 79.741 79.603 79.55 79.514 79.493 79.491 79.48 79.507 79.524 79.492 79.549 80.228 79.885 79.265 81.547 85.733 82.995 80.289 79.406 79.406 79.344 79.326 79.276 79.219 80.511 79.826 79.379 79.556 80.919 81.819 79.726 78.626 78.829 78.979 78.954 81.349 83.674 85.974 85.719 83.846 80.596 79.851 79.981 80.549 80.256 79.879 79.981 80.086 80.599 81.164 81.386 81.546 81.646 81.771 81.936 82.044 82.146 82.264 82.376 82.479 82.529 82.596 82.669 82.889 83.869 86.041 85.369 83.406 82.801 83.134 83.244 81.246 79.256 77.246 77.361 77.409 77.486 77.519 77.631 77.701 77.729 78.071 78.106 77.976 77.949 77.966 77.941 77.961 77.941 77.974 77.941 78.179 80.689 82.526 84.201 82.934 83.321 83.876 84.134 84.476 84.821 85.234 85.611 86.069 86.436 86.601 87.471 88.616 89.304 90.481 89.959 88.856 88.891 89.544 89.496 90.656 93.621 90.464 89.961 89.339 88.726 88.421 88.439 88.431 88.709 88.871 88.744 88.916 92.461 97.041 99.504 96.741 88.684 88.746 88.824 88.884 89.016 89.621 89.904 92.749 93.229 91.909 98.586 96.081 98.524 91.624 89.789 89.174 88.974 88.999 88.994 89.004 89.031 89.076 89.011 88.839 88.821 88.881 88.979 88.961 88.879 88.951 88.969 88.969 88.931 88.894 88.834 88.796 88.836 88.869 88.844 88.844 88.799 88.839 88.841 88.866 88.834 88.786 88.791 88.846 88.874 88.761 88.769 89.001 89.016 88.941 89.046 88.976 88.956 88.901 88.839 88.809 88.774 88.739 88.736 88.709 88.626 88.554 88.456 88.444 88.391 88.216 88.316 90.699 89.046 88.121 88.009 88.011 88.056 88.161 88.294 88.316 88.391 88.496 88.604 88.849 88.774 88.824 88.921 89.011 89.081 89.581 90.274 95.291 95.636 93.041 91.521 93.759 91.926 95.239 95.114
77.041 76.656 78.829 83.606 84.444 83.608 83.151 81.861 77.529 76.611 76.578 76.396 76.409 76.351 76.356 76.571 78.166 76.999 76.993 77.161 80.376 83.941 85.274 84.401 83.953 81.843 80.041 78.211 77.371 77.726 75.786 75.758 75.854 80.049 82.226 78.831 75.129 75.236 76.419 76.966 76.736 74.664 74.761 74.129 74.496 75.184 76.904 80.296 81.636 81.993 81.281 80.608 76.431 74.559 74.233 74.283 73.208 73.181 73.263 73.323 73.328 73.348 73.636 73.696 75.043 74.253 74.193 74.776 78.566 81.111 82.416 82.618 82.091 81.658 77.106 75.056 75.196 75.833 76.028 76.078 76.123 76.706 77.666 78.281 78.336 77.763 76.871 76.933 77.343 79.498 81.886 81.751 80.196 78.831 78.268 78.273 78.283 78.331 78.371 78.841 79.103 79.166 80.441 82.086 82.061 82.058 82.056 82.061 82.048 82.046 81.411 79.233 79.663 84.278 81.768 81.668 81.451 82.998 82.268 80.456 80.473 80.138 80.161 80.638 81.698 81.801 82.188 81.171 80.206 80.313 80.401 80.473 80.488 80.753 81.883 80.533 80.523 80.578 80.401 80.248 85.261 91.311 85.201 86.616 87.761 88.253 81.608 80.276 82.831 83.036 82.126 80.816 80.806 81.163 81.739 80.806 80.881 81.761 81.144 80.839 80.844 80.879 81.036 81.129 81.056 80.901 80.904 81.211 81.914 80.816 80.844 80.869 81.671 80.984 80.869 81.079 81.614 81.676 81.551 80.936 80.874 80.824 80.792 81.37 81.404 82.525 85.853 86.381 85.143 81.191 79.826 79.863 79.856 79.773 79.737 79.928 79.612 79.448 79.364 79.325 79.268 79.242 79.302 79.331 79.325 79.274 79.266 79.176 79.109 79.363 81.999 82.221 82.35 80.515 79.568 80.134 79.219 79.226 79.186 80.169 79.286 81.776 78.906 78.554 78.434 78.446 78.484 78.666 78.846 79.326 79.189 83.839 85.779 85.991 84.739 81.994 79.649 79.734 79.709 79.934 79.814 79.846 79.996 80.416 80.989 81.246 81.419 81.526 81.644 81.771 81.889 81.999 82.119 82.206 82.314 82.386 82.419 82.504 82.704 84.369 85.769 85.289 84.554 82.699 82.121 81.991 81.666 78.559 77.224 77.301 77.311 77.416 77.501 77.561 77.629 77.694 78.011 77.989 77.919 77.841 77.876 77.879 77.866 77.891 77.874 77.916 77.964 80.694 81.841 82.456 82.986 83.294 83.711 84.041 84.436 84.871 85.216 85.594 86.021 86.351 86.566 86.836 87.219 88.499 89.529 90.789 90.294 87.596 88.951 89.431 89.994 91.669 90.476 94.546 90.869 89.479 88.169 88.234 88.261 88.434 88.431 88.356 89.034 90.626 90.934 95.256 99.144 96.486 88.756 88.711 88.759 89.049 89.656 90.404 90.914 94.891 97.501 95.479 93.971 91.881 88.889 88.896 88.931 88.961 89.014 88.994 88.981 88.981 88.944 88.984 89.009 88.896 88.779 88.781 88.811 88.801 88.814 88.889 88.871 88.961 89.254 89.091 88.821 88.796 88.721 88.691 88.731 88.816 88.756 88.834 88.731 88.779 89.366 88.759 88.586 88.676 88.631 88.571 88.654 88.776 88.731 88.729 88.881 88.811 88.769 88.719 89.129 88.629 88.674 88.694 88.581 88.561 88.471 88.404 88.314 88.259 88.241 88.051 88.689 91.404 88.159 88.026 87.889 87.931 87.946 88.106 88.314 89.216 88.356 88.456 88.681 88.629 88.736 88.846 88.984 88.954 89.029 89.126 92.041 92.704 92.079 91.084 92.504 91.361 93.294 96.629 96.526
78.189 77.659 78.886 82.869 83.214 83.551 83.714 82.044 76.866 77.596 76.841 76.313 77.179 76.276 76.276 76.226 76.453 77.021 77.361 77.549 80.294 84.339 85.209 84.149 81.684 81.016 79.224 77.849 76.623 76.834 75.803 75.748 75.701 80.789 80.559 76.041 75.396 74.801 75.013 75.681 75.851 74.486 74.339 74.959 75.311 74.569 79.479 82.194 82.754 82.404 81.346 79.826 76.944 74.476 73.633 73.211 73.076 73.126 73.218 73.216 73.228 73.328 73.833 73.823 73.876 74.368 73.941 78.391 76.926 75.548 78.513 81.833 81.148 77.838 75.618 74.951 75.458 75.968 76.083 76.093 76.128 76.163 76.173 77.401 78.108 79.091 79.646 77.466 78.103 79.078 79.841 79.786 79.511 78.368 78.263 78.253 78.283 78.286 78.336 78.393 78.736 79.028 79.133 79.856 81.248 82.066 82.066 82.071 82.068 81.728 79.393 80.106 82.178 80.956 82.018 80.541 83.168 84.281 83.476 80.511 80.061 80.058 80.191 81.736 80.528 80.603 80.726 81.878 81.148 80.446 80.296 80.356 81.598 82.051 80.948 81.781 82.306 81.578 80.318 80.251 81.423 84.768 86.766 87.843 88.191 87.191 86.071 82.143 80.571 81.298 80.993 80.741 81.136 81.503 80.904 80.716 81.291 81.036 80.756 80.764 80.776 80.939 81.021 80.926 80.769 80.706 81.584 80.806 81.224 81.854 80.749 80.746 80.826 80.901 80.691 80.766 80.951 81.169 80.854 81.199 80.814 80.691 80.404 80.259 80.466 85.259 88.034 87.47 86.193 83.263 80.141 79.579 79.642 79.634 79.58 79.538 79.725 79.304 79.193 79.134 79.13 79.119 79.129 79.109 79.079 79.083 79.048 78.968 78.932 78.986 81.237 82.194 82.782 80.901 81.299 79.325 79.219 79.726 79.644 79.764 81.384 81.741 78.614 78.521 78.356 78.374 78.406 78.541 78.684 79.016 80.336 84.926 85.906 85.096 81.419 79.776 80.294 79.691 79.569 79.646 79.731 79.854 80.229 80.791 81.099 81.279 81.411 81.526 81.619 81.724 81.831 81.946 82.046 82.139 82.236 82.304 82.384 82.644 82.866 86.159 84.854 85.136 83.771 82.824 81.681 80.889 78.289 77.149 77.191 77.254 77.329 77.411 77.474 77.541 77.661 77.961 77.879 77.851 77.791 77.761 77.809 77.816 77.766 77.769 77.811 78.139 81.036 81.934 82.079 82.919 83.194 83.666 84.534 84.436 85.026 86.214 85.806 86.004 86.266 86.466 86.969 87.301 87.929 87.641 87.349 88.139 88.221 87.914 89.451 89.139 89.671 93.056 93.616 94.971 93.591 89.044 88.109 88.224 88.264 88.296 88.324 88.624 90.046 92.666 91.006 93.711 96.689 95.256 88.616 88.704 88.849 89.774 91.041 89.601 91.961 91.859 98.694 99.549 98.014 88.866 88.824 88.911 88.921 88.994 88.944 88.966 88.946 88.924 88.899 88.896 88.944 88.934 88.834 88.709 88.719 88.736 88.816 88.806 88.809 88.859 90.911 93.074 88.724 88.714 88.729 88.656 88.589 88.521 88.601 88.759 88.931 90.336 92.224 90.759 88.586 88.576 88.501 88.464 88.604 88.524 88.584 88.531 88.601 88.646 88.586 88.536 88.751 89.469 88.744 91.154 90.491 89.119 89.031 88.246 88.209 88.081 88.091 87.981 87.829 88.476 87.909 87.799 87.754 87.821 87.849 88.121 89.301 92.156 91.506 88.456 88.811 88.554 88.671 88.801 88.886 88.906 89.079 89.051 89.664 90.701 90.946 91.716 91.126 90.321 95.641 96.924 93.061
