ncols 402
nrows 31
xllcorner    525046
yllcorner    186458
cellsize     2
NODATA_value -9999
103.725 103.495 102.073 95.38 75.77 73.1 72.998 73.015 75.01 75.235 76.495 75.038 74.97 74.938 74.973 74.98 74.888 74.875 74.905 75.015 75.163 75.65 75.823 75.608 75.533 75.238 75.138 75.01 74.892 74.782 74.84 75.952 76.107 76.76 77.427 77.837 77.187 77.235 79.425 80.017 79.405 79.585 78.667 78.535 78.415 78.685 78.927 78.787 78.797 78.897 78.992 79.027 79.397 79.555 79.582 81.265 79.772 79.945 80.047 81.21 81.945 83.147 81.99 81.907 81.945 81.975 81.94 84.58 89.865 91.26 91.495 91.512 91.327 89.402 85.31 84.26 86.707 89.177 84.772 83.787 83.715 84.355 86.03 91.162 95.32 95.717 91.852 93.38 92.565 97.627 99.002 95.845 98.847 96.682 96.077 94.562 94.985 97.035 98.352 101.492 104.81 98.08 98.9 98.74 100.182 103.627 103.845 101.265 103.515 109.175 107.327 103.985 110.712 105.907 99.707 103.585 101.637 103.022 103.505 101.377 105.517 104.237 99.8 100.44 98.122 99.312 106.852 107.577 109.762 110.192 110.182 109.597 110.164 109.384 109.554 110.529 110.277 109.992 109.602 108.547 107.504 105.527 98.149 98.352 98.407 98.237 96.517 96.379 96.819 100.889 102.537 100.557 100.109 99.994 100.149 99.769 99.197 99.194 99.184 99.209 99.399 99.764 102.019 102.499 101.094 100.674 99.784 99.709 99.627 99.937 100.267 103.742 104.884 104.502 106.482 105.272 106.699 100.942 100.464 100.917 101.287 101.859 101.377 101.062 104.334 105.539 104.877 107.564 106.952 102.724 101.462 104.282 105.752 106.202 104.722 111.544 109.859 108.037 105.309 103.804 105.269 103.592 102.174 102.107 102.877 105.387 102.274 100.914 100.674 102.674 105.334 107.482 106.744 105.964 104.427 104.672 103.249 103.697 103.934 110.467 104.459 106.984 106.794 101.272 101.189 101.229 101.234 101.219 102.089 104.571 104.224 103.094 101.961 106.629 109.851 109.979 110.644 107.144 102.246 100.891 100.794 100.684 100.464 100.656 101.451 101.264 103.039 107.271 105.236 103.151 100.346 103.466 103.324 103.114 103.906 104.851 107.691 105.381 100.549 100.051 100.154 100.001 99.979 99.986 103.046 102.986 105.744 105.499 103.091 104.264 104.864 105.509 104.061 105.034 107.284 106.391 105.694 106.899 108.369 110.106 106.584 104.266 105.619 111.319 107.731 106.519 113.921 110.791 103.619 105.351 103.761 109.609 110.301 106.976 105.634 106.084 104.274 106.346 110.436 114.571 108.544 109.261 105.934 110.974 109.461 104.589 104.019 103.964 108.054 106.301 115.256 113.714 115.371 108.104 107.599 107.871 107.116 107.136 109.556 104.071 112.519 104.224 102.834 102.416 107.534 102.939 103.149 102.034 102.671 116.981 109.924 116.744 107.864 108.136 106.086 102.669 101.216 101.301 100.294 101.469 109.201 102.044 100.461 104.649 103.456 107.421 102.836 106.864 109.444 103.831 108.099 107.039 106.046 108.464 105.799 100.876 108.416 119.284 115.489 101.544 107.511 109.466 116.804 111.694 112.696 120.744 124.124 114.659 104.876 105.156 104.036 104.829 111.194 104.914 103.854 107.721 108.946 109.921 108.449 107.914 104.076 104.114 104.166 104.314 108.961 112.379 108.694 114.781 118.731 109.981 104.836 104.056 105.619 110.359 104.121 108.966 106.166 104.131 107.869 106.434 106.499 106.044
104.343 103.155 100.705 82.215 72.928 72.963 72.865 72.88 75.168 75.29 76.348 75.078 74.973 75.013 75.07 75.008 74.993 74.978 74.955 75.048 75.11 75.178 75.32 75.718 75.99 76.22 76.108 76.23 76.03 75.842 75.797 76.977 76.255 77.252 77.752 78.002 77.682 77.61 78.68 79.222 77.615 77.68 78.095 78.402 78.695 78.465 78.467 78.602 78.697 78.78 78.855 79.012 82.242 82.672 84.342 82.977 84.757 80.357 80.1 80.195 81.365 80.535 82.752 82.025 82.23 81.485 83.082 85.855 89.35 90.317 91.527 91.367 90.95 85.395 83.597 86.74 90.61 91.112 90.055 85.027 83.857 84.82 89.44 93.672 94.89 95.747 95.452 94.067 91.765 94.3 92.877 97.952 97.822 97.082 93.805 94.39 94.815 95.397 99.232 100.015 99.207 96.872 96.882 97.04 100.067 104.465 105.165 98.58 104.037 103.77 102.39 100.58 108.86 104.577 101.715 107.23 101.907 98.895 103.155 105.295 105.18 104.9 98.332 98.032 97.462 97.28 101.355 106.959 108.264 109.867 109.244 108.429 109.334 110.092 109.162 110.249 109.879 109.324 108.279 107.247 103.127 98.624 96.869 98.947 96.612 96.344 96.867 96.102 97.119 101.637 102.469 103.732 105.682 102.599 100.874 102.589 99.974 99.224 99.207 99.192 99.192 99.212 100.384 100.784 99.512 99.424 99.544 99.657 99.542 99.629 99.657 102.047 102.517 103.542 103.682 101.684 104.479 100.282 100.877 102.717 103.597 103.557 102.594 102.064 105.572 106.922 107.709 111.432 107.282 101.472 101.444 101.472 101.832 103.329 109.427 104.709 105.424 106.837 106.832 103.524 106.099 104.339 102.124 102.472 105.544 103.224 101.972 101.084 101.897 103.279 102.212 103.602 104.787 103.909 103.752 102.369 103.237 102.447 103.164 105.287 106.984 105.299 106.362 101.712 101.404 101.274 101.264 101.256 102.844 104.466 104.559 106.541 101.599 107.191 109.421 110.089 110.894 110.751 110.031 103.524 100.991 100.876 100.766 101.256 101.224 101.029 103.101 107.309 106.844 104.774 100.334 101.139 102.506 103.371 102.394 101.641 102.011 101.121 100.896 100.049 100.146 100.096 100.054 103.401 103.439 104.679 103.561 108.521 104.129 102.439 102.831 104.149 102.101 105.819 104.924 104.746 103.076 103.266 104.071 108.489 107.129 103.599 107.059 104.159 107.484 104.171 106.594 107.979 104.876 103.804 108.714 111.426 106.251 111.164 110.921 112.509 106.439 112.129 110.804 113.399 109.616 106.559 105.626 106.826 104.269 112.601 106.799 107.916 116.541 107.529 107.064 109.089 109.691 106.834 107.836 106.456 108.059 112.181 107.216 109.974 109.134 109.911 102.924 104.546 106.216 107.809 109.199 105.146 101.904 111.569 103.071 102.219 109.729 104.451 101.671 100.781 102.701 100.836 106.229 103.021 106.069 108.151 108.149 102.189 106.536 99.436 99.331 108.876 106.879 104.379 104.296 101.241 106.576 111.741 104.566 102.116 103.389 107.414 108.026 103.424 101.701 102.881 106.529 110.086 105.201 108.299 108.316 109.131 102.749 107.306 103.276 112.364 112.654 105.529 103.421 104.709 104.374 107.089 107.216 104.631 104.356 104.484 105.014 104.584 107.124 109.466 107.181 106.226 110.949 109.669 107.006 107.509 106.874 104.761 112.699 106.324 106.114 109.754 109.511 110.071 109.144 110.336
104.35 102.358 95.41 74.793 72.753 72.74 72.748 72.95 75.835 75.813 76.545 75.145 75.03 75.148 75.08 75.1 75.04 75.048 75.09 75.188 75.22 75.268 75.305 75.913 75.613 75.573 75.675 76.03 76.445 76.705 77.16 76.675 76.292 76.572 77.092 76.922 76.877 77.035 77.195 77.505 77.78 77.665 78.7 78.045 78.097 78.272 78.517 78.892 78.555 78.702 78.835 78.982 82.13 83.127 83.805 84.147 84.637 81.64 81.182 80.64 80.375 80.465 81.262 80.757 81.005 82.245 83.15 83.257 84.695 87.73 90.125 89.902 85.812 83.605 86.865 89.68 91.687 91.965 91.877 90.115 86.53 84.86 87.91 89.917 97.702 95.532 94.705 92.772 91.537 92.542 95.135 98.107 93.847 92.445 93.087 93.727 94.55 95.845 97.367 99.75 96.035 96.442 96.747 96.922 98.07 102.205 107.73 104.627 106.892 106.842 102.69 105.582 99.9 100.555 103.202 111.157 107.065 101.025 101.887 102.332 102.06 102.57 97.452 97.697 97.46 97.157 97.142 103.324 107.237 108.582 108.009 107.487 107.892 109.562 110.272 110.404 109.692 108.497 107.312 102.437 97.807 97.607 97.327 96.339 96.214 97.639 99.347 97.177 96.079 99.137 102.827 106.239 107.922 106.947 106.122 106.972 106.774 102.354 100.664 99.252 99.184 99.189 99.224 99.309 99.324 99.354 99.644 99.467 100.279 100.067 99.619 100.949 103.202 104.807 100.344 100.017 100.054 100.432 101.939 104.214 106.679 105.802 104.879 105.197 105.719 109.422 107.607 106.069 105.697 101.279 101.377 101.517 101.587 101.737 103.154 104.439 105.539 104.904 103.819 106.174 106.292 102.892 102.382 104.769 104.884 103.074 101.929 101.559 101.854 102.352 102.487 102.214 102.662 104.307 102.542 101.697 101.582 101.987 103.822 107.867 108.697 107.227 105.224 102.444 101.744 101.507 101.284 101.259 101.984 107.099 105.171 103.701 102.384 106.274 108.474 108.769 110.259 111.039 110.514 107.991 103.794 101.341 100.961 100.876 100.744 100.699 101.661 107.034 107.634 105.956 101.771 100.671 103.636 104.136 101.309 103.386 106.661 105.789 103.816 100.254 100.211 100.174 101.514 103.504 102.199 107.221 106.596 104.354 103.719 101.489 103.401 101.606 102.214 107.426 110.631 102.764 103.056 103.874 107.214 104.674 107.281 104.964 105.786 105.154 107.639 105.101 106.706 112.239 105.489 108.781 113.916 110.354 108.301 106.806 112.191 109.266 104.479 111.969 108.744 108.011 109.111 111.089 106.604 104.484 108.921 105.769 107.566 110.461 105.661 109.394 106.934 108.486 110.019 109.301 108.429 105.719 114.674 107.659 107.726 108.734 112.161 104.636 103.511 106.736 103.066 107.576 110.781 108.914 106.834 109.271 109.421 104.266 102.456 113.066 109.016 106.404 109.039 116.274 111.079 107.239 107.606 101.489 103.484 99.834 106.009 101.234 99.164 99.334 106.906 104.969 102.789 108.631 100.704 104.881 106.756 104.841 105.649 116.034 111.771 109.986 101.879 107.294 111.936 109.724 105.414 106.339 105.451 110.016 109.321 111.904 108.291 109.909 103.459 104.301 103.446 103.591 103.789 105.424 107.249 107.844 105.049 104.991 105.224 104.904 105.364 110.374 109.534 106.236 107.661 112.449 111.549 105.386 104.484 109.926 109.521 107.296 109.406 107.654 109.949 108.849 111.486 111.304
103.868 102.333 91.615 72.543 72.623 72.67 72.708 73.718 78.365 77.16 75.638 75.2 75.198 75.163 75.16 75.155 75.08 75.098 75.17 75.265 75.325 75.395 75.448 75.705 75.663 76.085 76.598 76.092 75.852 75.98 76.095 76.175 76.245 76.317 76.437 76.612 77.262 77.447 77.177 77.77 77.935 77.692 77.8 77.942 78.085 78.312 78.92 78.747 78.552 78.665 78.717 79.08 80.017 84.045 84.007 83.302 81.515 82.225 81.6 81.145 80.54 80.512 80.592 80.712 80.967 81.92 82.375 82.742 83.317 83.325 85.902 88.135 85.102 84.31 90.692 91.832 91.992 91.997 92.017 91.335 90.02 86.865 87.377 92.652 92.84 94.717 96.372 93.607 90.677 96.15 92.932 94.265 91.727 91.872 93.105 94.617 94.337 95.69 96.597 95.99 96.35 96.28 96.587 96.77 97.01 102.167 101.807 99.602 105.395 109.592 101.397 102.317 106.065 107.575 105.065 110.12 101.735 103.565 98.825 108.595 100.357 99.982 97.585 97.295 97.367 97.315 97.19 97.749 104.482 107.487 106.429 104.402 107.317 108.622 109.777 110.052 109.152 108.059 106.082 100.494 97.277 96.689 95.599 95.862 96.772 99.757 100.992 100.267 98.104 96.184 102.232 108.072 108.617 108.574 108.012 108.204 107.119 104.519 102.664 100.999 99.227 99.212 99.217 99.227 99.264 99.439 99.617 99.387 101.769 104.859 106.214 106.984 104.177 101.722 99.807 99.884 100.029 101.589 104.794 106.539 106.429 103.694 103.714 105.392 109.047 111.967 104.429 101.259 103.397 101.549 101.462 101.494 101.549 101.679 101.767 101.862 101.862 102.797 102.649 102.447 102.524 102.119 104.089 106.109 102.814 102.289 101.822 101.994 101.904 101.947 102.602 102.419 102.884 102.867 101.924 101.774 101.779 102.592 107.052 107.757 108.639 108.919 108.227 105.822 102.864 101.814 101.559 101.581 101.821 101.781 103.664 103.924 105.664 105.354 105.826 106.689 105.794 106.534 110.914 111.229 109.861 103.971 102.956 101.026 100.899 100.831 101.294 104.444 106.594 106.131 101.296 100.534 101.799 104.204 103.536 103.474 105.266 107.781 103.586 104.019 101.259 100.284 104.176 101.281 103.174 104.704 103.751 104.499 102.354 102.324 102.206 103.559 104.824 107.799 109.129 104.159 106.521 106.701 106.086 104.681 111.824 111.316 103.531 104.541 107.651 108.441 110.639 114.224 106.364 105.076 113.666 111.966 106.691 122.474 109.884 108.406 104.579 111.579 108.121 111.764 112.976 109.476 108.231 114.306 112.604 111.266 111.556 117.359 109.376 124.024 112.796 110.364 110.076 113.106 113.734 103.989 115.431 106.166 107.396 109.934 106.291 103.724 105.956 108.714 107.309 109.511 117.424 116.974 109.001 111.209 103.714 110.161 108.089 104.744 107.229 112.689 112.414 110.861 109.811 109.174 105.604 108.826 102.526 105.929 106.201 99.351 99.299 99.351 100.444 102.339 103.106 100.804 100.756 100.939 103.654 105.169 113.186 108.086 110.211 109.781 108.946 107.301 104.871 105.416 103.276 104.881 108.619 109.739 109.091 112.804 105.179 103.421 104.741 105.194 103.616 103.751 104.256 107.949 108.814 109.564 109.316 106.146 104.964 104.824 106.856 110.591 106.046 110.381 111.709 106.714 108.244 109.536 107.341 111.254 113.876 104.706 105.724 111.404 113.871 115.044 110.246 109.919
103.12 99.695 85.62 72.518 72.598 72.653 72.915 74.135 75.805 76.065 75.615 75.26 75.233 75.215 75.24 75.203 75.148 75.11 75.168 75.23 75.315 75.408 75.488 75.568 75.668 75.708 75.908 75.935 75.94 76.015 76.067 76.155 76.277 76.417 76.56 76.77 77.37 77.255 77.237 77.37 77.507 77.652 77.985 79.145 79.782 78.932 78.177 78.352 78.82 79.725 80.73 79.975 81.25 82.607 83.257 84.582 83.98 81.985 81.545 80.395 80.462 80.562 80.65 80.737 80.91 81.185 81.567 82.095 81.907 82.13 83.247 84.182 84.352 88.845 91.482 91.975 91.987 92.032 91.827 90.64 87.83 87.362 87.492 90.565 92.05 96.61 89.525 96.842 96.302 95.385 94.075 89.832 90.052 91.255 92.26 93.057 94.715 95.735 99.855 96.985 98.735 97.155 96.327 96.525 96.747 97.52 101.567 98.572 100.44 101.115 104.785 102.3 98.892 100.265 103.497 102.4 104.38 104.515 102.157 104.895 99.312 97.202 97.182 97.142 97.182 97.505 97.17 97.697 100.629 103.402 100.942 101.014 104.642 108.144 108.932 108.857 107.864 105.622 99.804 97.172 96.387 95.389 95.322 95.392 96.509 99.772 101.112 101.144 99.704 98.807 107.057 108.527 108.587 108.619 108.677 108.707 108.402 107.039 105.284 104.942 101.474 99.209 99.209 99.222 99.234 99.509 99.307 102.417 104.064 105.567 103.764 103.127 101.189 99.654 99.704 99.802 100.322 101.552 103.177 104.872 104.644 103.027 102.632 104.174 107.767 108.619 105.899 101.199 101.692 101.529 101.907 101.707 101.654 101.637 101.719 101.827 101.897 101.984 102.102 102.014 102.034 102.082 103.107 103.737 102.687 102.329 102.147 102.122 103.149 102.217 103.294 104.607 103.697 104.182 102.939 102.929 102.984 105.484 108.427 108.692 107.752 108.552 109.434 108.469 106.899 104.062 102.457 101.751 101.816 101.736 102.501 111.269 106.074 101.446 101.191 101.666 101.329 101.221 105.284 110.534 111.009 108.944 106.229 101.644 101.071 100.986 101.731 108.036 109.141 111.059 102.896 106.529 103.549 100.164 103.679 101.979 103.786 103.301 106.354 104.291 100.841 100.376 104.654 102.401 108.291 104.486 108.116 104.811 101.381 101.456 102.964 105.456 108.161 102.944 106.716 106.194 108.794 105.259 104.099 104.979 105.794 105.481 107.916 104.279 105.436 105.814 109.699 106.906 104.159 104.314 109.414 114.291 111.576 114.224 109.711 107.511 105.601 109.281 111.001 114.106 110.004 116.801 105.489 112.614 111.109 111.954 107.846 116.616 110.976 119.766 114.404 106.916 110.659 110.354 109.589 108.466 109.416 104.526 106.314 110.111 107.394 103.009 108.599 107.101 107.359 113.394 113.349 111.551 107.809 110.181 109.619 102.861 103.356 103.216 109.546 102.071 110.809 103.431 104.239 104.209 102.894 103.589 103.326 113.214 104.711 108.756 103.399 99.506 101.731 102.959 103.551 103.721 102.186 101.034 104.864 108.846 114.594 112.541 109.709 103.301 107.616 116.151 114.986 102.554 103.361 106.494 109.709 111.526 107.386 109.224 107.279 111.159 107.936 113.416 106.111 104.011 104.179 106.784 110.601 111.511 108.694 109.499 105.316 105.109 105.039 106.651 106.851 108.199 107.379 108.949 105.309 110.099 106.041 106.464 107.399 104.869 107.859 110.689 109.149 109.736 111.154 109.346
103.5 96.888 76.7 72.635 72.593 72.663 72.76 74.488 75.455 76.8 75.46 75.348 75.373 75.363 75.323 75.243 75.255 75.315 75.32 75.368 75.388 75.428 75.56 76.583 76.098 75.803 75.873 75.952 76.03 76.065 76.21 76.317 76.437 76.52 76.65 76.81 76.93 77.08 77.165 77.317 77.815 78.51 78.085 78.592 77.945 78.15 78.645 78.762 78.44 81.027 80.867 80.72 80.52 80.937 82.422 84.32 84.86 82.142 81.01 81.252 80.545 80.585 80.73 80.877 80.922 81.082 81.23 81.392 82.165 81.512 82.512 83.205 88.142 90.685 91.845 91.992 92.045 91.955 90.802 88.067 87.167 90.027 88.812 89.042 89.225 95.852 93.92 93.187 93.75 95.795 91.625 89.56 89.855 90.42 91.21 93.857 98.997 100.57 103.195 97.48 95.132 97.082 96.115 96.225 96.495 98.98 104.19 99.49 101.797 102.045 104.552 99.527 102.177 106.507 100.747 100.267 104.617 101.807 101.632 99.867 97.042 97.065 97.082 97.085 97.162 98.057 97.547 99.434 97.772 97.569 100.367 100.702 100.704 103.997 107.649 107.624 103.967 98.187 96.742 95.744 95.272 95.162 95.192 95.307 95.542 95.504 98.479 100.092 97.509 105.707 107.934 108.592 108.932 109.014 108.709 108.702 108.679 108.642 107.929 107.422 107.264 102.024 99.249 99.222 99.307 99.239 99.092 99.889 105.624 104.804 108.229 107.212 100.509 100.469 99.577 99.787 101.007 104.499 105.782 104.454 107.317 105.932 108.677 103.732 107.984 104.244 103.279 101.437 101.854 101.792 101.747 101.817 101.824 102.012 101.757 101.794 101.904 101.989 102.082 102.142 102.179 102.124 102.192 102.322 102.717 102.634 102.542 103.149 102.442 102.329 103.729 105.969 105.872 102.184 103.289 106.704 106.819 107.184 108.984 108.857 108.832 107.877 108.069 108.979 108.617 106.894 104.604 101.841 101.811 102.364 104.481 105.449 103.694 102.944 101.649 101.886 101.234 101.231 101.394 105.504 111.141 111.284 110.216 104.976 101.179 102.411 106.591 109.656 106.111 113.234 111.774 103.229 104.939 101.379 100.811 100.246 100.781 104.249 102.494 101.276 100.449 100.466 102.936 106.804 111.596 105.271 105.734 101.594 105.731 103.781 104.084 104.926 104.779 107.544 107.654 105.056 103.821 106.369 106.889 105.339 105.051 106.536 106.314 105.754 105.284 104.229 106.236 106.704 110.869 108.939 113.074 117.504 110.774 107.311 108.954 111.531 105.359 116.631 110.041 108.861 110.621 113.059 109.256 105.844 114.974 113.351 113.366 110.361 106.864 112.841 106.796 104.299 111.264 108.499 109.499 106.631 105.371 109.146 114.216 107.644 109.994 104.186 104.816 103.029 105.786 102.621 104.689 103.636 103.526 104.984 110.599 109.239 104.486 107.519 107.529 103.799 102.441 106.344 113.034 111.484 106.529 102.759 107.189 108.586 105.984 106.034 105.889 104.091 100.919 103.571 102.099 102.786 102.864 101.469 103.574 104.539 101.904 108.374 110.591 115.369 105.744 106.666 108.501 105.696 104.929 103.799 104.384 110.491 107.486 107.831 105.071 106.551 108.821 113.386 106.456 104.709 107.364 111.561 113.496 111.094 112.656 109.874 106.106 105.464 108.134 109.989 109.959 107.094 105.749 106.181 105.076 105.269 105.261 105.394 106.479 110.074 114.426 107.686 108.189 107.829 113.381 107.566
103.443 97.735 78.293 74.465 72.898 72.843 73.98 74.88 75.795 76.9 75.548 75.455 75.488 75.463 75.443 75.38 75.39 75.45 75.82 77.155 75.988 75.66 75.6 75.648 75.73 76 76.663 76.037 76.705 76.417 76.45 76.375 76.412 76.532 76.652 76.705 76.872 77.682 78.225 77.33 77.48 77.567 77.62 78.302 78.772 78.967 79.3 82.897 82.287 82.005 80.785 80.625 81.07 81.422 81.875 83.557 84.37 80.367 80.76 81.11 80.812 80.76 80.857 81.387 81.097 81.09 81.195 81.555 81.755 81.555 82.282 83.55 86.2 88.845 91.412 91.987 91.965 90.992 89.067 87.81 91.405 90.64 88.312 85.62 87.81 92.742 93.137 95.77 96.117 91.602 88.192 88.605 89.875 89.797 91.952 96.952 97.662 96.952 98.2 95.08 94.727 96.845 99.617 95.92 98.085 97.617 98.617 96.987 98.365 102.112 109.34 104.005 99.63 101.557 103.457 101.755 101.835 105.257 103.445 102.14 99.162 96.995 97 97.015 97.367 99.847 105.122 101.147 97.124 97.464 98.892 100.942 100.689 100.769 104.992 102.652 96.739 97.712 95.744 95.052 95.019 95.617 96.024 94.949 95.122 95.437 95.487 96.309 95.512 99.337 105.944 107.977 108.889 108.702 108.714 108.747 108.342 108.637 108.637 108.462 106.917 104.164 100.437 99.229 99.509 98.892 98.964 100.752 107.159 108.239 104.182 102.804 101.794 100.974 99.607 102.072 101.437 103.777 102.689 106.272 104.704 106.307 107.807 107.882 106.327 102.942 100.679 102.664 102.697 101.849 101.719 101.704 102.112 102.339 102.042 101.944 101.917 101.999 102.039 102.162 102.237 102.312 102.302 102.352 102.367 102.449 102.782 103.779 104.164 106.152 107.929 108.934 107.182 106.027 103.054 107.527 107.787 108.599 108.942 107.659 108.259 108.927 108.082 107.927 109.274 108.917 107.337 104.231 102.784 102.271 103.816 102.419 102.456 103.194 103.759 103.471 101.471 101.256 101.259 101.594 106.689 110.694 110.679 104.994 101.251 105.404 107.191 109.299 108.159 105.679 108.056 107.516 101.441 102.049 100.636 100.326 100.534 100.549 100.579 100.589 100.559 101.129 101.426 102.099 103.291 106.861 108.239 104.901 108.894 106.281 104.136 106.786 104.574 106.306 107.844 108.561 103.081 107.611 106.691 107.799 107.011 107.369 108.159 108.546 106.694 109.609 112.006 108.329 107.426 109.921 115.459 110.764 111.971 110.744 109.114 107.349 104.974 115.319 113.489 117.246 109.706 107.411 117.744 104.736 117.624 114.804 109.861 113.074 116.096 105.919 106.309 116.331 113.869 109.559 111.809 105.301 106.834 111.556 118.689 111.764 107.214 103.419 104.616 108.421 109.576 106.709 106.436 109.386 108.604 108.511 112.836 105.649 104.939 103.504 108.906 112.576 113.649 105.701 110.159 110.019 101.651 102.929 112.409 104.221 103.444 106.159 106.626 100.404 104.334 104.884 105.939 104.696 110.779 107.034 105.841 101.566 104.439 112.911 113.114 110.906 106.414 108.229 107.071 107.969 104.221 105.271 104.059 103.894 104.244 108.244 103.861 103.719 106.146 106.529 104.839 106.989 111.596 107.469 106.604 107.291 108.349 109.589 108.334 106.321 105.189 106.701 111.609 106.169 105.436 105.246 105.176 105.141 105.136 105.154 108.156 107.354 108.699 105.106 109.089 105.286 108.369 108.071
102.19 98.623 79.133 75.598 74.648 73.748 73.993 75.375 76.77 76.453 75.565 75.573 75.543 75.5 75.475 75.433 75.538 77.535 77.88 80.388 77.793 77.995 76.265 76.33 76.013 75.913 75.893 75.937 76.13 76.3 76.9 77.48 76.415 76.45 76.555 76.687 76.85 77.022 77.125 77.282 77.542 78.065 79.857 78.91 80.115 78.502 84.337 88.967 85.637 80.6 81.28 80.625 84.622 87.612 84.002 81.84 81.625 80.362 80.952 81.135 81.33 81.007 81.025 81.457 82.267 81.317 81.287 81.342 81.507 81.785 82.265 81.457 82.935 86.032 88.307 90.497 90.99 88.615 86.537 91.737 92.277 91.51 90.772 88.687 85.725 91.027 92.645 96.122 94.47 90.032 88.03 88.077 91.757 91.682 91.392 94.2 97.49 93.255 92.92 95.787 98.395 96.867 100.292 96.47 98.222 99.052 96.62 96.597 96.29 98.87 109.8 105.877 104.45 99.457 101.282 97.86 104.702 103.847 104.447 102.507 101.45 97.37 96.967 98.337 98.157 99.717 101.567 99.657 97.454 98.054 97.579 98.924 101.074 100.017 97.609 96.987 97.297 95.424 94.972 94.932 97.772 95.752 95.327 94.712 94.724 94.867 95.214 95.514 95.527 95.504 96.457 104.589 107.439 108.229 108.687 108.857 108.674 108.624 108.624 107.982 106.784 105.212 104.832 102.127 98.977 98.834 98.747 100.307 103.314 109.847 105.894 103.094 101.139 105.007 102.202 103.332 103.082 101.919 105.319 103.794 105.194 106.982 105.139 105.577 107.962 102.114 101.067 102.852 102.824 102.277 102.037 102.454 102.692 101.984 101.994 102.029 102.107 102.242 102.102 102.137 102.204 102.314 102.384 102.432 102.489 102.477 102.564 102.747 105.932 105.512 108.009 110.047 108.302 110.729 107.739 109.097 105.149 106.607 108.274 105.317 106.084 108.132 109.014 108.367 107.979 109.097 109.102 107.971 105.309 103.181 103.181 103.016 102.439 102.464 103.409 103.191 102.369 101.871 101.526 101.296 102.664 105.496 105.544 103.104 101.839 105.021 108.236 107.361 109.216 110.256 106.706 105.374 106.809 102.774 102.944 100.854 100.509 100.661 100.634 100.676 101.409 105.069 104.166 101.811 101.596 105.136 106.481 105.991 102.989 104.334 103.831 103.536 103.059 110.529 111.219 109.424 105.921 103.421 103.646 110.889 106.441 109.531 108.844 107.059 109.374 107.786 116.184 111.544 108.834 111.891 112.779 112.794 105.249 105.176 106.736 107.609 109.831 109.049 113.126 108.949 105.029 108.139 104.991 105.734 111.329 105.654 109.359 112.884 108.426 106.174 111.796 118.949 119.111 114.556 116.166 111.676 109.856 116.594 112.586 106.901 113.571 106.746 106.634 104.154 106.399 108.859 107.989 110.171 115.771 108.691 109.659 101.769 105.464 107.284 108.361 110.624 108.219 107.596 105.634 112.151 108.841 102.786 100.781 101.464 101.151 109.774 108.516 104.836 104.784 101.836 108.129 104.841 105.351 108.076 107.806 102.616 106.971 115.654 113.611 105.564 112.699 110.406 106.019 104.294 103.816 105.811 104.936 105.704 106.634 105.859 106.394 105.381 105.506 109.181 111.029 111.119 112.739 112.864 109.326 111.026 109.914 107.056 109.444 107.274 105.219 108.829 112.594 108.644 105.546 105.371 105.324 107.371 105.279 105.196 108.129 108.224 109.841 107.681 105.371 104.934 105.941 106.316
101.98 99.698 80.09 76.098 75.37 75.283 75.278 75.5 77.09 75.898 75.655 75.655 75.643 75.56 75.583 75.583 75.663 77.065 77.838 79.78 79.96 78.518 76.078 76.308 77.833 82.078 79.86 76.292 76.102 76.18 76.257 76.297 76.36 76.435 76.525 76.732 77.377 77.955 77.855 77.945 77.492 80.19 80.995 80.627 79.3 78.435 85.622 90.245 86.86 80.972 80.232 84.012 87.372 88.565 88.637 87.51 83.56 81.68 80.947 81.275 81.2 81.325 81.317 81.407 81.315 81.27 81.355 81.42 81.51 81.67 82.232 82.657 83.35 85.307 84.107 85.99 89.105 85.36 90.047 90.927 91.637 92.05 91.665 90.9 90.552 90.422 93.152 93.215 92.892 88.927 87.287 89.755 92.775 90.675 89.937 93.05 99.325 94.242 92.642 97.105 96.985 104.212 98.135 104.085 99.077 97.72 98.657 97.26 96.207 96.107 105.207 103.835 100.397 102.837 103.435 104.175 100.44 99.367 103.045 100.812 98.505 97.89 100.075 101.627 100.192 99.405 97.312 97.089 97.439 98.314 97.977 98.834 99.599 96.104 96.512 97.654 95.479 94.877 94.824 94.859 96.239 95.412 94.674 94.684 94.702 94.727 94.854 95.229 95.482 95.507 95.739 102.254 106.047 106.577 107.782 108.532 108.652 108.614 108.434 106.742 105.312 105.137 105.199 103.859 98.499 99.999 98.662 99.212 106.712 109.604 105.519 104.622 103.132 102.424 103.269 103.864 103.522 102.767 103.027 105.722 105.919 109.992 105.582 104.284 104.822 101.057 101.392 102.947 103.572 103.164 102.584 102.879 102.407 102.004 101.957 101.999 102.037 102.132 102.474 102.422 102.272 102.324 102.429 102.557 102.634 102.602 102.599 102.667 106.119 108.597 107.699 109.942 105.339 103.407 109.169 110.019 106.357 102.294 103.399 102.309 102.919 105.259 107.647 108.934 108.942 108.882 108.537 108.866 107.336 103.404 104.969 104.156 103.869 106.334 105.654 102.724 102.769 102.709 101.539 102.764 101.769 103.269 105.051 106.721 109.266 105.276 108.756 107.394 110.174 106.459 103.529 103.051 107.021 105.009 101.841 101.109 104.479 105.916 106.484 101.246 100.941 107.539 105.894 101.251 102.331 104.291 109.579 106.104 106.534 102.884 102.401 104.074 102.756 106.096 107.631 108.789 104.304 103.671 104.639 110.864 107.441 106.969 108.941 108.929 107.211 104.944 108.214 113.794 107.941 109.476 109.629 105.259 105.326 110.664 105.226 115.481 109.666 105.184 115.299 115.891 106.056 111.019 117.249 105.264 104.924 110.626 111.516 114.086 112.356 111.554 105.444 110.819 108.556 120.324 113.641 105.326 110.531 106.261 112.816 111.774 107.226 107.429 104.234 105.714 105.676 107.884 105.609 109.739 109.404 115.051 112.476 104.396 106.329 107.776 109.316 112.436 109.889 108.449 111.084 102.291 102.306 103.294 103.866 105.124 104.179 104.251 111.259 107.459 101.904 105.719 109.759 110.566 114.991 108.436 114.406 113.686 112.519 108.834 104.574 103.391 106.561 108.104 105.059 110.589 109.561 108.914 110.869 107.934 105.399 104.286 105.021 103.999 104.209 104.621 109.199 105.954 107.121 107.964 112.396 110.511 108.206 105.634 110.674 111.501 107.644 107.229 111.474 108.996 105.914 106.111 105.976 111.361 106.789 109.639 106.101 108.491 110.579 109.634 107.206 108.781 109.821 110.119
101.748 100.888 81.088 75.21 75.48 75.338 75.303 75.668 77.813 76.143 75.718 75.768 75.733 75.668 75.678 75.683 75.745 76.35 80.08 79.343 78.508 80.76 76.635 76.425 81.028 90.89 89.505 81.78 76.497 77.832 76.557 76.407 76.802 76.395 78.09 80.74 79.147 79.332 77.457 77.012 77.107 77.655 79.162 81.065 80.59 78.415 84.61 89.472 85.572 80.302 81.822 86.885 88.525 88.637 88.572 87.85 84.257 81.93 81.692 80.405 81.54 81.445 82.395 82.89 81.417 81.377 81.432 81.547 81.627 81.68 81.825 82.097 82.722 83.152 83.725 83.552 83.84 86.865 87.082 89.452 90.792 91.557 91.842 91.817 90.555 94.862 94.765 93.957 91.787 87.13 87.5 89.247 93.252 92.285 89.722 89.435 92.447 94.017 93.32 100.49 99.35 100.822 99.917 100.085 103.54 95.18 95.107 95.692 95.915 98.207 103.467 99.53 98.115 102.785 105.507 101.177 99.57 106.895 104.287 103.167 97.055 97.285 97.435 101.902 99.462 96.515 96.65 97.032 97.149 97.769 97.564 96.552 98.019 97.444 97.449 95.332 94.784 94.769 95.157 94.747 94.664 94.634 94.619 94.637 94.649 94.692 94.707 94.747 94.907 95.442 95.707 95.457 99.134 101.774 102.469 106.547 108.049 108.617 107.362 105.592 105.094 105.102 104.594 98.977 98.117 98.227 98.359 98.517 100.129 104.384 105.817 103.242 109.272 103.539 102.739 103.399 103.167 101.302 104.799 104.667 107.092 107.622 103.784 105.682 103.832 103.787 103.519 104.097 104.367 103.667 102.852 102.819 102.584 102.227 101.949 101.952 101.967 102.464 103.279 109.242 108.974 102.469 102.422 102.537 102.622 102.702 102.757 102.719 103.769 108.322 108.379 103.237 103.714 104.119 104.709 105.432 103.364 102.439 102.322 102.177 102.067 102.199 103.972 108.849 109.119 108.879 107.882 107.544 103.731 104.234 106.094 104.931 106.779 108.536 106.601 102.336 103.644 104.339 102.664 103.869 104.249 103.536 105.706 105.996 111.534 109.856 110.011 111.381 111.269 108.944 105.109 103.809 105.766 105.751 102.596 101.736 106.126 102.569 103.234 101.394 101.684 101.561 101.944 101.359 103.009 107.279 105.251 110.671 105.231 108.311 106.029 104.379 109.296 106.644 104.599 107.534 105.771 104.159 106.791 111.009 106.811 107.729 108.381 110.561 108.489 105.304 111.986 110.586 112.246 110.394 115.099 112.824 110.891 115.691 110.464 110.881 111.046 111.554 107.574 114.894 108.654 107.336 105.424 107.394 106.509 109.334 106.406 108.941 111.526 104.834 111.059 109.974 112.644 114.246 113.741 111.106 110.316 108.804 109.526 108.306 104.571 106.199 106.994 106.569 106.136 105.199 110.034 106.311 111.364 115.371 108.931 106.129 116.104 111.396 108.299 112.751 106.626 103.971 101.629 100.939 100.716 107.336 103.099 106.971 106.331 105.559 104.096 104.149 101.601 102.231 105.321 101.971 103.666 109.244 112.824 109.291 111.694 109.944 104.309 104.659 106.516 109.616 107.526 108.126 108.611 104.574 107.164 106.004 108.276 110.551 105.984 106.249 104.236 104.371 104.566 110.069 107.914 107.569 113.109 108.821 108.211 108.354 111.486 112.751 109.989 112.279 111.124 112.839 108.589 105.819 109.344 111.906 110.726 112.721 110.671 111.591 111.321 110.771 107.949 108.986 106.851 108.629
82.895 83.653 79.373 75.343 75.403 75.563 75.595 76.395 77.435 75.888 75.825 75.84 75.848 75.815 75.77 75.803 75.855 76.73 79.898 80.598 78.07 79.513 76.365 78.768 89.688 91.793 91.403 90.542 80.385 79.755 79.675 77.032 76.345 76.355 78.285 79.702 80.932 78.645 76.65 76.505 76.707 77.847 79.845 79.545 79.452 79.78 89.287 87.957 81.67 79.96 82.252 88.467 88.627 88.602 88.09 86.085 82.57 86.322 85.372 82.745 83.622 82.8 82.862 81.622 81.447 81.507 81.565 81.617 81.747 81.832 81.862 81.997 82.55 83.352 83.762 83.555 82.72 84.85 86.825 85.78 88.05 88.962 89.95 90.28 93.81 94.87 95.39 94.942 94.1 92.592 87.817 89.285 88.865 89.195 89.11 89.542 91.95 96.337 96.58 96.552 99.847 100.235 99.44 100.21 98.63 94.395 94.472 95.3 95.682 97.465 101.775 104.205 103.88 100.377 100.065 105.41 101.905 105.505 107.092 106.015 97.125 96.32 96.365 96.42 96.455 96.46 96.492 96.759 97.007 96.644 96.809 97.687 98.369 98.482 95.954 94.717 95.347 97.879 94.659 94.629 94.604 94.592 94.592 94.597 94.604 94.654 94.664 94.702 94.779 95.449 95.524 95.612 97.704 99.329 99.334 104.257 107.102 107.424 105.994 105.109 105.064 105.184 101.587 97.744 97.852 97.984 98.112 99.704 99.507 98.369 99.602 101.332 104.134 105.772 109.069 103.522 104.312 105.292 106.097 104.654 103.452 102.842 102.702 103.447 103.654 103.867 104.147 104.214 103.904 103.617 103.654 102.837 102.329 101.717 101.814 102.014 102.084 104.454 108.104 106.399 110.757 106.344 102.537 102.522 102.599 103.177 103.657 102.817 102.874 106.759 104.809 103.617 104.332 105.767 105.889 105.644 102.702 102.592 102.479 102.524 102.362 102.082 102.099 104.644 107.304 108.409 108.104 104.254 101.859 102.824 110.801 110.051 110.884 105.126 104.281 102.874 103.306 104.994 104.771 106.306 106.476 105.199 106.446 104.639 103.671 104.121 105.761 107.271 110.214 112.339 107.171 105.621 101.914 102.659 105.734 102.696 107.186 109.846 107.059 108.579 107.171 105.189 103.019 106.966 105.396 106.564 106.114 104.959 104.956 108.224 109.924 108.201 106.589 108.001 103.584 108.599 105.774 105.534 107.071 105.221 109.681 108.976 107.729 109.224 115.354 112.801 112.964 107.421 107.436 111.001 112.511 117.351 115.229 112.689 106.321 109.569 112.809 114.059 108.471 110.421 109.991 113.461 107.914 112.471 118.141 116.186 110.831 110.481 107.466 111.741 106.661 110.711 115.346 111.091 115.284 112.821 115.864 111.566 108.226 112.351 106.749 105.856 104.724 112.056 105.076 106.704 108.581 106.566 116.189 116.746 105.799 105.219 109.251 105.034 108.316 104.044 102.279 103.829 102.814 102.951 101.826 101.674 108.604 105.399 103.061 102.614 106.021 107.931 104.931 106.651 101.311 109.806 111.571 113.486 112.426 109.651 107.171 103.746 107.046 108.671 109.451 110.651 106.351 109.424 108.764 107.451 104.029 108.756 110.699 106.396 107.946 106.511 104.344 104.536 105.426 105.899 108.624 105.856 110.221 109.374 107.754 109.324 111.028 113.176 109.286 109.351 110.001 110.616 107.861 108.916 109.784 108.563 107.286 109.021 107.804 111.106 113.084 110.751 110.358 111.111 111.826 108.561
75.405 77.763 79.73 79.028 76.06 75.63 75.675 76.793 77.32 75.97 75.92 75.94 75.908 75.89 75.875 75.933 75.963 79.013 77.808 81.18 79.745 77.358 76.203 88.41 93.845 93.108 91.47 88.21 79.837 78.335 79.2 77.537 76.23 76.295 76.952 80.335 78.525 76.317 76.272 76.227 76.477 76.9 78.932 79.022 79.092 84.232 88.162 87.232 80.867 79.072 80.01 83.185 87.95 88.252 86.537 83.095 86.635 88.77 86.752 83.047 85.055 83.422 81.91 81.542 81.55 81.94 82.36 81.82 81.81 81.865 81.965 82.05 82.172 82.302 83.305 82.732 82.335 83.167 84.62 84.422 87.165 87.167 87.062 89.115 92.42 93.915 94.782 95.377 95.05 94.247 91.252 88.057 87.457 88.487 88.872 89.1 90.337 96.305 95.735 93.852 94.052 97.967 97.82 96.512 94.127 94.275 94.405 95.06 95.412 96.575 99.092 105.01 101.482 102.127 99.982 103.707 103.835 102.915 108.145 104.827 99.562 98.26 96.307 96.38 96.392 98.417 97.522 98.954 97.104 98.122 99.142 100.412 98.722 95.769 94.654 94.627 94.807 95.509 94.592 94.569 94.572 94.559 94.539 94.582 94.594 94.607 94.612 94.654 94.682 95.302 95.802 95.607 95.527 97.174 98.934 97.052 104.382 105.439 105.429 105.084 105.122 102.912 97.232 97.354 97.564 97.684 97.949 100.044 98.364 98.992 98.262 99.802 101.582 105.332 102.154 106.054 102.682 106.439 105.149 104.349 102.572 103.827 103.139 106.382 105.947 105.047 104.419 105.099 103.734 103.632 104.124 102.729 101.507 101.532 102.212 102.289 102.597 106.382 105.354 108.502 106.102 102.509 102.577 103.222 102.697 105.457 106.944 104.062 103.009 104.094 103.409 106.244 105.402 104.757 105.977 104.804 102.892 102.767 102.632 102.724 103.592 102.972 102.189 103.044 104.969 106.074 105.409 105.441 103.434 111.061 112.094 114.824 115.186 112.089 104.194 102.356 102.361 102.479 103.011 108.141 105.456 108.076 104.781 102.931 102.921 104.431 108.119 109.641 111.431 108.974 111.669 108.539 106.299 103.759 106.046 104.374 108.449 106.931 104.166 103.249 102.871 111.374 113.221 110.334 103.369 105.826 105.569 106.639 106.551 104.506 109.686 110.856 109.319 106.374 103.519 106.176 106.341 106.569 106.634 107.604 110.681 109.176 110.316 108.499 115.641 109.769 109.851 109.569 110.756 113.871 112.586 111.866 113.819 117.034 112.431 109.076 113.894 111.616 111.681 105.811 107.974 121.849 108.971 114.034 112.991 108.569 110.731 110.179 115.624 116.074 111.781 109.486 111.781 113.879 108.284 105.271 107.681 107.416 109.394 112.704 113.544 111.794 105.159 108.869 104.526 104.886 108.109 105.034 105.876 111.041 107.506 108.474 112.724 110.631 107.516 111.989 101.539 103.029 101.891 106.204 104.076 100.841 100.854 100.939 101.189 101.109 102.514 113.446 110.196 101.879 103.821 101.536 109.289 115.744 112.354 113.809 107.446 110.244 103.754 108.196 106.219 106.276 104.671 107.506 104.249 105.091 107.019 111.104 109.319 107.861 109.139 108.641 104.441 104.521 105.106 107.164 105.109 109.444 108.596 106.589 108.806 109.471 111.163 111.339 108.131 107.081 110.659 110.401 110.258 109.493 109.424 108.681 108.531 109.243 110.258 108.389 112.324 111.709 110.151 108.379 105.186 106.696
75.613 77.223 79.143 77.875 76.275 75.78 75.89 78.085 76.918 76.01 75.993 76.055 76.01 75.903 75.95 76.015 77.16 79.535 77.73 78.175 78.338 76.21 82.388 94.023 94.618 94.358 93.638 88.452 78.172 78.157 79.075 76.612 76.107 76.175 76.195 76.205 76.217 76.207 76.702 76.967 76.4 76.707 78.09 78.047 83.677 89.617 87.872 86.262 82.77 78.61 79.772 80.68 82.422 85.95 83.802 86.755 89.607 89.8 88.615 84.68 83 82.5 83.18 81.725 81.875 82.695 82.23 82.935 81.95 81.932 82.03 82.14 82.185 82.337 82.455 82.53 82.73 84.487 85.885 85.235 85.497 86.312 88.67 90.59 90.872 92 93.757 94.587 95.292 93.435 88.627 87.48 87.477 87.557 88.037 88.715 89.117 90.457 92.487 93.8 94.545 95.477 94.857 94.21 94.095 94.16 94.352 94.91 95.067 95.175 98.18 102.085 99.692 101.692 99.162 102.757 104.062 108.582 101.035 103.06 103.957 101.685 97.065 96.31 96.322 97.5 99.71 105.514 100.024 99.397 99.869 100.362 99.337 95.109 94.987 94.782 95.082 94.564 94.512 94.539 94.522 94.507 94.539 94.554 94.717 94.842 94.602 94.802 94.657 94.769 95.204 95.474 94.969 95.522 95.667 95.507 95.552 96.719 97.242 103.122 104.297 97.559 96.877 97.132 97.257 97.434 98.622 98.084 97.887 100.192 105.327 105.047 102.742 106.447 103.859 103.324 104.932 106.264 104.974 103.917 104.397 108.889 104.922 114.182 115.604 112.229 107.752 106.302 103.652 103.727 103.889 102.009 101.264 101.742 102.617 102.292 103.209 105.912 105.469 108.082 107.259 103.094 104.119 106.232 105.672 108.719 105.644 103.142 103.482 105.307 104.657 106.689 104.059 103.987 105.252 103.984 103.107 104.014 103.417 102.684 102.552 102.484 103.482 110.827 110.329 106.824 105.347 107.774 105.784 112.684 113.656 115.066 116.054 114.866 110.161 102.534 102.401 102.524 103.974 103.531 105.481 107.799 106.116 104.144 105.521 108.489 107.254 108.051 107.794 107.139 111.346 109.749 105.006 104.154 102.664 101.206 106.514 104.389 102.356 101.219 102.456 104.276 113.634 112.701 107.251 103.371 102.974 107.001 108.186 104.531 104.149 108.181 113.634 109.234 107.819 107.604 104.186 108.619 108.726 107.349 106.529 110.879 108.639 105.554 111.359 108.491 109.139 107.776 112.629 110.704 110.594 117.846 119.336 111.216 105.864 106.981 105.834 109.686 107.746 105.591 108.106 107.579 114.589 113.886 108.929 108.261 108.769 111.509 119.054 111.081 110.629 104.929 109.941 111.339 108.296 105.054 110.891 107.619 107.394 106.556 111.769 110.881 106.616 107.206 106.179 106.401 111.541 105.906 103.471 106.614 109.859 105.476 114.716 113.119 103.284 104.116 103.614 102.631 104.871 103.236 106.644 106.446 106.011 104.656 103.214 108.634 107.734 107.104 107.496 101.981 106.836 108.786 103.424 117.686 110.409 103.296 102.364 102.656 103.431 103.271 103.154 103.371 103.726 104.451 108.059 105.631 108.166 110.389 111.316 112.236 116.186 110.856 105.204 105.386 105.896 117.209 109.279 108.036 106.424 105.871 106.718 109.976 110.516 108.621 110.721 108.788 109.864 109.974 109.224 111.203 111.801 109.703 108.998 112.854 110.599 110.229 111.989 112.029 107.701 110.821 108.299 112.261
75.815 76.705 79.278 76.788 75.933 75.988 76.255 78.203 76.653 76.068 76.125 76.103 76.1 76.085 76.053 76.168 76.583 78.53 78.065 76.198 76.238 79.093 91.92 94.055 95.095 95.138 94.263 93.465 89.855 81.012 77.265 75.96 76.032 76.117 76.272 76.107 76.065 76.075 76.42 76.122 76.137 76.505 76.88 80.24 88.915 90.05 88.072 84.815 80.35 78.247 78.33 79.485 79.532 80.17 84.99 88.842 90.122 89.73 87.877 86.045 83.32 83.655 81.892 81.695 82.277 82.06 82.007 81.997 81.982 82.067 82.132 82.237 82.357 82.37 82.45 82.592 82.955 85.59 86.235 86.812 85.465 84.722 87.45 90.707 90.445 90.107 91.347 93.655 94.1 93.997 92.425 87.895 87.745 87.542 87.61 87.98 89.135 92.15 93.057 92.642 93.417 94.125 94.19 94.207 94.145 94.12 94.232 94.347 94.67 94.792 94.745 97.585 97.937 100.722 102.65 110.67 110.357 107.682 102.427 99.452 102.395 106.602 99.415 96.245 96.272 96.235 98.832 102.822 103.464 99.554 97.519 99.274 100.524 98.272 95.482 95.094 95.804 94.862 95.122 94.602 96.482 96.077 94.602 94.494 94.502 94.547 94.579 94.592 94.612 94.632 94.814 94.814 94.757 95.874 95.542 95.617 95.544 95.519 95.942 96.092 98.927 96.429 96.834 96.857 96.969 98.359 99.569 97.672 97.784 102.289 106.817 106.217 102.759 108.162 105.432 102.707 104.522 102.747 103.924 106.669 107.304 109.137 107.749 114.899 115.199 113.014 112.927 112.832 110.499 104.907 102.972 101.029 101.109 102.392 102.917 103.089 104.532 104.292 104.272 106.369 102.772 102.644 102.984 107.609 105.804 110.487 107.674 106.274 106.244 108.399 108.059 105.042 103.682 103.254 103.359 103.322 104.504 107.244 105.869 102.892 102.704 102.934 103.494 111.042 112.292 106.819 104.049 105.851 111.604 113.226 115.641 116.211 115.776 113.999 112.224 106.706 102.354 102.606 105.281 106.826 107.051 108.644 106.669 102.934 110.256 111.631 108.679 107.594 107.536 107.416 106.456 108.951 108.646 102.414 102.216 106.804 105.924 101.449 101.381 101.291 102.329 106.369 104.314 112.054 107.361 103.294 107.424 107.656 110.146 106.674 103.226 107.496 110.099 111.889 104.414 107.264 107.894 107.741 106.171 105.534 105.864 105.921 106.301 105.456 107.979 107.804 114.259 110.739 110.329 112.649 114.069 113.139 113.389 109.806 105.969 105.986 105.931 105.819 106.719 113.444 118.254 113.031 113.196 115.476 110.381 112.911 107.861 108.179 122.276 107.526 107.784 111.716 111.774 110.306 110.209 109.064 106.554 108.466 105.664 104.756 107.099 107.829 111.046 113.914 106.236 106.221 110.269 108.399 105.059 107.824 108.306 105.706 106.916 108.081 108.626 103.931 107.296 103.284 103.064 106.166 102.014 103.504 102.511 103.119 103.484 105.149 103.639 110.539 105.969 105.046 110.076 106.636 104.214 102.369 102.134 102.469 103.114 103.061 103.936 105.786 104.381 104.234 104.986 105.549 106.731 107.269 105.326 114.559 119.191 112.999 113.296 113.344 105.339 106.151 105.769 113.594 110.864 107.694 105.601 108.276 112.004 112.051 111.416 109.074 115.166 109.171 106.489 111.276 111.136 112.646 109.731 113.248 113.111 116.391 111.951 111.096 112.081 110.551 110.426 112.449 114.644 114.023
76.008 76.125 76.22 76.133 76.243 76.168 76.69 78.935 76.28 76.19 76.19 76.193 76.155 76.19 76.15 76.25 78.115 78.333 77.7 77.203 76.303 89.555 93.415 94.675 95.413 94.66 94.175 94.18 94.117 93.107 87.482 77.2 75.93 76.332 76.287 75.925 75.95 75.957 76.6 76.422 76.395 76.375 76.687 81.892 87.992 89.282 84.77 78.252 78.152 78.4 80.615 82.765 82.787 83.192 88.005 89.762 90.005 88.745 86.69 88.6 87.857 84.907 84.352 82.342 81.825 81.82 81.795 81.895 82.017 83.002 82.285 82.327 82.505 82.517 82.477 82.572 82.715 83.345 85.055 86.215 85.155 84.94 85.655 88.247 89.48 89.952 88.645 90.787 94.282 95.072 94.382 93.302 88.247 87.485 87.485 87.657 88.037 91.51 92.567 93.372 94.35 94.855 95.775 94.06 94.202 94.12 94.205 94.282 94.32 94.382 95.365 98.65 98.427 100.43 98.307 106.505 111.442 106.67 99.695 105.372 105.407 99.027 96.092 95.875 96.22 97.725 102.682 101.199 102.404 98.292 97.152 100.382 100.407 101.762 96.222 96.049 94.859 94.674 94.949 95.269 96.507 96.139 94.607 94.427 94.487 94.492 94.532 94.547 94.559 94.582 94.807 94.757 94.969 95.227 95.487 95.219 95.079 95.829 95.569 95.579 96.124 96.779 98.779 97.254 97.157 100.277 98.954 98.489 101.459 100.474 101.114 102.119 105.569 105.954 109.072 104.074 102.659 102.192 103.627 104.094 105.587 103.847 109.894 115.667 114.447 112.849 113.177 112.807 112.849 105.129 102.827 100.829 101.317 103.429 103.262 103.559 104.367 104.887 102.769 103.719 103.347 103.047 103.172 105.599 106.249 108.092 107.717 108.139 107.699 107.304 110.719 105.977 103.919 103.357 103.384 103.409 103.504 106.207 105.099 103.104 103.277 103.837 106.814 108.562 107.882 105.177 104.412 110.156 115.669 115.671 116.214 115.929 116.211 115.636 115.336 113.626 103.871 102.781 106.734 108.229 108.014 107.714 104.176 103.131 109.396 108.364 112.866 105.674 109.909 106.249 101.454 105.004 108.631 104.306 107.194 110.036 107.936 101.981 101.509 102.266 105.051 103.184 101.899 104.416 104.481 102.579 109.091 108.721 112.749 115.116 103.336 103.879 104.674 105.236 108.479 107.526 106.721 108.379 106.271 104.649 104.726 104.971 105.141 105.574 108.906 110.951 109.199 109.324 107.004 110.764 114.379 114.371 106.879 120.581 107.404 109.261 113.646 106.066 112.786 118.439 116.141 114.994 111.626 111.114 116.786 108.274 107.119 111.966 111.604 117.401 112.146 109.636 107.549 105.726 106.554 104.866 104.504 105.104 104.484 108.744 111.191 106.776 105.269 112.026 113.114 111.694 113.079 109.724 109.459 106.746 110.961 111.356 115.664 104.484 103.021 107.149 105.286 104.306 106.356 104.269 102.249 106.464 106.996 102.964 104.084 102.356 111.786 107.596 108.991 105.304 109.406 111.406 104.231 102.054 102.246 102.834 102.926 102.966 104.106 113.634 106.886 107.909 108.161 106.331 109.924 110.481 104.479 117.711 111.961 115.331 112.894 112.684 110.229 111.159 109.276 111.234 109.269 108.386 106.351 106.386 115.924 111.389 107.271 111.401 116.106 113.989 108.036 111.769 108.099 108.224 114.903 107.274 107.409 113.364 110.374 111.676 110.106 107.041 112.426 118.431 116.703 115.284
76.215 76.34 76.49 76.358 76.365 76.333 77.24 77.478 76.355 76.263 76.37 76.295 76.283 76.188 76.248 76.35 76.378 76.635 76.4 76.213 83.593 92.825 94.18 95.218 95.273 94.493 94.183 94.145 94.205 93.782 91.417 90.642 83.49 76.77 76.58 75.817 75.78 75.902 76.33 76.49 76.672 76.277 77.127 84.52 87.16 86.015 79.262 78.115 78.15 78.272 81.215 84.455 84.157 84.425 85.505 89.157 88.785 87.952 89.292 89.472 88.832 89.222 85.292 84.612 85.27 82.332 81.91 81.9 83.83 86.945 87.267 82.582 82.742 83.627 82.567 82.592 82.665 82.855 83.462 84.362 83.927 84.562 86.657 86.757 86.53 87.5 89.705 92.362 95.09 95.62 95.2 94.535 93.792 90.557 87.477 87.49 88.4 89.95 89.582 91.895 92.517 93.077 93.782 93.885 94.185 94.24 94.162 94.042 94.025 94.192 94.36 99.277 102.422 104.51 103.597 98.552 98.502 99.905 95.992 106.505 100.517 97.817 95.78 96.102 99.052 98.365 103.612 102.457 98.962 99.764 97.202 96.474 97.854 98.952 95.459 94.284 93.379 93.369 93.464 96.974 96.759 94.922 96.197 96.469 98.257 96.244 94.492 94.514 94.567 94.782 94.607 94.784 94.652 94.647 94.632 94.644 94.674 94.734 95.787 95.574 97.234 98.374 100.012 98.079 97.602 99.857 99.699 102.639 104.982 106.174 102.519 101.549 104.747 108.299 105.047 109.129 105.774 104.812 102.342 102.534 103.232 103.462 109.014 115.339 113.704 112.974 113.052 112.837 110.294 103.682 110.407 107.619 105.417 103.674 103.717 104.077 104.934 103.957 102.762 102.829 104.599 106.482 104.722 103.757 104.784 107.754 109.199 106.289 109.349 110.974 110.292 110.157 104.077 103.492 103.519 103.509 104.284 105.497 106.134 106.704 105.697 104.492 108.372 107.799 106.799 104.932 105.877 110.569 115.354 115.944 116.281 114.216 116.089 116.674 114.816 113.919 107.746 104.971 106.129 106.164 106.059 105.409 103.289 105.754 107.316 112.169 109.451 107.499 113.196 105.536 106.454 113.879 111.859 109.209 105.229 111.326 106.554 102.659 105.024 105.086 105.731 103.436 102.051 103.951 105.744 103.121 109.264 106.304 115.211 113.551 106.031 104.746 105.864 107.366 108.584 111.099 112.389 109.031 106.701 104.854 105.714 107.556 105.989 105.721 106.904 110.744 111.891 108.321 107.094 110.124 116.254 112.154 109.904 111.426 109.924 119.541 112.514 107.209 110.939 119.721 112.056 116.079 109.246 108.946 109.676 110.786 109.054 110.421 114.194 106.749 108.761 110.631 110.746 113.651 105.859 104.961 105.961 104.711 104.114 105.574 104.809 104.321 107.221 112.396 115.216 115.691 116.739 115.579 109.926 107.889 110.014 111.964 113.266 103.616 108.281 105.249 105.616 105.644 106.326 103.034 104.854 105.341 102.241 102.801 108.399 109.299 106.421 104.366 110.824 104.769 102.899 106.686 102.081 102.156 102.346 102.561 102.899 102.844 111.751 116.051 108.234 109.561 112.514 109.799 109.806 107.346 104.411 105.764 110.181 108.899 112.684 116.266 110.921 113.691 107.804 111.634 111.344 111.456 110.419 112.106 110.236 113.096 106.424 106.971 109.756 111.966 112.479 109.166 108.451 113.346 114.161 106.936 110.376 116.221 113.898 107.644 108.801 111.841 112.974 112.774 114.761 114.729
77.245 76.508 76.643 77.038 76.573 76.623 78.388 78.033 76.42 76.373 76.385 76.423 76.368 76.288 76.39 76.433 76.883 76.368 76.248 76.18 88.45 93.753 94.788 95.435 95.218 95.343 94.853 94.387 94.195 92.8 90.947 88.88 88.34 87.135 80.245 75.7 75.685 75.79 76.482 77.292 76.8 76.622 78.277 84.8 87.002 84.665 81.377 78.08 78.312 79.535 83.195 84.052 82.665 83.33 84.462 85.51 86.762 86.852 89.385 90.305 89.775 90.07 88.147 87.562 88.155 84.952 82.18 82.862 86.685 88.237 87.622 82.815 82.62 82.635 82.555 82.627 82.71 82.77 82.925 83.057 83.375 84.105 85.705 86.272 86.682 87.812 87.88 92.485 94.247 94.987 95.63 95.365 94.642 93.92 89.44 90.292 91.462 89.31 89.29 90.207 90.96 92.22 93.275 93.647 93.792 93.9 93.797 93.747 93.89 94.067 94.245 98.387 99.772 101.29 100.95 98.842 99.525 103.83 112.235 109.682 107.957 103.427 97.802 97.262 99.115 99.667 101.825 101.279 96.094 97.522 97.499 95.469 97.012 98.329 95.734 93.342 93.297 93.267 93.239 94.182 94.187 94.804 95.944 99.174 103.307 97.702 95.614 95.047 94.534 94.657 94.712 94.604 94.629 94.647 94.829 94.632 94.817 94.957 94.679 96.364 98.487 98.849 98.487 95.947 96.004 96.387 97.099 99.294 106.969 108.009 104.907 101.892 100.819 104.409 107.724 108.397 108.604 108.479 103.739 102.634 105.927 103.697 113.192 115.324 113.517 112.917 112.832 113.094 107.252 105.744 111.789 112.892 112.804 108.732 105.489 105.164 104.824 108.492 109.389 107.572 106.524 108.864 108.989 107.999 105.944 107.819 107.757 106.439 106.597 107.739 107.452 107.849 105.762 103.492 103.602 103.652 103.664 103.727 103.849 108.097 105.464 106.697 111.132 108.227 106.677 106.649 108.779 107.556 110.624 114.326 115.696 116.274 116.181 115.709 112.541 109.409 103.829 104.774 103.734 105.751 106.189 106.406 104.664 107.046 110.549 107.199 108.536 111.656 113.444 113.769 107.981 114.806 112.351 110.646 104.146 105.156 101.906 101.846 107.126 104.406 104.089 102.999 103.859 102.951 103.609 104.539 104.861 105.196 109.149 107.234 108.279 105.851 107.349 108.359 109.294 109.081 110.134 107.849 106.099 105.896 107.926 108.349 106.759 108.856 106.586 106.871 106.899 106.851 106.756 108.314 113.941 109.894 111.274 114.881 107.129 112.159 110.994 109.374 107.836 115.174 116.226 118.774 111.481 116.259 116.826 105.556 109.209 109.769 120.641 109.084 116.194 118.341 117.804 112.624 110.499 105.949 108.504 104.206 104.341 104.246 104.229 107.056 109.806 110.299 107.791 104.499 113.474 114.359 110.069 106.831 111.336 107.131 107.151 102.106 105.491 109.471 104.481 104.971 106.436 104.274 109.739 104.589 101.316 101.261 102.926 109.144 106.879 102.449 102.736 102.229 108.296 102.776 102.124 102.584 104.789 103.989 103.834 107.909 112.509 113.851 111.996 110.276 108.011 108.439 108.331 114.141 106.721 106.994 105.619 109.914 108.829 109.139 112.264 111.056 110.186 109.614 115.331 112.856 111.341 109.809 109.024 110.068 115.093 112.519 106.993 113.914 120.934 117.731 115.263 111.593 109.476 108.183 111.339 119.834 110.943 107.789 107.676 110.991 114.241 109.741 111.626 109.114
76.825 76.7 76.62 76.735 76.715 77.515 78.028 76.838 76.5 76.478 76.533 76.485 76.47 76.408 76.468 76.505 76.69 76.378 76.23 77.213 92.348 94.495 95.375 94.983 94.443 94.803 95.345 95.312 94.712 93.985 91.78 88.055 87.91 88.447 87.04 77.212 75.645 75.737 75.905 76.33 79.047 77.742 83.44 82.6 83.46 83.917 84.125 82.545 79.955 84.075 84.04 81.405 81.81 81.87 83.162 84.727 84.775 83.162 86.515 89.972 90.357 89.762 88.937 88.545 89.065 88.237 85.8 84.937 87.655 88.292 86.582 82.965 85.532 82.93 82.665 82.692 82.77 82.842 82.9 83.017 83.315 83.4 83.885 85.685 87.45 88.145 85.66 85.945 91.892 94.155 94.875 95.472 95.465 93.282 88.007 90.7 90.077 88.307 88.317 89.962 91.062 91.472 92.137 93.275 93.615 93.452 93.675 94.122 94.562 94.315 94.075 95.727 95.557 96.805 97.42 97.532 94.59 101.125 113.95 114.66 111.377 106.772 99.295 99.195 98.427 97.45 100.437 100.052 94.959 95.029 94.832 97.719 97.634 98.369 94.154 93.269 93.267 93.152 92.932 93.122 92.649 92.514 102.254 103.542 102.357 102.312 96.909 96.644 95.729 95.319 95.377 94.532 94.577 94.629 94.679 94.744 94.894 94.847 94.947 95.627 97.782 98.749 97.657 96.064 95.949 96.769 96.957 99.329 102.737 104.667 101.837 99.499 100.324 102.007 104.957 108.849 105.884 108.777 104.307 104.839 108.064 107.729 114.412 115.199 112.884 113.089 113.549 112.867 105.209 107.607 112.737 113.029 113.002 112.952 112.922 108.612 105.697 112.882 112.897 112.917 110.507 108.874 109.102 107.997 105.757 106.472 107.724 109.732 108.337 106.009 112.202 108.989 106.042 103.442 103.587 103.722 103.777 103.827 103.799 104.637 105.282 107.694 110.159 107.924 105.004 105.832 107.337 105.444 106.489 113.171 114.986 115.784 115.349 113.261 106.544 105.111 103.609 103.086 103.224 104.794 106.639 107.089 107.494 107.484 105.284 104.229 107.246 108.209 109.034 107.556 106.581 107.446 108.321 104.239 104.516 104.429 105.436 106.006 106.306 103.206 102.931 102.201 103.134 103.436 107.826 112.204 107.091 105.794 113.991 107.244 104.069 104.924 104.984 106.794 108.964 111.159 111.471 114.824 109.724 110.071 108.939 113.606 111.031 107.079 113.174 110.504 111.904 109.484 106.706 107.789 110.949 115.561 115.946 109.884 115.224 107.744 109.409 106.231 110.436 112.806 112.556 113.254 110.039 118.734 114.494 107.186 110.609 106.659 121.091 117.989 114.104 113.694 116.151 109.414 107.019 105.679 112.721 108.206 104.201 104.086 104.381 106.759 112.429 106.404 106.879 111.229 111.064 113.506 108.841 106.276 103.834 111.511 102.371 105.824 110.659 107.924 101.666 108.879 103.306 103.146 103.046 106.471 104.591 101.279 107.909 111.044 107.344 112.461 105.589 102.651 111.654 104.181 105.521 108.354 108.094 106.134 107.896 110.056 111.434 108.239 111.351 106.764 109.194 112.179 107.306 111.014 106.951 107.454 107.064 113.259 107.601 105.684 108.081 108.319 108.816 109.499 112.096 114.383 111.934 112.071 111.321 112.879 109.729 112.324 109.464 116.169 113.716 117.904 116.529 112.636 110.776 110.451 118.461 110.718 111.061 108.201 109.261 113.856 114.836 108.479 114.489 115.806
89.465 86.738 80.413 80.05 77.873 79.008 78.335 76.888 76.59 76.588 76.618 76.55 76.478 76.493 76.865 76.715 77.26 76.288 76.348 84.585 93.88 94.54 95.05 94.485 94.208 94.225 94.448 94.942 94.805 93.79 89.79 87.93 88.105 88.217 84.217 76.402 75.68 75.702 75.805 76.202 77.807 87.237 82.98 86.69 79.767 82.055 84.217 83.985 82.415 83.905 80.927 80.542 81.37 81.727 81.887 82.267 83.905 84.697 83.207 86.692 89.852 89.937 89.552 89.36 89.087 88.15 85.732 84.667 83.967 86.427 84.767 82.602 83.63 82.927 82.767 82.802 82.822 82.895 82.96 83.027 83.102 83.465 83.707 84.28 87.105 86.272 84.287 84.685 86.555 91.912 94.045 94.732 94.7 88.467 92.065 94.222 92.082 88.675 88.145 88.69 90.372 91.142 91.79 93.517 95.212 95.437 98.17 99.887 94.655 95.792 93.447 95.06 93.68 95.672 95.1 96.827 96.715 99.997 108.89 112.352 109.85 102.607 96.835 100.87 99.43 99.602 98.412 96.712 95.334 94.149 95.197 97.554 96.239 93.484 93.037 93.227 93.239 92.497 92.514 92.382 92.379 92.387 100.694 104.904 104.564 100.304 94.327 94.862 94.652 95.659 94.432 94.932 95.207 94.692 94.614 94.619 94.722 94.732 94.849 94.647 95.667 95.407 97.639 97.204 96.384 96.854 97.077 98.362 101.554 102.312 100.009 99.752 103.194 106.537 106.319 109.717 107.559 111.207 104.047 104.457 105.122 108.722 114.659 115.272 115.337 114.959 114.214 111.749 103.922 110.717 113.237 113.212 113.174 113.124 112.422 105.852 106.919 112.927 112.982 112.934 110.832 110.137 110.147 106.709 106.127 104.712 104.852 105.314 106.429 106.399 108.557 105.919 108.079 103.569 103.567 103.639 103.827 103.874 103.882 103.912 103.977 104.082 104.609 105.972 106.339 110.557 110.447 110.494 106.069 107.311 112.499 115.426 114.329 111.949 104.994 104.966 103.416 104.821 103.909 106.039 106.996 107.384 107.466 110.839 106.791 106.999 109.984 109.211 103.531 106.809 104.616 104.694 109.184 107.336 108.641 105.569 105.586 106.666 108.706 109.234 102.976 102.961 102.454 107.029 110.584 115.344 114.959 112.374 109.244 106.404 106.011 106.286 107.366 108.894 108.679 108.186 114.034 119.624 113.599 112.556 107.026 111.666 114.159 108.449 107.911 111.294 119.194 112.696 107.429 116.319 113.544 116.879 111.726 118.189 114.181 111.424 106.349 106.251 112.426 111.006 115.116 114.294 116.866 111.351 110.036 107.636 113.324 105.779 108.114 106.906 117.496 111.604 109.684 107.381 110.504 109.474 109.786 108.261 107.231 104.204 104.359 104.164 104.839 104.104 104.976 113.179 118.201 113.091 113.189 109.176 103.656 114.091 110.696 105.441 111.834 111.184 114.061 111.331 102.286 103.824 103.144 104.366 101.649 101.441 109.266 104.719 111.171 108.884 113.404 102.129 107.009 115.426 103.931 106.686 105.579 107.034 108.449 111.441 109.209 109.094 108.206 107.694 111.179 114.214 108.884 109.899 106.509 106.619 106.894 111.031 109.681 110.374 106.159 105.564 108.126 110.334 106.816 106.646 106.366 106.854 109.544 111.761 108.916 109.089 109.453 111.718 111.976 110.461 116.644 115.691 114.001 113.001 109.961 109.201 107.729 110.489 111.263 113.019 111.019 107.836 111.199 113.968
99.37 98.375 98.903 96.87 91.458 82.845 78.103 76.758 76.683 76.693 76.688 76.663 76.585 76.553 77.095 78.323 77.845 76.29 77.213 89.213 92.243 93.338 94.08 94.18 94.17 94.183 94.163 94.02 94.07 91.662 87.922 87.947 88.45 87.15 80.11 75.692 75.74 75.777 76.387 76.547 79.875 81.665 81.367 81.957 79.032 78.937 81.275 82.745 81.442 81.767 80.37 80.525 80.957 80.805 81.82 81.665 81.745 81.95 84.342 84.962 86.462 87.89 88.827 89.14 88.305 85.87 85.04 89.177 87.792 85.17 84.222 82.612 82.672 82.99 83.202 84.655 83.502 82.942 83.012 83.062 83.117 83.302 84.247 83.895 83.46 83.702 83.977 85.425 87.222 87.545 91.157 93.255 90.735 92.82 94.46 94.765 93.855 88.77 88.12 88.395 89.107 92.21 92.02 91.797 94.632 95.767 101.257 100.635 100.85 99.01 93.302 93.38 93.417 93.475 93.502 93.547 93.597 98.687 104.055 106.722 104.332 101.375 101.202 99.507 100.887 95.83 95.67 96.222 94.977 95.824 95.004 95.174 95.287 94.614 92.447 92.587 92.602 93.429 94.437 93.227 92.497 92.422 92.464 92.952 96.072 95.187 93.567 95.204 94.977 96.797 96.772 95.764 95.049 95.024 95.589 95.422 94.767 94.719 94.657 94.674 94.687 94.714 95.374 96.317 96.204 99.224 100.639 97.657 101.402 105.324 103.552 101.599 101.639 102.997 109.654 104.882 106.367 108.452 105.427 103.404 101.297 113.154 115.249 115.297 115.297 115.302 113.937 108.727 103.997 113.437 113.819 113.699 114.034 114.229 112.809 105.112 106.894 113.309 113.219 112.427 111.339 111.274 110.989 106.494 109.497 109.399 107.757 106.652 104.779 105.942 107.844 105.872 105.579 105.857 103.797 103.679 103.799 103.937 104.009 104.054 104.059 104.067 105.252 108.244 111.932 112.404 112.047 107.051 107.954 109.886 106.436 111.264 112.461 108.211 103.229 103.214 105.884 104.639 105.526 106.914 107.351 107.566 106.944 105.129 110.541 106.624 107.031 106.494 103.639 105.594 106.511 104.024 105.669 108.026 106.354 108.469 103.894 103.684 102.836 104.551 102.494 102.611 103.346 107.324 107.984 106.701 111.001 106.074 111.616 109.956 107.241 108.991 107.911 110.391 107.341 110.861 112.481 116.136 113.061 114.279 109.321 110.856 112.666 111.031 107.529 110.141 116.514 116.796 109.849 116.476 116.011 124.266 116.759 114.426 107.941 106.511 106.331 106.226 106.206 106.199 108.001 109.319 110.441 105.894 113.641 121.571 117.614 118.076 111.569 105.439 105.471 106.066 108.466 116.306 112.604 109.714 110.974 109.364 115.489 113.274 110.636 104.049 110.744 105.989 103.981 105.641 113.646 110.066 106.294 103.541 102.274 108.314 110.854 111.466 110.701 111.761 104.046 106.106 107.369 112.544 104.874 101.379 103.669 105.106 104.234 108.994 112.266 107.726 116.241 112.174 105.216 107.129 110.151 107.716 103.661 108.411 107.294 111.234 111.224 107.411 108.409 106.024 107.419 108.856 113.556 105.196 106.839 111.806 108.181 110.676 111.216 109.914 108.504 106.729 109.009 111.164 112.889 108.021 115.664 109.831 112.056 113.186 112.149 114.229 109.406 107.521 112.881 114.256 118.476 119.944 112.221 111.199 112.264 107.879 111.001 109.811 111.681 111.229 107.639 112.523 110.114 110.571
100.335 100.345 100.393 100.42 99.44 91.888 78.153 76.823 76.798 76.75 76.77 76.713 76.648 76.685 77.668 78.483 79.13 76.493 81.228 90.953 91.54 91.243 91.188 91.72 92.938 94.123 93.945 92.327 92.797 88.642 87.942 88.137 87.855 82.757 76.347 75.752 75.82 75.84 78.085 78.3 80.197 85.207 80.935 77.63 80.21 79.407 80.605 78.775 80.145 80.29 80.347 80.445 80.53 81.337 81.855 81.895 81.877 81.767 81.857 83.335 84.98 84.84 87.925 88.357 87.11 84.492 89.75 90.015 89.252 88.522 87.62 84.495 82.73 85.07 86.727 84.86 82.955 83.027 83.05 83.075 83.132 83.237 83.337 83.432 83.375 83.56 84.085 85.165 86.19 89.247 89.182 88.385 88.967 89.645 92.97 94.8 94.352 91.697 88.067 89.675 91.927 93.6 93.222 92.727 94.605 95.47 98.665 100.79 100.82 94.462 93.09 93.237 93.335 93.365 93.41 93.455 93.497 94.805 96.865 99.09 99.275 101.422 103.375 102.63 99.405 98.115 95.482 95.414 95.107 94.214 94.592 95.449 95.117 93.372 92.434 92.424 92.452 97.802 99.267 98.997 97.064 94.197 92.582 94.019 92.794 92.672 93.029 95.009 94.737 93.944 94.472 94.819 94.549 94.374 94.907 95.859 95.387 95.772 94.792 94.664 94.669 94.702 94.724 95.777 98.369 102.227 103.462 101.082 101.557 108.004 107.619 102.879 105.134 108.664 104.357 108.142 106.574 104.219 104.862 103.747 103.352 111.179 113.372 114.459 115.312 115.284 113.214 105.157 107.077 113.244 113.839 113.819 113.689 113.912 113.674 106.402 111.402 113.409 113.232 111.937 111.304 111.367 109.729 106.077 111.097 111.294 111.207 111.107 109.744 108.127 105.662 104.629 105.637 108.719 106.249 103.784 103.809 103.877 104.014 104.132 104.189 104.247 107.044 105.334 109.717 110.927 111.537 112.261 108.351 108.829 104.864 107.164 112.686 108.971 104.176 104.956 104.221 106.071 106.816 107.254 107.554 107.084 106.016 103.794 104.619 109.129 109.654 107.876 103.999 108.421 102.759 105.009 105.836 108.601 105.256 102.934 102.576 102.424 103.346 105.271 109.141 106.374 103.861 107.599 110.676 108.341 112.529 112.266 111.064 110.274 106.919 108.746 107.646 105.209 107.481 110.796 110.739 109.559 110.134 110.699 113.026 117.464 112.696 109.369 108.366 113.161 113.424 114.606 117.201 116.291 111.456 111.394 119.539 113.131 112.134 106.549 106.399 106.311 106.229 109.621 116.214 110.101 106.089 107.666 115.384 113.879 117.959 110.506 113.139 109.669 115.524 106.376 108.044 110.499 105.149 109.154 109.536 113.356 107.671 112.949 112.746 109.844 109.974 110.494 103.689 109.149 104.544 110.606 104.631 102.981 103.096 102.346 105.729 111.254 104.601 105.539 110.629 104.909 104.069 109.659 101.551 102.159 111.479 106.231 105.279 105.246 109.714 109.961 112.749 106.514 109.651 111.726 110.454 108.116 111.479 109.961 110.024 109.181 114.101 114.431 109.746 113.169 110.679 111.579 106.071 105.036 104.956 108.021 108.806 110.486 110.564 111.154 111.119 109.811 107.749 107.506 108.921 109.806 114.168 115.699 113.946 110.866 113.131 114.599 112.304 109.991 114.036 113.138 110.196 116.574 108.024 113.459 113.468 112.114 110.781 112.466 113.366 111.534 108.871 108.769 108.664 111.031
100.305 100.333 100.363 100.45 98.965 87.613 77.125 76.87 76.858 76.865 76.863 76.828 76.745 76.773 76.935 78.203 78.073 77.803 76.273 79.535 87.6 89.985 85.078 80.51 84.578 90.648 93.078 90.682 89.837 87.915 87.93 88.492 83.77 76.08 75.825 75.807 76.05 79.675 89.042 85.087 82.402 85.225 80.1 85.017 84.49 78.705 78.03 77.605 79.855 81.09 80.34 80.357 83.452 82.782 84.465 84.282 82.117 81.482 81.55 82.047 83.942 83.72 83.535 87.102 83.072 87.192 89.082 89.845 90.037 89.377 88.612 87.26 83.947 85.807 85.032 82.792 83.74 83.13 83.09 83.127 83.202 83.287 83.36 83.43 83.47 83.53 83.682 85.21 88.29 89.872 89.227 87.105 87.367 87.905 89.512 94.477 94.752 93.095 92.36 94.212 93.8 93.617 93.602 93.732 93.802 98.9 100.132 100.455 99.5 94.872 92.915 93.17 93.197 93.282 93.312 93.38 93.437 93.437 94.405 97.872 98.107 100.015 102.145 100.562 95.03 95.325 93.672 93.412 96.757 95.867 94.827 94.037 92.824 96.294 94.497 93.499 94.287 99.007 99.847 99.937 99.949 99.637 99.037 97.932 96.272 94.614 93.449 96.724 94.354 93.629 93.674 93.864 93.964 94.082 94.222 94.419 94.632 95.154 95.764 94.927 94.689 94.737 94.834 95.712 98.544 100.852 102.369 102.129 100.304 102.944 110.047 109.327 103.954 113.537 108.509 108.707 104.962 104.094 103.352 102.382 103.772 108.179 111.419 114.259 115.312 114.817 111.047 104.234 110.932 113.082 113.127 113.164 113.187 113.302 108.059 105.272 110.609 112.529 112.977 111.907 111.362 111.374 108.969 107.442 112.289 111.832 111.649 111.702 111.432 110.227 105.284 105.859 107.294 105.744 106.727 103.922 103.922 103.874 103.949 104.142 104.257 105.887 104.379 104.839 107.247 111.717 109.867 107.636 108.536 107.609 104.859 107.119 113.689 113.104 111.526 107.376 104.666 106.744 107.174 107.591 107.856 106.339 103.891 103.821 103.906 106.266 107.294 107.344 103.034 103.929 107.264 105.236 103.981 104.154 103.684 102.754 102.714 104.624 105.221 108.199 109.279 107.224 104.741 109.534 108.704 113.476 107.656 108.216 111.256 112.749 112.056 111.964 111.459 107.899 108.584 108.846 109.844 107.496 108.346 110.264 114.191 115.019 118.741 108.431 111.041 114.314 111.929 116.339 117.321 119.544 110.626 109.881 119.326 111.746 115.181 108.521 106.621 108.621 108.119 113.841 113.889 115.174 110.104 108.394 114.249 116.754 105.911 107.749 113.589 108.404 107.514 109.546 111.784 109.861 111.304 104.724 111.419 114.914 106.799 109.429 111.976 112.684 106.111 107.834 105.186 106.536 103.886 108.766 110.386 107.849 104.864 105.556 106.216 108.276 112.279 104.534 107.571 109.951 106.801 105.591 102.794 101.989 103.461 102.586 102.356 103.976 103.444 106.734 105.294 104.166 106.184 111.194 106.851 105.211 113.956 103.799 106.779 106.706 112.729 113.771 112.869 111.146 110.771 112.299 108.919 113.434 108.259 110.526 111.071 112.944 108.216 112.979 113.084 112.046 107.101 106.589 109.326 112.684 113.481 114.998 110.024 108.263 111.701 115.104 114.931 116.854 111.849 110.809 112.343 108.651 109.636 113.654 111.063 109.301 107.519 109.781 111.123 112.743 109.601 109.879 113.281 108.246
100.3 100.335 100.318 100.158 95.633 84 77.06 76.95 76.993 76.965 76.958 76.885 76.828 76.895 76.873 79.588 77.238 77.333 77.965 76.883 77.368 79.34 79.575 79.605 79.59 80.768 85.398 90.752 88.68 88.03 88.13 87.755 79.635 76.025 76.092 76.06 80.927 79.16 83.76 81.307 78.675 83.892 84.212 81.525 86.612 83.337 78.142 76.747 77.132 80.58 81.405 80.935 83.497 83.595 81.727 81.587 81.242 81.295 81.407 81.565 81.61 83.712 84.647 83.8 83.132 85.665 87.99 88.962 89.747 90.247 89.502 88.745 86.462 84.307 82.697 82.905 82.927 83.025 83.105 83.142 83.237 83.347 83.455 83.477 83.555 83.59 83.855 83.985 85.447 89.117 89.575 87.395 86.79 88.235 87.925 92.78 94.75 94.515 94.617 94.597 93.785 92.57 92.345 92.13 92.262 96.602 99.512 100.477 100.14 98.457 95.367 93.232 93.017 93.207 93.25 93.312 96.05 94.092 97.967 100.192 102.272 102.95 100.575 98.377 93.69 93.572 92.6 95.144 99.139 99.132 98.014 96.537 95.862 92.537 92.547 92.304 94.339 99.727 100.342 100.429 100.109 100.257 100.144 99.697 98.462 95.872 95.952 97.732 94.479 94.629 93.254 93.404 93.739 93.857 93.867 93.997 94.157 94.319 94.529 95.649 96.227 95.357 96.737 96.512 96.514 101.494 104.472 102.087 104.384 103.687 104.824 104.117 104.099 107.604 108.372 106.194 107.867 103.944 103.012 101.459 104.449 104.487 105.364 110.097 113.374 114.032 107.699 104.512 110.594 112.214 112.959 112.989 113.024 112.669 105.864 105.184 110.622 111.297 111.287 111.397 111.262 111.292 107.464 109.399 112.552 111.794 111.659 111.757 111.754 110.012 104.657 104.639 106.447 108.164 104.787 104.014 104.024 104.034 104.062 104.059 104.222 104.607 104.464 109.557 104.969 111.552 111.732 110.579 110.124 105.761 104.919 105.544 108.649 111.641 112.416 108.061 106.476 107.031 107.521 107.926 108.376 108.799 105.291 103.774 103.886 104.031 104.469 105.511 104.536 103.114 103.821 107.204 107.554 104.491 103.149 102.934 103.774 110.249 106.679 105.609 106.421 107.771 105.751 107.664 108.149 108.301 109.139 106.144 105.531 105.659 109.866 112.139 107.596 107.401 109.694 111.661 109.784 111.761 111.834 111.479 113.886 111.401 116.914 110.134 110.699 115.399 111.596 115.404 115.249 114.954 114.664 109.069 114.629 117.509 115.954 106.984 109.124 113.521 109.001 112.929 109.781 111.166 109.894 107.506 110.604 114.689 108.434 110.384 114.351 110.899 108.134 112.281 110.311 116.054 109.541 107.116 109.099 114.281 114.814 116.689 105.986 107.944 106.894 111.501 106.351 103.656 104.966 107.874 110.496 109.071 104.189 108.046 112.969 104.379 111.466 109.129 109.979 115.304 102.179 105.251 103.946 109.524 103.481 104.194 107.314 105.524 106.684 102.356 102.601 107.271 111.811 106.176 107.624 105.171 104.519 106.576 107.434 107.491 107.134 110.064 114.084 108.224 113.146 105.764 107.519 109.621 109.234 111.116 108.504 108.191 110.249 109.356 109.091 110.116 111.744 110.824 114.914 118.104 113.123 109.096 112.718 113.074 115.191 118.066 115.199 115.754 112.286 113.471 115.508 111.966 113.233 117.881 110.114 109.151 108.099 106.633 107.476 109.881 111.019 114.676 114.901 111.914
100.855 100.573 100.335 99.1 93.77 80.58 77.123 77.105 77.1 77.075 77.01 76.933 76.89 76.928 76.858 80.108 77.238 76.858 76.695 76.588 76.465 76.213 75.863 76.785 78.96 79.678 79.588 80.962 85.8 88.295 88.297 85.242 77.15 76.25 76.352 76.357 76.882 84.107 79.53 81.6 84.345 84.025 89.08 84.03 92.437 80.885 76.87 76.77 76.795 77.907 80.117 80.56 82.617 83.34 81.525 81.055 81.165 81.242 81.32 81.995 81.807 84.177 85.525 83.937 82.077 83.125 85.51 87.66 88.882 89.31 88.995 87.965 86.885 84.442 83.18 82.772 83.132 83.397 83.18 83.257 83.61 83.475 83.465 83.515 83.585 83.635 83.91 84.655 84.012 85.142 87.4 85.992 86.412 86.552 90.48 94.225 94.667 94.77 94.142 93.165 92.18 91.89 91.675 91.857 92.075 95.36 98.895 99.902 100.54 99.74 98.672 94.945 92.57 93.08 94.2 95.547 96.327 98.67 102.812 104.422 104.497 104.267 101.282 100.485 93.26 92.657 92.5 96.952 99.722 99.794 99.537 99.302 98.199 92.662 92.242 93.147 97.879 99.672 99.999 100.569 100.834 99.942 100.277 99.589 96.699 95.824 95.737 94.709 94.192 96.384 95.879 94.719 92.974 93.517 94.409 93.687 93.879 94.017 94.189 95.007 96.064 96.142 97.844 95.922 101.947 102.744 103.529 107.257 106.739 106.042 105.254 101.362 104.214 102.227 104.444 103.302 103.737 103.182 102.724 101.689 103.884 103.484 104.754 106.442 106.982 106.477 105.182 104.079 107.694 108.514 111.529 112.612 112.882 109.749 104.214 105.462 108.342 109.284 110.907 111.304 111.282 110.784 105.359 111.614 111.959 111.227 111.222 111.344 111.442 107.259 104.639 104.734 107.012 106.209 104.127 104.122 104.137 104.187 104.214 104.209 104.244 104.364 106.647 106.979 108.947 104.982 107.252 110.126 109.321 106.844 105.199 105.004 109.879 112.614 109.366 107.036 106.956 106.694 107.686 108.294 108.709 109.106 108.804 105.696 104.336 107.639 107.341 104.266 103.969 104.564 105.459 105.664 110.229 109.771 103.241 103.116 104.989 110.679 105.719 110.904 106.669 104.946 103.674 104.789 105.756 107.819 111.636 106.724 107.054 107.164 109.339 112.166 108.434 107.164 107.774 107.771 106.936 109.401 112.594 113.056 107.566 110.321 111.021 109.096 113.879 108.781 117.099 118.064 116.141 117.411 117.254 110.926 107.734 117.371 113.284 111.174 111.529 112.729 111.336 107.856 112.224 119.201 113.069 106.306 110.301 109.354 108.179 113.944 116.729 110.871 110.486 115.294 110.541 116.479 114.116 107.821 105.634 106.884 110.796 109.709 114.341 109.756 113.349 111.386 108.756 107.374 111.439 106.689 102.971 102.681 102.554 105.386 112.569 107.236 113.594 116.476 115.116 111.889 103.589 105.544 102.794 109.119 102.046 104.514 111.706 105.751 104.439 102.519 102.794 110.054 110.089 108.154 112.454 110.231 104.621 106.664 107.434 108.581 106.959 112.489 107.504 107.274 109.951 107.039 110.391 111.604 112.804 109.971 108.044 108.976 109.899 110.564 111.101 108.349 108.006 115.669 113.026 115.941 114.114 114.093 111.449 117.641 112.148 112.214 112.191 112.243 114.121 112.261 113.296 117.243 114.759 110.211 109.523 108.578 110.406 111.889 111.456 112.334 113.269 112.121 114.281 114.556
100.323 100.3 100.308 99.88 91.838 78.893 77.198 77.168 77.195 77.175 77.15 77.083 76.938 76.94 76.878 77.978 77.325 76.935 77.283 77.268 76.845 76.725 76.355 76.073 75.903 77.053 78.918 79.337 76.967 81.565 86.102 81.27 76.327 77.067 80.77 78.19 81.585 82.4 82.815 81.697 80.462 81.36 76.9 82.792 85.585 78.965 76.79 76.822 76.857 76.885 78.057 78.87 80.14 82.04 82.305 80.97 81.047 81.222 81.84 82.337 84.95 86.78 85.485 81.642 81.735 82.667 83.287 85.072 87.552 88.182 87.672 85.065 87.875 86.97 83.322 82.73 82.902 83.112 83.12 83.332 83.757 84.24 83.645 83.575 83.637 83.677 83.74 83.9 83.962 84.892 84.957 85.06 85.555 85.642 89.767 94.395 94.237 93.732 91.21 90.502 91.65 91.957 92.187 91.757 92.062 93.422 98.087 99.302 100.32 100.325 99.317 98.305 93.105 92.637 94.952 98.217 97.09 96.047 104.057 107.765 103.81 97.602 98.727 99.102 94.05 92.497 93.682 98.884 100.029 100.289 100.017 99.709 97.682 92.577 92.262 92.332 94.437 99.307 99.752 100.094 100.092 100.612 100.009 99.244 95.094 95.129 94.337 92.899 95.679 96.362 96.807 97.887 96.397 94.534 95.572 93.907 93.394 93.587 93.902 95.972 96.994 95.364 98.304 98.812 99.617 103.317 106.367 101.674 99.424 104.842 101.229 103.699 101.644 105.639 106.777 107.409 102.934 102.817 101.624 102.339 103.952 103.669 105.819 106.434 106.402 102.799 103.462 104.124 104.144 104.167 102.894 105.047 107.957 106.719 105.419 105.042 105.122 105.177 105.547 106.864 108.029 108.567 105.512 111.502 111.562 110.154 108.064 109.527 109.682 105.934 104.687 106.612 106.472 104.364 104.254 104.204 104.222 104.502 105.537 105.689 105.092 104.424 104.509 106.734 110.677 105.422 107.277 106.479 105.031 106.286 105.231 105.074 106.074 107.356 107.291 106.344 104.821 105.464 106.636 108.116 109.056 108.926 108.024 104.614 105.611 107.266 108.914 104.621 104.126 105.911 105.974 110.891 105.814 108.399 104.421 103.316 103.324 108.351 110.521 105.919 105.091 105.261 103.854 104.846 109.284 110.141 106.619 104.709 108.264 108.789 106.796 111.589 111.714 107.531 108.811 106.919 106.691 108.426 114.099 113.019 110.346 107.206 109.794 116.614 113.929 115.694 115.711 114.631 124.844 113.476 115.074 108.326 113.126 112.361 118.419 109.756 114.431 108.224 110.916 112.624 116.006 115.339 116.419 106.886 110.174 107.614 109.869 113.431 106.041 105.486 111.344 115.699 113.614 113.376 112.081 108.024 106.121 104.856 105.989 109.666 114.329 115.519 117.886 106.676 105.611 106.419 103.526 108.079 104.859 107.594 103.541 106.466 106.454 105.491 106.386 105.879 109.899 111.239 105.576 109.674 107.784 104.826 102.824 104.929 110.316 104.771 106.156 108.334 106.581 108.196 111.461 108.829 112.271 110.391 104.649 105.944 107.664 108.024 108.821 105.779 105.816 107.359 106.086 106.999 110.361 110.006 109.211 109.616 108.386 109.826 110.849 109.534 109.059 110.776 108.601 110.994 114.599 109.791 113.358 113.038 110.251 114.754 111.686 110.864 108.934 115.233 116.926 117.309 112.504 120.718 118.796 114.421 109.571 111.706 111.174 113.434 113.799 113.474 116.858 112.069 111.091 110.521
100.403 100.395 100.358 98.74 87.38 78.158 77.315 77.29 77.29 77.288 77.243 77.123 77.14 77.015 78.058 77.235 76.778 76.733 76.74 76.728 76.78 76.96 77.173 76.705 76.57 76.39 76.078 76.77 76.52 76.365 77.015 76.595 76.585 77.1 82.045 78.757 76.73 78.28 80.032 81.547 79.13 78.067 82.797 89.1 82.017 76.832 76.837 76.862 76.902 76.965 77.027 77.542 78.64 79.522 82.315 82.292 81.16 81.387 82.392 82.245 83.242 85.107 84.23 81.557 81.65 82.887 84.857 85.137 85.06 86.11 86 88.572 87.57 85.63 85.212 86.29 82.805 83.152 83.14 83.312 83.47 83.702 83.575 83.585 83.652 83.745 83.815 83.85 83.925 83.92 83.932 84.262 86.27 87.637 86.182 91.812 89.64 89.107 96.915 98.742 94.477 91.477 92.99 91.595 91.827 92.127 94.605 98.66 99.672 100.532 99.952 98.91 96.615 93.285 94.612 96.072 99.105 98.102 105.665 103.122 102.07 100.507 97.88 92.4 92.375 93.64 96.912 99.522 100.134 99.692 99.979 99.462 96.229 92.904 93.862 93.894 92.329 94.067 96.932 98.649 99.584 99.874 99.729 97.722 92.914 92.444 93.042 93.877 95.792 96.399 97.892 100.232 100.174 99.239 96.004 94.887 93.092 93.002 93.114 96.684 96.364 98.289 99.447 96.772 97.559 100.652 97.934 101.769 103.352 105.449 104.369 104.087 101.859 111.109 109.472 110.699 103.167 102.762 100.767 103.289 103.564 103.747 104.497 103.862 104.662 102.404 103.697 104.557 103.417 103.799 101.187 101.229 101.074 103.794 105.004 105.024 104.897 104.922 104.879 104.887 104.884 105.362 106.967 108.824 110.134 108.952 107.502 105.159 104.877 104.767 106.714 106.757 104.579 104.382 104.354 104.272 104.369 105.589 105.159 105.587 106.169 105.777 104.592 104.602 105.547 106.132 104.879 104.879 104.869 104.931 105.071 105.389 105.296 105.196 106.299 105.499 106.329 103.646 105.069 105.994 107.241 108.431 105.431 104.316 105.534 107.271 107.274 105.796 105.604 111.329 108.321 109.831 106.779 105.211 103.581 103.506 103.516 107.831 107.731 109.334 107.821 105.166 104.226 105.446 108.866 110.909 108.996 109.964 113.686 108.474 108.499 106.221 110.609 111.264 109.556 106.756 106.836 108.526 111.059 116.211 119.119 112.469 118.421 116.829 114.049 114.274 114.021 115.351 112.134 107.781 108.704 113.516 113.934 114.446 114.731 107.134 114.059 113.651 112.634 113.756 113.126 110.759 114.594 109.889 115.064 115.014 109.689 122.516 109.574 109.929 113.304 113.449 112.306 109.031 111.771 112.289 108.726 108.129 107.444 108.641 114.404 113.964 110.446 107.344 108.919 103.569 104.904 103.876 108.946 105.516 104.116 103.524 105.751 112.131 106.511 108.341 110.261 111.566 103.186 103.111 110.569 108.859 104.611 102.944 104.469 107.754 109.556 105.479 112.501 106.924 107.821 110.074 114.961 108.359 107.654 114.221 111.141 109.156 104.744 110.929 110.724 113.744 111.836 109.181 112.531 112.399 107.924 111.296 108.709 109.894 107.146 107.586 109.861 113.981 111.704 119.004 117.739 115.916 112.606 113.179 113.841 114.136 111.084 117.686 114.599 115.404 114.026 114.023 112.309 114.339 113.561 112.956 108.354 108.476 110.934 111.936 108.901 108.523 108.399 111.748 111.781 113.396
100.375 100.683 100.913 97.005 83.725 77.963 77.378 77.35 77.355 77.388 77.29 77.273 77.303 77.265 81.133 83.15 81.78 79.405 78.345 77.148 76.71 76.693 76.728 76.753 76.81 76.785 76.74 76.74 79.747 79.792 79.605 80.762 80.105 77.22 77.332 77.135 80.812 79.877 78.75 77.282 77.097 83.952 78.875 82.87 77.37 76.887 76.877 76.905 76.93 76.972 77.015 77.072 79.657 79.175 81.51 82.177 81.34 81.997 81.732 82.735 83.875 81.395 81.462 81.56 81.63 82.492 84.622 84.955 84.91 84.21 89.162 89.437 88.677 86.845 87.935 89.05 87.062 84.137 83.28 83.362 83.56 83.697 83.587 83.61 83.72 83.777 83.84 83.922 83.98 83.977 86.41 87.045 92.217 92.292 90.587 88.675 93.82 97.592 100.345 101.827 101.867 96.585 93.465 91.327 91.555 92.042 92.155 97.365 99.33 100.127 100.495 99.57 98.555 94.557 97.19 97.532 101.805 100.552 101.122 103.62 96.17 100.14 102.625 95.057 92.232 94.857 97.8 99.699 100.132 99.599 99.932 99.144 95.714 92.542 94.669 92.207 92.252 92.302 92.722 94.224 95.712 96.739 98.814 95.549 93.612 93.239 92.902 93.497 93.082 94.082 99.189 100.619 100.937 100.669 100.364 100.079 97.989 94.659 93.299 94.712 94.904 95.454 96.867 95.899 95.707 98.349 100.729 107.062 107.802 106.197 105.677 112.527 107.664 106.579 109.252 104.702 103.654 102.612 100.427 104.237 103.434 103.832 104.509 103.799 103.867 102.869 104.269 104.967 105.017 104.754 102.072 100.957 101.392 104.104 105.429 104.912 104.932 104.922 104.877 104.867 104.894 105.969 107.279 107.927 108.199 107.967 106.897 104.787 104.849 105.364 107.387 105.167 104.517 104.482 104.394 104.417 105.794 106.589 105.494 105.677 106.169 106.532 105.374 104.724 104.707 104.827 104.937 104.986 105.011 104.996 105.071 105.249 105.619 106.301 105.674 107.211 108.024 105.869 105.361 105.986 105.321 105.274 106.164 104.964 105.011 106.951 109.701 107.749 105.376 107.634 108.579 110.774 106.726 103.896 103.799 105.729 104.199 106.519 107.121 111.391 107.309 107.464 104.481 105.261 107.276 106.901 111.659 111.706 109.396 109.296 109.619 110.206 119.696 115.836 111.724 107.501 106.881 112.649 113.329 113.744 116.341 117.139 115.904 115.846 113.371 112.826 111.309 112.971 112.684 108.559 108.609 115.841 120.189 110.246 113.254 109.601 108.831 114.101 111.499 120.674 118.914 111.844 109.846 106.489 111.341 115.654 110.576 116.199 112.969 111.376 117.409 111.811 105.119 109.079 107.029 108.389 107.789 116.651 109.529 108.924 105.424 109.824 107.449 107.816 110.486 109.416 103.981 103.904 108.404 106.236 113.814 105.521 107.924 105.881 114.881 111.971 109.064 109.294 104.239 106.709 109.646 104.909 105.011 102.916 103.289 105.821 111.676 108.189 108.889 109.884 109.341 109.189 112.454 112.311 109.144 111.459 108.499 109.276 107.251 107.761 113.549 115.546 115.416 110.401 109.836 110.759 109.744 108.564 107.551 109.139 106.881 106.854 107.699 112.031 116.479 112.289 116.349 121.674 112.764 110.008 114.266 115.029 115.104 117.691 118.831 111.756 110.806 111.534 111.424 111.131 109.834 109.494 107.669 107.618 109.156 111.576 107.581 111.839 111.979 110.881 113.118 112.631
100.41 100.67 100.295 92.553 81.458 77.638 77.48 77.445 77.52 77.458 77.43 77.363 77.45 77.605 82.148 84.068 82.518 81.043 80.973 81.045 77.563 76.775 76.708 76.71 76.728 76.743 76.775 76.757 76.937 77.085 80.985 84.272 83.855 81.04 80.692 79.447 78.195 78.535 84.15 83.657 89.2 85.947 78.632 76.97 76.98 76.972 76.95 76.955 76.982 76.965 77.017 77.12 80.512 77.992 78.577 83.462 80.9 82.24 82.612 81.492 82.057 81.295 81.392 81.502 81.64 82.35 82.85 84.54 83.247 85.192 88.627 89.402 89.482 88.857 88.93 88.99 86.825 83.662 83.205 83.225 83.777 83.725 84.53 83.83 83.695 83.775 83.827 83.882 83.957 84 85.48 87.172 88.985 91.262 89.08 90.715 98.795 99.075 97.345 92.995 101.552 93.54 96.997 92.59 91.177 91.615 92.292 93.372 98.41 99.432 100.447 100.082 97.932 94.352 99.3 101.185 100.04 103.54 102.047 94.89 98.142 92.68 93.407 93.215 93.087 95.672 98.647 99.174 99.454 99.689 99.609 97.259 93.202 92.584 92.152 92.189 92.149 92.157 92.229 92.322 92.514 92.627 92.684 92.654 93.094 93.782 93.564 93.102 93.619 94.544 100.147 100.812 100.034 100.609 100.899 100.384 99.077 95.422 92.999 94.662 95.177 94.747 95.942 95.807 95.569 95.637 96.714 100.917 104.919 101.077 102.704 106.027 106.229 110.729 106.357 105.224 102.879 101.262 102.004 104.114 103.529 104.272 103.897 103.992 103.619 102.809 104.734 105.094 105.012 105.264 103.424 101.302 102.757 104.422 105.204 104.947 104.952 104.942 104.927 104.939 104.939 106.649 107.207 108.262 108.449 107.702 107.679 106.577 105.584 106.102 106.657 104.699 104.609 104.537 104.489 105.439 105.909 105.172 105.269 105.519 105.802 105.682 107.307 107.324 105.539 104.854 104.932 105.036 105.166 105.156 105.159 105.174 105.431 108.644 108.991 111.759 109.099 106.494 107.451 109.099 108.816 108.404 105.674 104.614 104.571 104.714 105.181 106.374 106.146 105.441 111.229 107.609 105.806 104.114 104.074 107.599 109.276 104.509 105.994 106.526 107.131 106.214 104.664 104.654 106.711 108.806 106.986 105.206 108.041 109.531 109.484 115.356 117.834 113.471 111.621 106.949 107.134 108.019 111.169 116.279 110.779 108.414 110.299 113.764 116.109 112.551 117.449 113.646 114.251 114.319 109.501 111.579 117.066 107.676 107.154 111.959 108.786 117.036 114.814 114.331 118.346 113.039 111.896 111.054 106.449 113.294 112.591 110.674 111.851 110.666 107.711 108.269 108.271 105.266 108.406 105.186 105.121 109.524 107.104 107.664 108.286 106.531 104.981 114.246 107.759 106.246 104.631 103.316 104.601 105.044 112.056 108.109 105.409 103.329 105.321 111.916 108.136 108.734 105.469 106.534 104.369 103.939 104.084 104.024 103.649 103.936 106.304 106.914 103.751 103.436 103.926 108.206 110.509 110.654 111.236 112.186 109.479 110.141 106.716 110.586 111.501 116.706 115.221 112.696 112.071 110.174 111.899 109.411 106.406 108.846 110.776 108.246 107.581 112.409 111.694 116.909 110.526 115.108 118.979 115.574 112.486 117.401 115.496 116.776 114.818 113.563 110.691 110.989 113.156 114.474 113.346 110.366 110.334 107.621 108.791 109.809 111.034 118.001 114.674 117.381 112.914 113.876
100.733 100.71 98.615 88.945 78.435 77.68 77.58 77.628 77.645 77.615 77.575 77.475 77.61 77.668 81.278 82.83 81.848 80.955 80.965 79.865 76.873 76.81 76.738 76.725 76.728 76.713 76.703 76.73 76.767 76.777 81.055 83.962 83.847 83.645 85.747 79.965 78.55 80.8 81.932 77.175 79.49 82.967 79.247 77.01 77.01 77.037 77.017 77.02 77.037 77.005 77.037 77.117 77.55 77.462 77.357 78.63 78.707 80.972 82.642 81.717 81.327 81.155 81.245 81.375 81.687 82.772 82.917 83.335 81.752 81.72 84.55 88.297 89.262 89.567 89.112 87.325 84.512 83.42 83.117 83.265 83.465 84.025 83.837 83.642 84.272 83.725 83.82 83.872 83.935 84.005 86.23 91.755 92.365 91.882 89.437 87.365 96.667 98.925 98.385 95.545 96.86 95.552 93.41 93.845 92.345 91.235 92.352 92.142 96.012 98.797 99.81 99.652 98.337 98.732 101.037 101.112 100.587 98.595 96.757 96.207 96.252 91.832 91.91 92.152 93.61 95.64 95.705 96.569 97.304 99.032 99.164 96.629 93.217 92.754 92.147 92.159 92.174 92.182 92.197 92.184 92.237 92.357 92.294 92.534 92.904 93.012 93.652 93.184 93.889 97.812 100.392 100.949 100.912 99.774 100.787 100.127 97.524 94.527 93.079 93.369 93.579 93.984 95.469 95.249 95.397 95.579 97.167 98.547 103.729 102.942 103.202 102.699 106.182 106.494 103.534 105.859 103.097 100.759 101.362 103.322 104.219 104.727 104.627 104.144 102.484 104.499 104.752 104.997 104.372 103.289 102.249 103.179 104.594 108.139 106.479 105.089 104.934 104.987 105.032 104.987 105.004 106.672 107.917 108.427 108.732 108.049 107.942 107.532 105.284 105.124 105.544 104.814 104.739 104.617 104.807 105.367 105.294 105.397 105.409 105.382 105.309 105.299 106.112 108.544 108.104 105.832 105.027 105.086 105.174 105.236 105.349 105.281 105.321 105.899 109.136 111.301 110.321 109.294 109.326 107.906 106.981 105.999 104.859 104.679 104.631 104.604 104.739 106.609 108.086 112.164 115.096 109.806 105.429 104.309 105.719 108.691 108.846 107.674 104.494 106.301 108.849 105.094 108.224 107.354 105.369 106.611 106.019 105.421 105.826 106.101 107.974 110.129 113.679 113.251 110.334 110.564 108.389 109.234 110.621 110.586 115.726 112.056 111.169 107.731 113.511 113.509 113.324 113.589 114.761 117.711 112.846 109.519 114.446 109.931 113.826 112.944 107.071 110.191 118.404 115.551 112.049 112.406 112.109 113.901 107.171 110.119 114.111 113.796 105.811 112.476 112.051 115.339 116.426 108.706 111.981 105.049 106.251 105.729 112.796 112.714 110.599 112.116 106.249 111.356 110.314 103.964 104.289 103.646 103.204 107.071 110.329 106.404 108.936 104.914 105.546 110.739 107.371 107.269 107.221 105.641 103.011 102.744 102.911 103.229 103.499 104.144 104.561 104.059 103.334 105.961 105.546 109.629 111.761 110.354 107.176 108.456 108.166 111.644 110.414 108.426 111.656 117.234 118.926 115.541 111.104 109.911 108.964 109.506 107.116 109.384 111.101 108.696 108.364 111.141 113.676 114.244 110.829 110.121 112.659 117.781 113.506 111.231 111.891 115.451 111.593 114.093 114.029 114.604 111.273 113.229 112.743 109.194 108.789 107.664 109.566 112.773 113.491 115.011 120.409 122.321 116.148 111.716
99.508 99.695 95.373 83.115 77.813 77.695 77.703 77.685 77.728 77.635 77.66 77.81 77.765 78.92 80.22 78.905 80.648 80.915 80.928 78.78 77.335 76.888 76.785 76.78 76.785 76.798 77.18 78.335 77.425 78.405 76.902 78.037 78.325 81.195 88.817 87.235 83.327 83.205 82.642 82.592 78.372 87.035 78.337 77.055 77.077 77.085 77.062 77.062 77.082 77.077 77.092 77.162 77.207 77.317 77.405 77.495 78.205 80.8 84.922 87.052 83.747 81.617 81.17 81.23 81.892 82.552 82.675 81.86 81.62 81.69 82.317 83.845 88.18 89.187 89.657 85.97 88.5 87.047 83.487 82.705 84.812 83.772 83.232 84.907 84.377 83.7 83.84 83.86 83.88 83.952 87.772 86.727 89.74 89.202 86.747 92.74 94.527 94.992 94.492 90.017 90.052 95.272 92.222 91.902 90.667 90.795 91.397 92.282 92.15 97.892 99.185 99.667 100.665 102.59 101.702 96.88 91.995 95.017 98.815 94.972 96.36 91.735 91.91 92.272 95.1 95.675 95.615 94.707 92.249 93.119 94.612 93.397 96.087 94.467 92.179 92.204 92.209 92.232 92.232 92.227 92.232 92.299 92.307 92.924 92.662 92.587 92.777 93.059 93.119 96.707 99.537 100.212 100.544 100.787 100.542 99.737 96.637 93.812 93.437 93.529 94.552 95.107 95.252 95.112 95.239 95.494 97.099 98.524 100.557 103.332 103.504 104.507 101.369 103.884 102.529 105.904 102.747 101.089 100.234 100.129 100.352 104.679 105.969 104.767 102.527 104.682 105.204 105.002 101.877 101.847 101.849 103.047 104.302 107.712 107.464 107.287 106.932 106.249 106.524 106.094 104.999 105.032 106.062 107.834 108.282 107.274 107.854 106.349 105.289 105.169 105.039 104.892 104.824 104.727 105.274 105.234 105.442 105.544 105.604 105.992 105.417 105.307 105.332 105.414 106.402 107.269 106.167 105.151 105.114 105.251 105.376 105.414 105.441 105.464 105.571 108.079 107.451 107.601 106.661 105.824 107.106 105.649 105.309 105.214 106.779 105.281 106.289 107.939 107.951 108.506 111.271 110.336 112.554 105.526 105.941 107.836 105.389 105.026 106.631 109.399 110.069 109.181 107.106 108.719 106.031 112.519 112.051 109.989 112.204 110.371 109.249 109.591 113.566 113.381 110.204 113.969 110.769 109.601 108.296 108.754 112.699 112.284 110.119 113.749 112.856 119.839 120.541 111.424 119.884 113.086 113.401 110.846 111.936 118.549 108.124 107.264 107.234 112.016 108.869 118.701 112.161 113.236 114.609 115.616 109.174 114.434 107.126 111.584 107.169 109.029 108.761 111.804 107.236 106.349 106.431 108.886 109.781 108.196 110.816 106.661 105.991 110.686 109.776 104.346 106.696 104.936 103.756 103.706 103.426 105.279 111.656 105.909 108.909 107.641 109.531 104.959 110.569 106.551 104.926 102.931 102.989 103.286 103.624 103.321 103.474 103.529 103.454 103.414 103.631 105.936 112.559 108.071 111.339 112.076 114.081 109.501 107.949 109.354 106.121 104.879 108.299 112.996 112.771 107.911 109.674 113.324 106.596 106.704 106.736 108.289 109.984 109.704 110.804 114.401 113.651 117.944 112.734 115.471 112.236 112.974 113.996 111.909 115.769 114.644 112.438 110.371 112.148 113.563 114.741 111.964 112.931 112.111 112.409 112.351 113.166 111.951 115.856 123.891 122.121 119.729 107.941 111.474
98.123 97.978 87.938 79.05 77.87 77.753 77.79 77.835 77.783 77.788 77.755 77.755 77.888 78.848 80.05 79.668 80.123 79.995 82.54 81.973 78.215 76.98 77.178 76.923 76.905 77.15 78.098 79.862 79.82 79.355 78.275 78.1 77.087 77.34 80.22 83.707 85.962 84.057 86.195 81.912 87.452 77.145 77.265 77.08 77.13 77.145 77.13 77.137 77.167 77.165 77.175 77.207 77.29 77.352 77.442 77.517 77.557 78.35 83.855 87.362 87.245 85.11 81.125 81.462 82.855 82.52 81.837 81.495 81.567 81.625 82.552 82.747 84.88 87.792 84.98 89.47 89.672 88.892 86.665 86.395 88.037 86.967 84.282 84.325 83.277 83.685 83.932 83.977 84.005 84.062 86.052 86.552 87.972 87.805 85.65 90.79 90.232 90.75 91.417 88.462 92.512 92.657 92.4 91.252 90.367 90.53 90.637 91.58 92.135 93.975 97.692 98.617 102.755 101.502 101.307 94.652 93.587 95.055 94.24 91.14 91.91 91.635 91.98 92.157 92.2 93.38 95.675 94.937 92.399 92.174 92.157 93.872 94.424 92.179 92.204 92.227 92.249 92.224 92.249 92.277 92.282 92.262 92.287 92.392 92.439 92.552 92.599 92.657 92.727 93.537 93.647 96.387 98.689 99.787 100.182 98.379 95.984 94.472 95.677 94.122 98.567 96.107 94.794 94.989 95.122 96.067 100.182 103.467 106.064 104.632 101.347 103.179 101.664 105.072 105.684 108.607 105.139 100.792 100.764 100.607 100.164 102.464 103.014 105.189 103.049 104.952 105.297 104.202 102.559 102.197 101.844 102.869 105.987 107.469 107.212 106.849 106.814 107.687 108.082 107.472 107.544 106.224 106.847 107.347 106.019 105.107 105.429 105.564 105.242 105.249 105.127 105.032 104.944 104.894 106.367 105.382 105.534 105.597 108.977 106.919 105.714 105.522 105.312 105.337 105.329 106.349 107.802 106.824 105.329 105.304 105.381 105.499 105.549 105.591 105.621 105.879 106.154 106.489 107.371 109.221 109.941 109.079 106.636 106.534 108.056 109.796 108.669 106.884 107.436 107.924 107.306 112.301 108.251 104.731 104.769 104.824 105.064 106.199 111.549 111.921 111.441 112.619 113.114 109.511 112.366 109.511 111.991 115.191 108.996 112.401 109.336 110.549 113.844 112.256 109.269 111.399 110.841 114.369 113.696 111.846 108.831 115.514 111.504 113.404 113.841 113.314 116.416 113.691 121.316 126.226 111.836 113.436 118.286 119.351 110.379 107.454 111.601 108.599 115.134 114.099 110.001 112.294 115.376 116.091 112.354 110.314 106.889 106.019 110.246 110.886 114.699 112.604 110.169 109.701 113.764 110.499 112.316 111.099 105.666 107.239 106.154 108.231 108.761 107.326 110.179 107.154 104.539 103.504 103.676 104.221 105.364 104.894 104.886 103.689 111.064 105.771 108.519 106.276 103.466 103.069 103.429 103.061 103.254 103.366 103.466 103.704 103.386 103.464 107.524 108.371 111.369 114.086 113.169 108.994 112.861 112.146 106.849 107.194 107.424 105.261 113.381 108.974 108.959 106.976 110.324 110.276 107.881 107.249 106.666 109.381 116.611 114.986 114.131 110.489 117.129 115.929 111.436 115.116 116.493 112.836 110.566 115.449 114.651 116.641 115.644 110.371 112.769 113.701 113.174 110.599 112.324 114.221 117.626 114.394 113.764 112.089 114.486 116.304 114.136 116.391 109.011 115.361
