ncols 429
nrows 32
xllcorner    525092
yllcorner    187856
cellsize     2
NODATA_value -9999
71.112 70.242 70.302 70.767 68.905 72.39 69.442 73.39 66.59 66.652 66.7 66.767 66.802 66.795 67.427 67.147 69.042 68.977 70.835 71.187 73.532 74.61 75.29 76.192 76.137 75.047 73.212 69.09 69.252 69.47 68.03 66.545 66.532 66.96 67.2 68.755 69.292 69.202 66.972 66.805 66.475 67.93 66.395 66.672 69.167 71.4 71.282 70.195 68.53 66.33 66.345 67.132 66.255 66.635 67.65 69.545 74.86 70.502 71.062 70.547 69.652 66.58 67.517 72.055 70.087 69.36 66.58 66.6 66.635 66.65 66.722 66.782 67.67 68.692 66.932 67.432 67.425 68.402 67.307 67.452 67.4 67.465 67.535 67.575 67.612 67.61 68.095 68.35 67.957 68.025 68.125 67.95 67.962 68.327 68.087 68.332 68.727 68.332 70.712 70.772 69.192 74.047 77.07 73.127 71.282 75.777 71.479 69.469 70.042 69.812 69.147 69.079 69.189 69.269 69.332 69.354 69.429 69.462 69.509 69.602 69.639 69.654 69.682 69.757 69.837 69.912 69.954 70.037 70.127 70.207 70.294 70.349 70.419 70.497 70.557 70.649 70.732 70.824 70.902 70.977 71.047 71.112 71.154 71.219 71.252 71.392 71.562 71.954 71.799 71.672 71.764 71.812 71.877 71.929 74.317 75.409 75.392 73.759 76.127 74.414 73.602 72.762 72.797 72.902 73.557 73.714 74.164 73.584 73.172 73.144 73.199 75.174 76.277 76.344 74.534 73.902 74.557 76.557 76.359 76.297 76.602 75.889 74.359 73.439 73.832 73.937 77.112 77.114 82.152 78.887 80.429 77.802 74.719 77.064 74.649 75.349 75.137 74.839 73.512 73.402 73.399 73.392 73.374 73.359 73.372 73.394 73.422 73.917 75.827 76.057 74.079 73.194 74.837 80.064 81.307 80.279 79.802 76.794 73.267 74.587 74.267 73.034 73.084 73.329 74.079 74.449 73.672 73.167 73.114 73.137 73.089 73.057 72.964 73.012 74.647 74.084 74.157 73.279 77.242 78.914 73.969 75.149 73.302 73.659 75.487 73.429 76.854 73.752 74.557 75.107 77.337 80.619 79.569 77.677 77.014 72.619 73.191 73.049 73.151 73.404 73.256 73.749 75.021 74.649 72.766 74.349 73.834 73.374 75.564 80.106 78.476 75.304 72.489 73.166 72.191 72.201 72.209 72.171 72.156 72.139 72.099 72.101 72.094 72.081 72.084 72.089 72.119 72.071 72.076 72.111 72.084 72.111 72.229 77.244 77.436 74.081 73.726 72.806 72.734 72.666 72.776 73.521 72.561 72.294 72.341 72.369 72.369 72.374 72.391 72.444 72.456 72.504 72.536 72.549 72.559 72.586 72.611 72.634 72.669 72.681 72.684 72.676 72.709 72.729 72.751 72.766 72.796 72.829 72.861 72.904 72.961 72.964 72.984 72.986 72.991 72.999 73.019 73.054 73.089 73.076 73.124 73.146 73.174 73.196 73.219 73.249 73.279 73.291 73.326 73.356 73.374 73.416 73.416 73.449 73.494 73.509 73.514 73.559 73.584 73.649 73.689 73.724 73.754 73.786 73.816 73.866 73.896 73.911 73.934 73.976 74.039 74.061 74.089 74.121 74.164 74.214 74.259 74.324 74.436 74.461 74.486 74.531 74.561 74.604 74.669 74.741 74.861 76.196 78.286 77.949 78.079 79.539 81.176 77.799 75.541 75.371 75.394 75.354 75.289 75.274 75.294 75.331 75.419 75.479 75.551 75.614 75.676 75.744 75.791 75.854 75.906 75.966 76.024 76.091 76.174 76.199 76.251 76.296 76.369 76.424 76.511 76.606 76.666 76.724 76.784 76.826 76.849 76.899 76.964
71.657 71.305 68.527 69.375 72.662 70.212 66.715 66.577 66.61 66.662 66.89 66.852 66.82 66.852 67.05 69.06 72.987 73.727 73.462 67.63 71.502 74.542 75.9 76.13 75.282 74.635 73.75 69.917 69.122 67.425 66.507 66.422 66.475 66.977 67.23 68.852 69.917 68.655 67.205 66.602 66.915 66.457 66.437 66.397 66.697 68.3 66.945 69.145 68.57 66.695 66.797 72.077 68.452 68.277 69.59 70.99 72.822 70.465 71.142 70.872 70.567 69.29 70.177 75.167 71.435 70.02 66.917 66.64 66.672 68.282 66.822 66.84 66.875 66.865 66.882 66.93 67.025 67.33 67.332 67.315 67.335 67.51 68.26 67.575 67.682 67.727 67.76 67.76 67.785 67.782 68.002 68.51 68.112 68.377 71.46 74.872 75.895 68.322 69.605 70.83 73.632 73.04 73.36 74.367 70.529 71.519 70.784 68.944 71.124 71.249 70.362 69.772 69.272 69.222 69.284 69.377 69.449 69.499 69.544 69.629 69.687 69.722 69.719 69.757 69.842 69.894 69.964 70.039 70.107 70.229 70.307 70.387 70.474 70.552 70.624 70.684 70.769 70.844 70.919 70.994 71.069 71.149 71.217 71.274 71.309 71.357 71.567 72.059 71.769 71.624 71.724 72.594 73.007 75.742 74.512 77.264 76.154 81.349 76.614 78.302 75.442 72.784 72.812 72.844 72.887 73.372 74.322 74.119 73.142 73.079 73.792 75.607 77.727 76.822 77.549 76.434 74.104 73.464 75.679 76.547 76.864 76.119 74.547 73.484 74.164 74.104 80.072 79.004 75.947 77.934 76.677 77.394 77.009 75.942 76.174 75.522 74.072 74.014 73.399 73.377 73.372 73.359 73.337 73.329 73.352 73.394 73.424 74.649 74.797 75.194 73.584 74.967 78.612 81.779 81.642 80.414 81.347 76.379 74.944 76.114 73.137 73.109 73.082 73.027 73.184 73.842 74.074 73.189 73.082 73.057 73.059 73.062 72.977 72.922 72.932 72.927 72.959 73.239 77.279 78.557 78.067 76.582 74.277 72.849 74.024 74.234 75.014 75.112 76.704 73.369 78.049 78.459 80.359 77.557 73.741 72.974 72.976 72.984 72.916 73.194 73.809 75.411 77.251 76.424 73.699 73.349 74.094 72.094 74.614 75.269 74.274 73.334 72.636 72.729 72.119 72.161 72.211 72.164 72.089 72.064 72.051 72.051 72.041 72.009 71.986 71.994 72.016 72.066 72.049 72.111 72.116 73.519 74.864 75.196 79.064 75.904 74.974 73.864 73.359 73.494 72.216 72.276 72.251 72.296 72.314 72.309 72.304 72.344 72.371 72.399 72.426 72.464 72.491 72.521 72.544 72.561 72.571 72.621 72.639 72.681 72.669 72.686 72.716 72.739 72.764 72.771 72.821 72.819 72.856 72.899 72.941 72.954 72.979 72.979 72.981 72.999 73.046 73.074 73.086 73.104 73.121 73.146 73.179 73.196 73.209 73.214 73.261 73.289 73.319 73.356 73.401 73.446 73.444 73.454 73.486 73.509 73.534 73.554 73.599 73.654 73.679 73.716 73.739 73.769 73.799 73.836 73.871 73.906 73.949 73.996 74.019 74.044 74.084 74.136 74.184 74.214 74.246 74.324 74.434 74.496 74.491 74.541 74.569 74.581 74.644 74.731 74.824 75.834 75.626 79.151 80.966 79.174 79.271 77.691 75.461 75.454 75.521 75.609 75.364 75.306 75.356 75.406 75.456 75.521 75.589 75.661 75.716 75.761 75.816 75.879 75.944 75.976 76.044 76.104 76.189 76.224 76.286 76.326 76.399 76.491 76.554 76.636 76.721 76.771 76.861 76.889 76.896 76.954 77.046
67.075 71.307 67.94 68.267 70.217 69.552 67.042 66.64 66.63 66.69 66.775 66.942 66.89 66.92 66.882 67.18 73.38 74.745 74.255 72.29 72.292 73.93 74.902 74.357 73.762 73.02 71.915 69.727 69.052 67.232 66.522 66.55 66.455 67.157 68.045 69.46 71.375 67.825 66.505 66.53 66.582 66.472 66.407 66.402 66.43 66.655 67.255 68.707 67.425 68.547 69.635 72.612 70.612 68.227 67.492 66.417 66.26 67.407 68.055 68.937 70.405 69.752 72.987 74.482 74.012 75.772 68.495 70.215 66.625 72.472 69.135 71.735 69.165 66.915 66.98 67.025 67.052 67.012 67.072 67.235 67.215 67.532 68.397 68.622 68.252 67.742 67.81 67.867 67.937 67.952 67.95 67.982 68.01 69.08 71.68 72.395 71.54 72.662 74.47 71.355 73.722 75.895 71.137 76.785 68.737 69.597 69.294 68.844 68.934 69.112 69.522 70.407 69.349 69.397 69.599 69.347 69.432 69.502 69.584 69.672 69.739 69.779 69.814 69.804 69.829 69.917 70.004 70.109 70.192 70.267 70.324 70.412 70.469 70.584 70.662 70.742 70.809 70.874 70.947 71.022 71.094 71.192 71.254 71.324 71.374 71.357 71.422 71.492 71.639 71.719 71.769 74.007 73.899 75.689 77.747 77.362 77.179 77.032 77.089 74.947 74.384 72.774 72.832 72.864 72.879 73.199 73.089 73.129 73.014 73.029 73.659 75.692 75.402 74.482 75.892 77.357 76.029 77.092 75.232 74.899 75.527 75.884 75.162 73.644 73.984 74.982 78.537 76.012 75.124 75.207 76.769 80.067 78.749 76.702 74.997 74.072 73.814 73.994 73.339 73.332 73.322 73.329 73.309 73.427 74.217 73.884 73.457 73.717 74.042 74.342 73.634 74.447 77.282 80.194 82.149 82.144 81.754 79.902 76.479 73.877 74.729 75.569 77.847 73.104 72.989 73.519 73.919 73.374 73.469 73.012 72.974 73.007 72.979 72.969 72.877 72.854 72.879 73.464 77.674 82.144 76.174 74.487 76.494 73.054 73.067 73.692 72.559 73.987 73.489 77.699 77.807 74.634 76.624 72.949 74.671 73.236 73.241 73.294 72.901 72.669 76.614 74.276 76.289 75.524 76.456 74.254 73.371 72.396 72.459 73.744 74.941 73.991 74.854 72.699 72.129 72.126 72.149 72.091 72.039 72.019 72.001 72.001 72.011 71.986 71.929 71.949 71.934 72.029 72.141 72.359 72.351 75.874 77.576 76.664 80.394 76.151 76.504 74.971 72.556 72.774 72.204 72.209 72.236 72.236 72.246 72.286 72.294 72.329 72.341 72.376 72.399 72.424 72.461 72.516 72.551 72.576 72.574 72.589 72.634 72.656 72.669 72.686 72.704 72.716 72.756 72.789 72.831 72.836 72.846 72.871 72.914 72.924 72.959 72.986 73.004 73.019 73.064 73.099 73.129 73.111 73.134 73.169 73.154 73.206 73.206 73.239 73.256 73.296 73.311 73.351 73.401 73.451 73.464 73.476 73.519 73.526 73.554 73.556 73.609 73.656 73.689 73.699 73.756 73.769 73.796 73.826 73.851 73.894 73.934 73.999 74.024 74.081 74.116 74.131 74.181 74.211 74.254 74.311 74.411 74.479 74.514 74.554 74.564 74.571 74.639 74.686 74.769 74.909 75.659 76.929 78.636 78.329 79.051 77.781 75.854 75.514 75.481 75.609 75.509 75.361 75.374 75.434 75.501 75.576 75.621 75.689 75.754 75.799 75.856 75.899 75.941 75.989 76.056 76.109 76.216 76.271 76.321 76.386 76.464 76.516 76.576 76.666 76.729 76.776 76.856 76.919 76.951 77.009 77.081
66.437 68.64 66.47 66.485 70.297 71.48 69.227 67.912 66.652 66.742 66.74 67.107 68.352 69.91 69.937 68.957 71.715 74.322 74.825 73.647 74.635 73.985 73.387 71.515 69.97 68.145 69.132 67.737 68.85 68.187 67.95 67.882 66.615 68.297 68.875 67.452 69.955 67.582 66.53 67.262 66.947 66.485 66.45 66.48 66.417 66.477 66.697 66.995 66.752 71.555 73.02 69.815 69.45 67.61 66.872 66.09 66.047 66.125 66.15 66.202 67.715 67.242 69.272 71.65 73.892 69.565 70.742 74.242 70.015 69.052 66.677 73.01 69.88 68.9 67.007 67.095 67.117 67.162 67.142 67.172 67.2 67.312 68.22 68.61 68.365 67.8 67.71 67.855 67.96 68.035 68.075 68.13 68.14 68.142 68.602 70.467 68.77 73.467 74.517 73.812 73.585 72.155 71.392 71.392 70.992 70.082 68.894 68.964 69.424 69.277 69.112 69.442 70.159 69.549 69.432 70.187 69.687 69.507 69.597 69.694 69.754 69.799 69.874 69.912 69.909 69.962 70.064 70.159 70.224 70.302 70.362 70.447 70.522 70.602 70.692 70.762 70.842 70.927 70.994 71.082 71.154 71.232 71.304 71.374 71.427 71.404 71.447 71.537 71.602 71.702 74.324 75.149 74.387 76.829 75.609 74.547 75.992 76.799 78.917 75.832 74.027 72.727 72.819 72.874 72.864 72.967 72.952 72.999 73.007 73.012 73.084 73.714 75.644 73.337 73.369 73.867 77.312 78.007 78.152 77.399 75.669 79.362 77.089 75.634 75.564 80.539 81.234 78.507 73.619 73.274 77.057 77.757 77.254 80.387 78.532 77.317 74.592 73.342 73.314 73.304 73.289 73.292 73.309 73.859 74.664 73.689 73.812 73.752 74.172 73.494 73.097 73.139 73.264 77.067 81.389 82.369 82.712 80.572 80.977 79.477 78.654 80.372 80.957 77.652 74.457 73.659 73.422 73.552 73.082 73.304 73.009 73.424 73.434 72.954 72.894 72.839 72.822 73.682 75.487 78.749 77.147 77.042 73.187 73.117 75.044 72.912 74.304 74.619 73.677 75.692 75.034 73.667 74.024 73.922 73.646 72.556 72.981 73.026 72.859 72.606 73.891 76.136 76.551 75.589 75.244 72.904 72.579 72.911 72.754 73.481 73.584 74.729 74.324 72.584 72.119 72.074 72.046 72.044 71.994 71.966 71.964 71.934 71.949 71.934 71.919 71.899 71.929 72.101 72.719 72.491 72.691 74.506 76.951 75.391 76.576 76.604 74.059 74.241 72.944 72.174 72.174 72.184 72.201 72.211 72.224 72.241 72.279 72.299 72.324 72.351 72.374 72.411 72.449 72.491 72.531 72.546 72.571 72.601 72.629 72.644 72.649 72.681 72.694 72.716 72.754 72.779 72.816 72.834 72.849 72.859 72.906 72.954 72.991 73.004 72.999 73.026 73.039 73.069 73.101 73.129 73.144 73.169 73.169 73.201 73.211 73.219 73.261 73.281 73.301 73.331 73.369 73.426 73.471 73.499 73.529 73.549 73.559 73.594 73.601 73.646 73.704 73.699 73.739 73.771 73.824 73.816 73.854 73.894 73.946 73.984 74.036 74.086 74.129 74.154 74.191 74.214 74.266 74.311 74.374 74.459 74.514 74.536 74.574 74.569 74.621 74.691 74.731 74.856 75.341 77.779 77.069 79.334 77.894 78.449 76.754 75.601 75.491 75.556 75.576 75.411 75.404 75.441 75.511 75.586 75.644 75.699 75.764 75.839 75.871 75.934 75.979 76.016 76.089 76.169 76.244 76.319 76.404 76.471 76.524 76.574 76.584 76.674 76.749 76.821 76.889 76.936 76.956 77.036 77.119
66.382 66.43 66.472 71.437 69.005 69.385 69.22 67.265 66.692 66.73 69.145 71.592 73.107 73.365 72.582 71.677 68.597 73.712 74.395 73.73 72.912 71.897 68.915 67.247 66.817 66.852 67.022 66.777 67.902 68.95 69.627 69.812 68.967 67.505 66.855 66.367 70.052 69.442 67.065 66.665 66.78 66.66 67.435 68.025 66.532 66.787 67.597 71.21 69.637 68.877 68.405 68.8 69.79 69.5 67.252 66.04 66.31 66.105 66.125 66.175 66.185 66.247 67.46 69.392 69.51 70.085 71.55 70.457 70.202 72.887 69.457 71.1 71.01 67.125 67.417 67.12 67.14 67.795 67.242 67.25 67.352 67.385 67.442 67.485 67.585 67.637 67.717 67.805 68.002 67.957 68.265 68.112 68.76 68.275 68.282 68.282 68.327 68.975 75.312 75.39 71.372 70.077 69.99 69.59 68.967 69.602 69.352 69.909 70.312 70.189 70.232 69.767 69.272 69.339 69.854 70.309 70.222 69.512 69.612 69.704 69.772 69.824 69.904 69.974 71.999 73.499 72.859 71.849 71.509 70.334 70.419 70.524 70.597 70.627 70.722 70.784 70.867 70.942 71.032 71.122 71.214 71.272 71.349 71.392 71.414 71.462 71.474 71.552 71.627 71.739 71.774 73.679 73.492 74.742 75.309 74.094 76.169 73.499 77.219 74.099 72.699 72.662 72.799 72.894 72.942 72.962 72.984 72.992 73.019 73.049 73.047 73.064 73.222 73.197 73.277 73.709 74.369 76.139 77.269 77.944 78.704 74.864 78.067 76.277 76.352 80.529 80.687 76.902 75.577 73.937 75.134 77.169 77.079 80.624 78.704 79.449 76.732 73.744 73.299 73.289 73.272 73.272 73.374 73.417 73.517 73.887 73.834 73.119 73.437 72.972 72.997 73.002 73.304 73.612 79.534 79.849 82.632 82.272 82.179 80.629 80.104 81.612 80.314 78.562 75.909 73.164 73.574 74.509 73.414 73.432 73.942 72.924 73.827 73.094 72.864 72.797 72.787 73.309 72.732 74.814 73.309 73.509 76.032 72.934 79.932 74.589 78.097 76.952 75.189 73.227 72.989 72.627 74.017 72.127 72.366 72.591 72.791 72.731 72.619 72.486 75.086 75.831 75.734 75.406 74.606 73.336 73.309 71.906 73.259 73.426 74.436 74.144 73.414 72.251 71.954 71.989 71.976 71.979 71.951 71.909 71.909 71.921 71.929 71.884 71.884 71.866 71.929 72.204 72.391 72.376 72.486 73.589 74.751 79.546 78.121 76.406 74.474 73.131 72.149 72.169 72.141 72.141 72.176 72.196 72.211 72.249 72.284 72.316 72.331 72.356 72.354 72.386 72.416 72.461 72.489 72.516 72.554 72.566 72.619 72.631 72.636 72.671 72.699 72.736 72.754 72.771 72.811 72.831 72.849 72.879 72.921 72.929 72.956 72.976 72.989 72.991 73.049 73.066 73.096 73.121 73.149 73.189 73.176 73.196 73.211 73.204 73.246 73.294 73.314 73.351 73.376 73.449 73.481 73.504 73.549 73.561 73.581 73.599 73.631 73.669 73.684 73.729 73.744 73.776 73.809 73.826 73.859 73.911 73.956 74.001 74.039 74.099 74.144 74.166 74.216 74.216 74.269 74.311 74.374 74.451 74.529 74.556 74.561 74.579 74.621 74.686 74.716 74.854 76.574 78.229 77.924 77.809 77.416 79.146 75.574 75.624 75.684 75.676 75.551 75.469 75.434 75.476 75.526 75.614 75.664 75.726 75.799 75.861 75.896 75.964 76.021 76.069 76.134 76.206 76.264 76.349 76.424 76.499 76.594 76.614 76.654 76.704 76.759 76.839 76.916 76.959 76.994 77.091 77.171
66.37 66.427 67.072 66.712 67.332 70.127 68.82 66.977 68.042 69.665 73.065 74.205 74.817 74.062 74.055 74.727 70.717 71.64 72.127 70.35 70.085 70.54 68.28 66.727 66.66 67.342 66.85 66.635 67.272 69.797 70.1 69.977 68.947 66.947 66.42 66.595 69.975 70.25 68.212 66.84 67.037 66.537 66.902 67.177 66.962 70.572 74.365 71.98 68.275 67.237 67.325 69.33 69.84 69.235 67.117 66.032 66.297 66.047 66.095 66.175 66.187 66.182 66.317 66.412 69.935 69.575 69.487 70.527 73.345 73.732 70.722 72.212 71.785 77.232 68.052 67.072 68.902 69.98 67.625 67.342 67.42 67.477 67.61 67.737 67.7 67.82 67.797 67.86 67.882 69.627 70.347 70.332 69.91 70.377 68.85 68.347 71.172 69.925 75.937 72.35 69.155 70.377 69.227 69.175 69.392 69.232 69.259 69.674 69.587 69.734 70.307 70.022 69.407 70.062 70.597 69.554 72.907 69.569 69.622 69.704 69.782 69.849 69.937 70.019 73.182 75.572 74.849 75.174 74.249 70.387 70.482 70.572 70.624 70.684 70.754 70.837 70.912 70.984 71.064 71.142 71.227 71.304 71.392 71.444 71.482 71.514 71.499 71.594 71.637 71.744 71.849 71.927 73.244 72.614 73.964 72.917 75.064 77.074 76.689 72.677 72.679 72.807 72.784 72.877 72.967 72.969 72.987 73.017 73.014 73.049 73.047 73.042 73.084 73.104 73.172 74.374 73.437 73.917 75.264 79.032 78.667 78.589 79.454 76.734 76.192 74.974 82.387 77.074 75.267 76.072 74.257 76.949 76.892 78.679 77.127 78.432 76.667 74.304 73.244 73.272 73.267 73.262 74.862 74.319 76.634 76.269 73.572 72.947 72.919 72.942 72.947 72.959 72.974 73.477 73.644 75.399 80.927 82.212 82.234 81.042 81.027 80.534 78.287 77.222 75.697 74.347 73.852 73.379 72.749 72.802 73.764 73.724 72.914 72.809 72.777 72.784 72.709 72.719 72.662 72.677 72.687 72.832 75.719 75.394 79.907 80.619 73.592 79.069 77.789 73.304 72.304 74.302 72.667 72.232 72.634 72.664 72.501 73.134 72.291 72.306 72.564 75.474 74.491 75.016 74.109 72.579 72.856 72.916 73.029 73.991 73.236 73.039 72.511 71.996 71.874 71.911 71.916 71.929 71.904 71.876 71.866 71.881 71.909 71.871 71.866 71.859 71.914 72.189 72.301 72.489 72.446 75.609 73.719 75.626 76.046 77.894 75.406 72.274 72.106 72.119 72.126 72.136 72.169 72.186 72.219 72.259 72.296 72.306 72.336 72.354 72.369 72.396 72.409 72.464 72.491 72.529 72.559 72.571 72.604 72.634 72.641 72.674 72.689 72.709 72.736 72.764 72.796 72.831 72.834 72.876 72.926 72.936 72.966 72.994 72.981 73.026 73.064 73.086 73.109 73.126 73.144 73.209 73.181 73.219 73.229 73.231 73.259 73.291 73.326 73.359 73.399 73.441 73.479 73.516 73.549 73.559 73.596 73.626 73.651 73.674 73.711 73.709 73.761 73.794 73.821 73.849 73.886 73.931 73.984 74.031 74.059 74.109 74.146 74.186 74.231 74.249 74.246 74.291 74.354 74.444 74.521 74.549 74.566 74.571 74.611 74.679 74.761 74.856 76.401 77.664 77.871 76.504 78.306 77.111 78.254 75.646 75.886 75.761 75.896 75.551 75.476 75.511 75.561 75.624 75.696 75.784 75.836 75.896 75.949 76.004 76.054 76.096 76.151 76.231 76.304 76.366 76.426 76.514 76.564 76.621 76.659 76.729 76.776 76.854 76.949 76.991 77.046 77.129 77.206
66.597 67.645 66.997 67.507 67.127 67.457 66.435 66.552 69.372 72.587 73.24 74.16 75.66 75.15 75.482 75.562 72.52 69.277 67.995 67.312 68.222 68.567 67.06 66.69 66.617 66.867 67.19 66.612 66.72 68.077 68.547 67.14 66.545 66.425 66.427 66.425 68.84 70.02 68.31 66.707 67.097 66.695 68.23 67.952 73.567 74.287 71.12 68.622 65.98 65.905 66.472 68.337 70.41 70.162 67.167 66.582 66.237 66.38 66.07 66.142 66.547 66.512 66.307 66.43 66.465 67.442 68.267 68.922 70.892 70.14 70.265 69.935 69.302 70.497 70.74 75.862 75.955 72.13 69.85 71.437 67.575 67.64 67.69 67.79 67.797 67.967 67.93 67.995 68.042 68.91 69.122 69.022 68.712 69.82 69.927 68.725 73.267 71.402 74.412 69.462 70.975 69.177 68.692 69.032 69.202 69.337 69.769 70.014 69.827 70.824 72.322 71.339 69.942 71.609 72.262 73.872 73.427 72.797 69.719 69.814 69.837 69.904 69.947 72.427 75.127 74.627 76.264 75.457 73.397 70.444 70.519 70.614 70.657 70.709 70.752 70.862 70.957 71.027 71.112 71.187 71.259 71.334 71.404 71.477 71.537 71.582 71.632 71.664 71.709 71.774 71.854 71.972 72.052 73.944 72.854 74.677 74.217 74.144 73.449 72.697 72.734 72.752 72.779 72.864 72.922 73.002 73.017 73.027 73.044 73.064 73.112 73.107 73.114 73.082 73.094 73.169 73.492 73.284 73.419 76.429 76.024 77.972 79.032 78.684 77.957 77.614 74.669 75.824 76.777 74.849 75.564 74.169 75.814 73.474 73.979 76.192 77.664 76.527 74.602 73.249 74.287 74.824 77.272 79.102 77.237 74.497 74.122 72.847 72.877 72.922 72.934 72.934 72.992 73.117 74.077 73.402 75.827 80.689 81.487 82.234 80.907 79.772 76.627 75.629 74.522 77.462 79.262 75.637 72.774 72.674 72.834 73.794 73.887 73.132 72.747 72.722 72.714 72.709 72.634 72.624 72.649 74.602 76.494 77.264 78.239 76.197 76.914 77.752 77.237 73.614 72.304 72.982 72.732 72.884 72.829 72.829 72.864 73.676 72.059 73.441 73.116 74.744 76.279 76.189 73.246 72.084 72.436 72.209 73.181 72.446 72.041 72.024 71.989 71.836 71.816 71.839 71.821 71.849 71.844 71.829 71.841 71.839 71.869 71.834 71.811 71.839 71.881 71.929 72.089 72.611 72.696 75.001 73.106 76.141 75.856 76.969 75.691 72.126 72.089 72.081 72.116 72.154 72.181 72.201 72.221 72.264 72.266 72.279 72.321 72.356 72.364 72.404 72.434 72.474 72.499 72.524 72.541 72.581 72.609 72.604 72.624 72.641 72.669 72.704 72.719 72.761 72.786 72.831 72.844 72.864 72.899 72.956 72.971 72.984 72.996 73.036 73.054 73.074 73.114 73.116 73.141 73.204 73.204 73.221 73.229 73.254 73.269 73.311 73.344 73.369 73.419 73.449 73.476 73.526 73.559 73.576 73.616 73.646 73.679 73.691 73.709 73.741 73.789 73.819 73.831 73.869 73.926 73.966 74.014 74.046 74.061 74.109 74.151 74.219 74.244 74.254 74.256 74.296 74.319 74.396 74.474 74.509 74.589 74.559 74.651 74.721 74.791 74.881 74.956 75.224 76.924 79.259 78.726 77.846 78.546 75.726 75.919 75.871 75.794 75.549 75.519 75.556 75.589 75.656 75.704 75.774 75.826 75.911 75.959 75.994 76.059 76.129 76.196 76.274 76.324 76.381 76.464 76.536 76.569 76.651 76.691 76.774 76.841 76.909 76.984 77.034 77.106 77.171 77.256
68.147 66.93 66.44 66.432 66.46 66.457 66.625 67.305 67.62 73.522 74.64 75.27 75.98 75.592 75.345 75.3 74.05 67.445 66.835 66.792 66.72 67.08 66.662 66.6 66.6 66.615 67.745 67.195 66.577 67.662 69.205 68.137 66.432 66.397 66.41 66.427 66.905 69.545 69.077 67.54 69.355 69.69 72.992 72.47 71.477 68.155 66.735 65.907 65.917 65.89 65.93 66.965 69.555 70.722 67.387 68.557 66.83 66.96 66.08 66.11 66.167 66.195 66.285 66.332 66.562 68.102 66.877 66.912 67.582 68.635 67.992 67.8 67.245 68.647 70.925 72.097 74.992 73.415 74.475 72.105 69.5 67.75 67.87 67.947 67.957 67.955 68.005 68.085 68.142 68.172 68.345 69.277 71.207 70.617 71.292 72.422 71.242 71.267 72.6 70.745 69.22 68.812 68.857 68.96 68.982 69.032 69.762 70.327 70.379 72.194 72.504 72.594 70.687 69.864 70.922 75.084 76.354 74.072 70.392 70.167 69.949 70.002 70.044 70.759 75.384 75.157 74.509 76.497 71.689 70.472 70.587 70.647 70.697 70.764 70.842 70.897 71.004 71.087 71.149 71.232 71.314 71.379 71.447 71.512 71.567 71.614 71.697 71.872 71.847 71.882 71.944 72.027 72.392 72.289 72.349 72.504 72.549 72.569 72.647 72.699 72.687 72.784 72.804 72.827 72.889 72.969 73.044 73.067 73.072 73.057 73.104 73.142 73.334 73.147 73.127 73.132 73.139 73.744 73.249 73.389 76.354 78.272 76.347 77.157 78.307 77.964 75.284 73.697 75.757 74.947 74.489 75.337 75.024 74.872 73.187 73.162 76.714 77.109 75.847 73.899 76.412 78.132 76.272 78.179 77.947 75.609 72.852 72.857 72.862 72.912 72.912 72.867 73.569 74.799 73.247 73.027 73.062 74.187 78.599 80.642 75.809 76.479 76.234 73.802 76.524 81.659 81.339 79.172 76.404 72.554 72.617 72.634 73.367 73.959 72.834 72.697 72.654 72.622 72.662 72.622 72.597 77.412 77.804 78.667 75.624 77.777 78.887 76.799 76.849 72.664 72.824 72.859 72.802 72.767 72.839 73.686 75.344 73.549 75.494 75.029 76.081 72.786 74.471 74.054 72.246 72.051 72.104 72.101 72.064 71.961 71.836 72.429 71.901 71.759 71.781 71.769 71.749 71.784 71.769 71.774 71.776 71.921 72.214 71.869 71.814 71.799 71.774 72.139 73.486 74.291 73.344 73.799 74.586 75.306 77.474 76.329 75.656 72.056 72.054 72.056 72.099 72.151 72.209 72.196 72.239 72.244 72.249 72.274 72.299 72.319 72.349 72.409 72.444 72.471 72.489 72.496 72.529 72.561 72.571 72.571 72.591 72.614 72.656 72.701 72.744 72.754 72.766 72.774 72.811 72.861 72.926 72.939 72.976 72.984 73.006 73.036 73.056 73.079 73.096 73.129 73.154 73.181 73.194 73.219 73.234 73.246 73.269 73.316 73.364 73.409 73.421 73.456 73.496 73.516 73.561 73.596 73.619 73.661 73.689 73.731 73.751 73.774 73.829 73.824 73.846 73.886 73.926 73.986 74.034 74.061 74.091 74.116 74.159 74.206 74.234 74.261 74.261 74.286 74.311 74.386 74.459 74.501 74.589 74.636 74.689 74.711 74.826 74.876 74.989 75.566 76.571 78.696 79.766 79.274 78.169 76.084 75.929 75.979 75.981 75.716 75.574 75.604 75.614 75.654 75.734 75.766 75.816 75.901 75.969 76.039 76.109 76.166 76.241 76.299 76.334 76.401 76.451 76.536 76.606 76.671 76.759 76.804 76.869 76.971 77.021 77.086 77.146 77.214 77.316
66.435 66.31 66.347 66.367 66.397 67.47 69.18 69.812 66.657 72.37 75.552 75.387 75.307 73.915 73.652 73.54 73.107 67.827 67.83 66.715 66.697 66.65 66.682 66.532 66.55 66.517 66.787 66.827 66.59 66.517 67.77 67.797 66.425 66.42 66.377 66.397 66.502 68.297 69.817 71.115 72.92 70.662 69.637 67 67.687 67.117 65.99 65.895 65.89 65.922 65.957 67.365 69.665 69.052 68.177 66.087 70.245 66.545 66.115 66.14 66.187 66.245 66.675 67.702 67.985 67.167 66.657 66.707 66.887 68.31 67.31 67.045 67.477 68.107 67.72 68.362 69.442 73.707 74.332 75.007 71.63 68.005 68.747 68.14 67.97 68.042 68.112 68.337 69.262 68.712 68.297 71.617 74.615 74.402 74.842 75.295 71.05 73.212 74.782 70.855 70.105 68.837 68.912 69.232 69.092 69.132 69.537 69.314 70.977 73.057 74.744 72.814 69.659 69.759 70.467 75.629 74.717 71.214 70.049 70.129 70.039 70.059 70.124 70.727 73.197 72.672 74.942 72.129 70.454 70.484 70.579 70.677 70.739 70.802 70.872 70.947 71.007 71.109 71.194 71.242 71.352 71.419 71.492 71.544 71.622 71.659 71.707 71.789 71.957 71.962 71.949 72.074 72.419 72.222 72.279 72.529 72.532 72.597 72.637 72.694 72.702 72.747 72.817 72.884 72.874 72.974 73.029 73.099 73.134 73.077 73.057 73.069 73.919 73.512 73.147 73.119 73.112 73.147 73.154 73.484 76.287 74.664 74.584 74.417 74.807 75.249 77.447 76.569 73.799 74.512 76.074 76.712 76.869 74.862 74.442 73.479 74.377 76.772 75.747 74.994 76.552 77.407 76.469 76.622 76.214 75.104 72.859 72.799 73.274 73.234 72.877 74.359 77.487 75.717 72.862 72.977 72.997 73.032 74.234 76.904 73.367 73.222 74.122 74.682 78.372 80.082 81.572 81.424 79.914 76.657 73.157 72.552 73.712 73.747 72.744 72.709 72.649 72.597 72.617 72.599 72.584 73.642 77.992 77.802 72.552 77.512 76.682 73.994 72.562 72.579 72.827 72.879 72.594 72.587 72.604 74.841 74.799 75.869 76.239 75.919 73.369 72.664 72.631 72.584 72.306 71.964 71.784 71.954 71.856 71.744 71.719 71.756 71.749 71.716 71.739 71.714 71.691 71.696 71.696 71.719 71.719 71.764 71.951 71.814 71.769 71.744 71.729 72.431 75.284 74.189 72.401 74.696 75.066 75.124 74.321 74.934 74.916 72.064 71.996 72.029 72.084 72.116 72.154 72.201 72.221 72.229 72.224 72.244 72.274 72.306 72.344 72.401 72.421 72.451 72.474 72.506 72.521 72.536 72.546 72.571 72.571 72.619 72.659 72.699 72.716 72.731 72.771 72.781 72.804 72.854 72.901 72.934 72.974 72.994 73.011 73.019 73.074 73.089 73.104 73.121 73.171 73.206 73.234 73.254 73.249 73.271 73.299 73.331 73.364 73.401 73.449 73.466 73.501 73.534 73.589 73.611 73.651 73.679 73.719 73.769 73.781 73.779 73.824 73.861 73.866 73.906 73.959 74.019 74.039 74.086 74.139 74.131 74.146 74.211 74.236 74.254 74.254 74.281 74.316 74.356 74.436 74.531 74.594 74.654 74.711 74.751 74.834 74.896 74.989 75.079 75.334 78.786 79.079 79.231 77.541 75.734 75.779 76.089 76.194 75.896 75.601 75.576 75.589 75.671 75.749 75.814 75.866 75.959 76.019 76.089 76.136 76.196 76.269 76.316 76.371 76.446 76.489 76.561 76.639 76.706 76.776 76.839 76.924 77.001 77.084 77.134 77.194 77.271 77.391
67.057 66.31 66.327 66.357 66.392 67.237 70.252 70.552 68.887 68.912 74.94 74.827 73.302 70.227 68.48 71.397 72.322 67.58 67.05 66.732 66.665 66.617 66.715 66.575 66.527 66.512 66.867 66.575 66.56 67.012 68.715 67.897 66.747 67.775 66.597 67.19 68.407 69.177 71.617 69.232 68.525 67.022 66 65.965 66.787 67.64 65.995 65.967 65.902 65.93 66.252 66.57 71.675 72.36 71.752 71.477 71.86 68.942 66.175 66.205 67.17 66.655 66.455 68.067 68.002 66.685 66.69 66.777 67.747 67.462 67.012 67.055 67.125 68.635 67.592 67.635 68.415 69.027 71.697 72.087 69.395 70.505 72.252 69.232 68.045 67.965 68.09 71.507 74.642 72.6 70.172 73.725 78.065 78.467 75.16 76.3 71.657 70.107 72.987 71.875 68.77 70.002 69.082 69.665 69.289 69.214 69.319 69.407 71.147 74.057 74.379 71.617 69.614 71.037 70.612 73.007 72.894 71.174 70.357 70.257 70.644 70.232 70.207 70.237 70.459 73.624 75.789 70.999 70.777 70.722 70.637 70.689 70.774 70.854 70.927 70.969 71.017 71.094 71.194 71.282 71.374 71.442 71.517 71.569 71.637 71.694 71.754 71.804 71.894 72.009 72.059 72.099 72.249 72.339 72.287 72.449 72.544 72.629 72.654 72.737 72.792 72.842 72.869 72.894 72.952 72.944 73.002 73.162 73.142 73.129 73.142 73.074 73.122 73.192 73.167 73.157 73.104 73.102 73.854 76.014 74.049 74.522 74.559 74.139 74.542 74.207 76.217 78.402 78.219 76.944 76.189 77.454 75.577 75.497 75.157 74.947 74.142 75.342 75.014 74.329 76.547 77.634 78.167 75.432 74.352 73.007 72.829 72.772 72.797 72.997 73.272 73.867 75.927 73.922 72.837 72.864 72.924 73.004 73.009 73.022 73.017 74.034 74.539 76.659 78.207 79.954 80.824 81.972 81.657 79.882 76.497 72.994 73.549 73.432 73.012 73.307 73.019 72.612 72.539 72.539 72.542 73.229 75.939 76.282 74.532 76.887 75.152 72.879 72.457 72.419 72.584 72.774 73.027 72.852 72.639 72.956 78.174 75.866 72.846 74.546 72.304 72.291 72.121 72.106 72.024 71.816 71.759 71.749 71.674 71.684 71.664 71.731 71.726 71.706 71.716 71.661 71.641 71.631 71.649 71.676 71.671 71.684 71.739 71.791 71.759 71.726 71.749 71.801 72.166 72.089 71.984 76.636 75.979 75.041 74.829 73.106 73.026 72.049 72.059 72.051 72.076 72.119 72.129 72.156 72.199 72.199 72.214 72.229 72.246 72.289 72.336 72.369 72.409 72.429 72.454 72.479 72.514 72.531 72.539 72.576 72.601 72.614 72.676 72.664 72.689 72.726 72.729 72.771 72.806 72.851 72.896 72.939 72.966 73.001 73.016 73.051 73.054 73.099 73.101 73.119 73.164 73.221 73.251 73.254 73.281 73.289 73.316 73.354 73.386 73.429 73.476 73.491 73.539 73.546 73.599 73.644 73.671 73.701 73.749 73.786 73.794 73.829 73.851 73.874 73.909 73.924 73.984 74.019 74.074 74.086 74.116 74.149 74.201 74.214 74.224 74.261 74.289 74.324 74.316 74.386 74.439 74.519 74.616 74.666 74.739 74.791 74.866 74.934 75.009 75.089 75.289 76.934 78.686 77.331 75.956 75.429 76.376 76.064 76.259 76.039 75.709 75.624 75.674 75.741 75.814 75.846 75.909 75.974 76.039 76.096 76.161 76.229 76.289 76.344 76.419 76.484 76.534 76.619 76.666 76.716 76.781 76.874 76.959 77.059 77.114 77.184 77.284 77.356 77.446
71.022 66.232 66.267 66.312 66.31 66.657 69.227 70.842 69.13 66.527 71.352 73.38 71.762 66.72 68.027 68.685 67.12 66.665 66.597 66.585 66.61 66.562 66.652 67.45 66.527 66.487 66.72 67.142 66.712 66.995 67.71 69.182 69.585 68.667 69.267 68.37 68.885 70.807 71.225 69.652 67.29 68.335 65.915 65.88 66.107 69.145 66.725 65.897 65.895 65.927 66.047 67.155 70.035 74.122 72.815 73.08 70.22 66.45 66.24 66.237 66.465 67.312 68.425 70.872 69.52 67.227 66.71 66.812 68.73 67.272 67.03 67.077 67.842 68.232 67.492 67.74 68.28 69.497 68.475 68.285 68.785 69.952 72.537 71.277 70.247 69.217 68.435 70.387 75.302 73.377 72.795 78.095 75.547 77.07 77.097 77.762 75.467 71.42 69.74 71.605 70.63 72.872 72.225 71.382 69.627 69.484 71.314 70.469 71.532 73.019 70.744 72.629 69.754 70.427 70.292 70.734 71.117 71.562 71.304 71.644 71.547 71.602 70.329 70.299 70.357 70.387 71.154 70.792 71.314 71.024 70.762 70.772 70.782 70.859 72.737 73.752 71.719 71.082 71.164 71.257 71.329 71.414 71.492 71.527 71.607 71.697 71.754 71.792 71.887 71.944 72.032 72.109 72.197 72.269 72.299 72.489 72.594 72.672 72.789 72.784 72.774 72.857 72.889 72.939 72.929 72.912 72.974 73.047 73.112 73.147 73.184 73.154 73.114 73.169 73.177 73.189 73.152 73.137 73.349 74.589 74.949 73.704 73.249 73.289 73.819 75.024 73.962 77.149 78.757 78.627 75.699 76.112 75.822 78.247 77.237 77.189 78.279 76.669 75.457 78.299 76.074 76.599 76.812 75.304 73.167 72.867 72.832 72.917 73.027 74.312 74.612 73.809 73.207 72.952 72.794 73.542 74.059 72.927 72.937 72.942 73.582 73.679 72.692 74.054 75.792 76.802 79.577 79.849 81.457 81.784 77.352 73.779 72.394 72.604 73.312 73.027 73.252 73.717 72.559 72.499 72.474 72.507 72.467 72.397 72.762 75.484 72.419 72.614 72.524 72.399 72.294 72.612 72.747 72.849 72.736 72.509 74.204 73.516 73.586 73.281 72.324 71.874 71.929 71.869 71.844 71.754 71.611 71.611 71.641 71.634 71.634 71.679 71.694 71.639 71.661 71.619 71.581 71.604 71.596 71.591 71.621 71.649 71.704 71.716 71.696 71.721 71.776 71.814 71.796 72.269 75.831 78.889 77.016 77.779 74.671 73.004 72.074 72.061 72.049 72.016 72.029 72.059 72.086 72.124 72.146 72.189 72.226 72.246 72.254 72.286 72.334 72.369 72.391 72.406 72.421 72.459 72.451 72.511 72.539 72.581 72.604 72.614 72.634 72.654 72.699 72.706 72.739 72.774 72.811 72.851 72.914 72.951 72.994 73.006 73.026 73.061 73.074 73.111 73.129 73.126 73.184 73.196 73.251 73.254 73.309 73.321 73.326 73.386 73.416 73.454 73.504 73.531 73.554 73.601 73.631 73.664 73.684 73.741 73.766 73.791 73.806 73.826 73.886 73.896 73.919 73.944 73.994 74.011 74.059 74.101 74.129 74.166 74.196 74.226 74.249 74.269 74.306 74.326 74.351 74.391 74.419 74.506 74.606 74.681 74.731 74.804 74.846 74.939 75.031 75.094 75.299 75.311 80.181 77.189 76.771 77.184 77.489 75.974 76.169 76.101 75.801 75.684 75.714 75.771 75.794 75.869 75.941 75.981 76.059 76.111 76.174 76.241 76.304 76.379 76.439 76.499 76.574 76.634 76.699 76.766 76.821 76.911 77.011 77.096 77.169 77.249 77.334 77.411 77.511
72.717 67.197 66.22 66.582 66.392 66.347 67.445 68.79 67.347 68.092 71.212 71.242 70.415 67.137 68.562 68.465 66.537 66.525 66.532 66.58 66.535 66.485 67.952 68.582 66.545 66.565 67.485 67.692 67.49 68.732 69.325 70.767 72.767 68.51 67.535 66.655 70.422 70.16 67.045 66.685 67.462 68.867 66.587 66.142 65.982 67.047 67.105 66.317 65.885 65.902 66.097 69.037 69.975 73.005 72.7 73.127 69.735 66.25 66.252 66.665 66.355 66.462 66.667 68.342 67.865 66.965 66.785 67.042 68.375 67.06 67.05 67.092 68.767 68.027 67.515 67.715 68.015 68.905 68.11 68.107 69.625 70.287 72.012 71.772 70.81 70.257 70.092 70.107 72.847 71.24 74.282 77.147 77.18 76.792 76.18 78.25 74.887 75.017 73.06 75.717 74.445 78.357 76.8 76.552 72.982 69.914 72.067 71.547 72.954 72.949 71.887 69.754 69.697 69.787 69.829 69.982 70.799 70.724 73.617 71.194 71.364 71.389 70.692 70.392 70.429 70.499 70.817 70.852 70.727 70.814 70.919 70.827 70.842 70.907 74.059 71.899 71.724 71.102 71.194 71.272 71.374 71.437 71.502 71.574 71.592 72.012 72.392 73.732 73.422 71.982 72.104 72.197 72.259 72.332 72.392 72.497 72.584 72.694 72.737 72.779 72.917 72.884 72.904 72.892 72.919 72.929 72.984 73.029 73.079 73.134 73.184 73.197 73.182 73.144 73.169 73.154 73.167 73.149 73.744 76.889 75.109 74.544 73.194 73.192 73.224 74.162 73.512 73.364 76.504 78.429 77.149 76.864 75.537 73.534 79.907 81.537 76.669 76.714 76.609 74.914 74.714 75.572 76.449 75.839 73.987 73.407 72.962 73.402 73.684 74.092 73.557 73.252 75.097 74.557 73.324 75.372 75.609 74.719 73.289 73.432 75.274 73.312 72.474 72.484 73.044 75.904 78.024 79.722 80.559 80.204 74.594 75.269 73.987 73.944 72.642 72.929 73.974 74.327 73.404 72.507 72.409 72.442 72.427 72.414 72.362 72.384 72.419 72.404 72.634 72.479 72.234 72.239 72.092 72.237 72.269 72.301 71.964 72.294 73.024 73.754 71.829 72.526 73.539 71.849 71.714 71.616 71.636 71.584 71.589 71.591 71.594 71.611 71.609 71.596 71.559 71.546 71.551 71.544 71.544 71.571 71.579 71.611 71.666 71.689 71.696 71.691 71.759 71.786 71.861 73.544 77.429 78.369 78.004 75.691 77.431 74.209 72.084 72.061 72.006 71.984 71.994 72.021 72.046 72.104 72.114 72.119 72.184 72.216 72.239 72.269 72.309 72.329 72.361 72.381 72.411 72.469 72.494 72.529 72.546 72.596 72.614 72.644 72.631 72.666 72.691 72.729 72.769 72.796 72.849 72.879 72.901 72.951 72.981 73.009 73.031 73.049 73.061 73.111 73.136 73.169 73.181 73.211 73.284 73.296 73.341 73.369 73.369 73.396 73.449 73.496 73.534 73.561 73.579 73.639 73.659 73.701 73.689 73.769 73.809 73.816 73.841 73.871 73.921 73.916 73.944 73.969 73.986 74.051 74.074 74.114 74.176 74.179 74.226 74.231 74.269 74.294 74.314 74.344 74.366 74.394 74.401 74.514 74.624 74.679 74.759 74.821 74.876 74.961 75.041 75.084 75.226 75.469 76.676 78.304 76.664 77.136 77.674 75.751 76.481 76.224 75.839 75.706 75.709 75.766 75.824 75.891 75.964 76.024 76.081 76.156 76.214 76.281 76.336 76.411 76.451 76.534 76.604 76.686 76.739 76.789 76.864 76.949 77.069 77.136 77.244 77.319 77.421 77.479 77.554
70.685 66.102 66.832 66.67 66.395 66.34 66.36 66.417 67.8 73.585 72.62 68.847 66.435 66.47 67.377 67.712 66.685 67.145 66.67 67.082 66.505 66.497 67.795 67.647 68.502 67.12 68.47 67.952 67.657 72.18 72.127 67.732 70.112 67.797 66.207 66.175 70.385 68.027 66.037 66 66.375 67.917 66.157 66.815 65.99 66.7 67.07 66.065 66.037 66.232 66.352 67.637 69.085 70.295 72.815 73.425 69.752 66.367 66.405 69.55 66.79 66.53 67.595 68.112 67.39 66.812 66.885 68.025 67.955 67.115 67.117 67.25 69.38 68.047 67.525 67.712 68.635 68.805 68.227 68.617 68.75 71.687 70.992 71.305 71.04 70.797 70.745 69.05 70.165 70.065 72.14 74.815 73.55 75.417 71.825 76.245 75.587 73.925 76.822 75.645 76.855 79.78 76.077 79.85 76.322 70.544 69.897 73.492 71.532 72.537 70.707 70.452 71.957 72.949 69.917 70.014 70.134 70.539 70.399 70.579 71.164 70.547 70.769 70.829 70.507 70.574 71.037 71.434 70.887 70.972 70.944 70.974 70.909 70.967 72.592 72.324 71.999 71.227 71.244 71.284 71.447 71.514 71.497 71.517 72.882 75.442 76.162 75.504 75.242 73.602 72.124 72.252 72.304 72.404 72.452 72.529 72.622 72.674 72.774 72.872 72.874 72.894 72.939 73.007 72.962 73.127 73.049 73.024 73.042 73.067 73.172 73.229 73.204 73.224 73.192 73.172 73.157 73.129 73.229 76.722 77.394 77.004 74.657 74.439 73.259 73.839 73.174 73.444 76.977 78.767 75.887 78.014 75.947 77.647 79.419 79.072 77.434 76.834 79.779 73.359 72.834 72.844 73.929 75.139 75.012 74.224 73.912 75.272 74.397 74.414 74.832 74.062 75.754 74.632 73.757 75.529 75.544 74.059 74.479 75.787 74.279 72.699 72.462 72.454 72.502 72.942 79.369 80.257 77.404 76.052 75.192 74.394 77.589 77.432 73.164 72.369 72.244 72.764 73.042 73.394 72.434 72.392 72.359 72.364 72.379 72.314 72.277 72.334 72.362 72.609 72.557 72.182 72.077 71.997 73.324 73.081 71.789 71.731 71.724 71.696 71.659 71.894 72.921 71.574 71.536 71.554 71.584 71.556 71.536 71.541 73.454 73.311 71.904 71.569 71.511 71.474 71.494 71.504 71.514 71.524 71.539 71.584 71.619 71.644 71.656 71.686 71.711 71.764 72.579 72.244 76.656 76.559 74.964 71.869 76.856 74.856 72.706 71.994 72.041 71.959 71.946 71.996 72.014 72.079 72.104 72.146 72.176 72.224 72.246 72.264 72.301 72.309 72.336 72.361 72.411 72.471 72.504 72.531 72.536 72.601 72.626 72.636 72.641 72.661 72.706 72.729 72.751 72.779 72.829 72.879 72.929 72.971 72.989 73.039 73.056 73.064 73.086 73.116 73.129 73.179 73.204 73.266 73.296 73.321 73.351 73.384 73.406 73.436 73.504 73.549 73.564 73.571 73.619 73.646 73.679 73.724 73.719 73.781 73.819 73.836 73.849 73.906 73.941 73.949 73.961 73.979 74.004 74.051 74.081 74.131 74.171 74.189 74.231 74.274 74.309 74.321 74.349 74.386 74.399 74.421 74.434 74.516 74.609 74.724 74.784 74.836 74.881 74.974 75.024 75.079 75.226 75.706 76.174 77.629 76.939 75.869 75.651 76.029 76.476 76.211 75.961 75.729 75.736 75.774 75.834 75.909 75.984 76.041 76.104 76.169 76.244 76.299 76.389 76.439 76.506 76.581 76.626 76.716 76.779 76.839 76.909 77.001 77.106 77.184 77.269 77.366 77.446 77.516 77.606
67.105 66.017 66.145 66.215 66.255 66.31 66.365 66.402 68.757 72.795 72.955 68.732 66.37 66.37 66.387 67.56 67.827 67.825 66.855 67.13 68.777 68.6 67.995 67.367 68.177 68.595 69.005 67.212 66.715 69.73 69.952 66.965 67.485 66.835 66.16 66.125 67.577 66.76 65.997 65.975 65.972 67.027 65.942 65.95 65.967 66.472 67.362 66.42 66.547 67.342 66.555 66.485 66.282 71.982 71.332 70.852 69.12 66.432 66.482 67.162 66.707 67.832 68.3 67.44 67.465 66.872 67.412 69.645 68.057 67.18 67.19 69.997 70.755 67.777 67.955 68.427 69.49 67.96 68.015 68.76 69.837 72.08 70.625 71.085 70.45 70.435 71.4 69.08 69.982 69.932 69.502 72.925 73.67 72.537 74.272 73.94 74.91 77.19 73.922 75.067 78.58 78.88 77.052 77.977 74.207 69.674 71.959 73.232 72.557 73.302 72.789 71.194 71.877 73.374 72.337 70.927 71.229 70.317 70.382 70.389 70.769 70.629 72.017 71.029 71.349 70.664 70.947 71.087 71.434 70.929 71.357 71.722 71.264 71.012 72.207 72.687 71.962 72.189 71.887 71.432 71.642 72.952 71.477 71.539 74.999 77.544 72.712 76.199 75.407 72.449 72.232 72.277 72.344 72.419 72.494 72.549 72.667 72.747 72.789 72.829 72.892 73.014 72.992 72.982 72.979 73.012 73.032 73.037 73.052 73.067 73.149 73.182 73.237 73.184 73.164 73.159 73.172 73.187 74.312 76.107 75.684 78.842 75.764 73.152 74.642 75.364 74.097 73.572 77.387 76.134 75.974 75.787 77.899 78.064 79.379 76.197 75.784 77.482 75.499 73.719 73.097 72.767 72.827 72.889 73.234 75.012 77.044 78.967 78.409 76.629 74.512 74.664 74.057 73.667 73.342 73.107 73.342 72.917 75.194 73.764 72.599 72.404 72.417 72.424 72.477 72.604 74.969 78.319 75.052 74.872 75.314 76.589 79.819 80.732 79.504 75.207 72.437 71.962 72.087 72.834 73.519 72.674 72.299 72.257 72.299 72.304 72.247 72.239 72.264 72.329 72.532 72.472 72.434 73.219 75.984 72.946 71.809 71.704 71.694 71.874 71.829 73.319 73.301 71.561 71.464 71.514 71.461 72.201 71.519 72.174 76.789 76.024 71.524 71.486 71.481 71.659 73.729 71.464 71.461 71.491 71.496 71.531 71.574 71.581 71.629 71.679 71.729 72.396 73.476 72.409 74.284 73.936 76.554 80.176 77.309 74.324 73.191 72.036 71.996 71.901 71.941 71.974 72.016 72.049 72.089 72.144 72.179 72.204 72.221 72.274 72.266 72.289 72.324 72.366 72.409 72.464 72.504 72.529 72.531 72.559 72.604 72.619 72.644 72.676 72.689 72.721 72.741 72.791 72.844 72.866 72.909 72.959 72.991 73.021 73.051 73.059 73.096 73.129 73.139 73.174 73.219 73.269 73.311 73.374 73.364 73.421 73.429 73.476 73.526 73.576 73.606 73.624 73.634 73.651 73.686 73.739 73.756 73.804 73.841 73.851 73.884 73.914 73.944 73.974 73.989 74.016 74.031 74.066 74.104 74.156 74.191 74.214 74.246 74.291 74.316 74.334 74.361 74.394 74.416 74.426 74.476 74.529 74.604 74.716 74.804 74.861 74.891 74.954 75.009 75.074 75.279 76.434 76.081 77.064 75.714 76.201 75.616 75.696 76.081 76.131 76.126 75.781 75.761 75.801 75.849 75.916 76.004 76.084 76.164 76.216 76.271 76.346 76.424 76.501 76.564 76.609 76.671 76.741 76.814 76.869 76.946 77.031 77.131 77.229 77.321 77.421 77.494 77.559 77.636
68.877 65.97 66.142 66.172 66.247 66.25 66.315 67.052 71.555 73.852 75.997 71.935 68.71 70.605 68.087 67.65 69.625 70.577 69.127 69.24 68.445 68.175 67.455 66.71 67.977 70.712 68.062 67.092 66.685 66.91 67.082 66.13 66.317 66.745 66.127 66.135 66.942 67.4 66.02 65.982 65.982 66.262 65.935 65.885 66.317 66.352 67 66.66 67.072 68.025 68.542 68.377 67.232 69.417 70.375 70.082 68.507 66.885 66.902 67.027 67.002 67.31 67.612 67.662 68.17 67.852 68.5 69.555 67.617 67.207 67.635 71.03 70.8 67.602 68.097 67.892 68.2 67.987 67.97 68.61 70.202 68.93 70.862 71.065 69.905 69.422 68.947 68.65 69.742 69.635 69.525 71.392 73.797 73.3 75.707 72.857 74.807 75.145 73.91 73.747 77.695 77.67 78.58 76.457 70.994 73.657 77.457 73.137 79.297 76.982 72.744 72.782 74.079 75.759 72.642 71.407 71.367 71.434 70.392 70.484 70.532 70.564 71.562 71.839 70.707 70.729 70.804 71.199 71.922 71.072 71.862 71.969 71.502 71.229 71.164 71.252 71.544 73.544 77.537 71.762 72.007 72.059 72.109 73.057 75.889 77.399 75.249 77.072 73.954 72.189 72.304 72.319 72.404 72.459 72.517 72.592 72.704 72.797 72.867 72.937 72.977 73.029 73.024 73.022 73.002 74.037 73.102 73.049 73.069 73.074 73.114 73.182 73.247 73.234 73.157 73.162 73.159 73.184 73.174 73.197 73.367 74.307 73.899 73.147 73.109 76.784 73.709 73.449 74.749 74.912 74.532 76.469 78.329 79.387 76.849 79.462 75.137 76.799 73.077 75.167 75.082 73.764 72.784 72.674 72.694 73.217 75.417 78.719 79.804 76.299 73.579 73.712 74.344 72.969 72.884 72.729 73.587 74.262 74.214 73.079 72.372 72.379 72.404 72.422 72.507 72.817 72.504 73.542 74.144 75.369 77.242 79.549 80.174 81.309 80.719 79.179 75.362 72.177 71.942 72.019 72.814 73.412 72.312 72.252 72.209 72.304 72.262 72.197 72.174 72.209 72.242 72.442 75.097 75.719 76.411 74.184 71.744 71.701 71.674 72.344 72.951 71.581 71.551 71.514 71.459 71.729 71.569 76.901 72.109 77.261 77.381 74.241 72.736 71.471 72.734 73.936 75.286 72.749 71.431 71.456 71.481 71.506 71.574 71.596 71.634 71.686 71.706 73.404 73.384 73.014 72.576 73.951 76.721 76.249 76.974 73.554 72.039 71.956 71.989 71.929 71.919 71.971 72.019 72.036 72.076 72.129 72.156 72.184 72.214 72.236 72.239 72.279 72.301 72.351 72.396 72.436 72.469 72.491 72.541 72.564 72.591 72.631 72.659 72.684 72.704 72.741 72.776 72.824 72.859 72.909 72.929 72.994 73.024 73.041 73.061 73.086 73.121 73.149 73.176 73.234 73.266 73.296 73.329 73.371 73.396 73.444 73.461 73.514 73.554 73.581 73.634 73.649 73.656 73.694 73.706 73.759 73.804 73.841 73.884 73.884 73.899 73.929 73.964 73.989 74.019 74.036 74.061 74.104 74.119 74.154 74.221 74.249 74.266 74.349 74.349 74.386 74.406 74.406 74.431 74.441 74.494 74.549 74.624 74.729 74.836 74.866 74.909 74.961 75.016 75.094 75.206 75.886 76.174 76.306 76.444 75.789 75.609 75.746 76.174 75.891 75.846 75.816 75.801 75.829 75.896 75.954 76.064 76.121 76.186 76.259 76.319 76.404 76.471 76.531 76.584 76.661 76.691 76.774 76.836 76.884 76.951 77.061 77.169 77.276 77.376 77.471 77.551 77.591 77.664
71.975 67.315 68.14 66.127 66.175 66.212 68.792 73.862 76.927 78.555 79.317 77.975 76.51 73.332 70.952 68.615 69.595 72.375 71.155 73.177 71.337 68.01 67.055 67.12 69.492 69.557 68.24 66.217 66.365 66.515 66.155 66.14 66.167 66.972 66.13 66.12 66.125 67.47 66.69 66.015 66.065 66.357 66.562 66.285 66.385 66.337 72.135 70.482 69.842 70.427 69.812 70.892 69.215 68.827 69.567 67.335 69.245 69 66.985 67.295 67.062 67.647 67.567 69.867 69.195 67.772 69.98 68.567 67.942 67.812 69.155 72.092 70.555 67.615 67.86 70.277 72.08 73.087 68.587 68.917 69.975 69.172 68.775 70.63 70.895 69.84 68.597 68.577 70.622 70.007 69.447 70.712 72.4 73.222 70.8 70.685 70.645 73.347 74.612 74.872 76.855 78.61 77.46 76.78 74.394 73.637 77.292 75.384 78.727 77.679 74.282 75.759 72.087 74.804 75.582 74.534 72.109 70.449 70.532 70.532 70.564 70.617 70.709 70.732 70.789 70.829 70.877 70.952 71.212 72.012 71.942 74.224 72.187 71.574 71.374 71.312 71.457 71.842 79.269 72.467 71.559 72.037 72.464 74.712 79.549 77.872 76.584 77.632 75.569 72.304 72.267 72.314 72.414 72.514 72.582 72.664 72.727 72.824 72.897 73.017 73.002 73.037 73.019 73.012 74.579 74.949 73.989 73.962 73.079 73.099 73.134 73.134 73.187 73.274 73.212 73.167 73.167 73.197 73.194 73.204 73.444 73.597 73.254 73.137 73.139 73.107 73.104 74.664 74.044 73.642 73.154 73.652 76.369 77.932 79.984 77.962 76.537 75.817 75.352 77.467 74.052 73.354 74.134 73.047 72.672 72.587 73.317 74.694 74.392 75.429 76.894 75.162 75.382 74.722 73.727 73.382 73.842 73.242 72.444 72.374 72.362 72.359 72.377 72.397 72.399 72.587 72.947 73.147 72.002 74.467 78.412 79.797 78.679 79.817 80.979 80.979 80.062 75.657 71.914 71.904 73.069 72.482 72.284 72.249 72.219 72.204 72.202 72.199 72.177 72.129 72.162 72.174 72.514 75.427 74.494 73.701 71.716 71.679 71.619 71.576 71.624 71.551 71.524 71.484 72.289 71.389 72.691 77.189 76.101 77.326 78.709 77.516 75.294 72.744 75.896 79.679 77.176 72.724 71.504 71.429 71.501 71.534 71.556 71.626 71.664 71.664 71.596 72.476 73.181 72.669 72.401 73.421 76.219 74.646 72.941 71.956 72.026 71.946 71.986 71.971 71.929 71.994 72.019 72.041 72.086 72.121 72.136 72.154 72.174 72.199 72.236 72.281 72.306 72.351 72.384 72.429 72.484 72.466 72.516 72.559 72.604 72.641 72.641 72.696 72.721 72.764 72.809 72.831 72.876 72.921 72.954 73.001 73.046 73.096 73.109 73.126 73.161 73.179 73.186 73.254 73.301 73.331 73.356 73.394 73.449 73.476 73.504 73.539 73.581 73.624 73.664 73.656 73.674 73.714 73.746 73.766 73.826 73.849 73.876 73.904 73.916 73.941 73.994 74.026 74.056 74.074 74.101 74.124 74.154 74.191 74.224 74.261 74.311 74.344 74.364 74.419 74.441 74.444 74.471 74.501 74.526 74.579 74.626 74.751 74.829 74.889 74.906 74.969 75.019 75.111 75.194 76.006 76.034 76.331 76.544 76.781 75.826 75.659 75.796 76.016 75.886 75.844 75.856 75.884 75.916 75.996 76.091 76.146 76.214 76.284 76.351 76.401 76.466 76.541 76.591 76.661 76.699 76.776 76.864 76.921 77.001 77.106 77.224 77.304 77.399 77.511 77.571 77.641 77.709
72.415 72.995 69.365 66.092 66.827 66.652 71.52 77.997 78.922 79.752 79.62 79.1 77.232 73.382 69.737 69.13 72.172 72.285 70.945 73.695 74.452 70.47 66.76 66.287 69.592 70.167 66.597 66.152 66.305 66.427 66.142 66.137 66.122 66.882 66.44 66.117 66.147 68.06 67.702 66.247 66.34 66.485 67.35 66.652 67.27 69.135 68.835 69.192 72.71 71.487 72.41 74.297 69.667 68.58 67.642 68.79 73.982 72.477 70.31 71.46 70.342 67.41 68.502 70.232 69.052 67.822 69.365 68.03 68.062 68.492 72.64 74.205 69.79 67.945 68.267 70.522 75.357 76.452 69.457 68.682 69.47 68.917 68.372 68.547 74.662 71.115 68.62 68.862 70.207 69.365 69.375 69.462 70.392 70.685 69.312 69.375 70.625 71.812 74.735 73.8 73.157 76.945 78.15 76.055 74.032 74.957 79.274 73.869 75.797 77.592 77.034 78.024 75.644 75.334 75.334 72.169 70.899 70.552 70.729 70.677 70.642 70.642 70.814 70.792 70.884 70.937 70.992 71.027 71.409 71.529 72.982 76.497 74.927 71.887 72.424 71.414 71.414 71.522 74.099 73.144 72.339 71.617 72.684 75.702 75.982 77.349 76.602 75.852 75.924 74.744 72.397 72.477 72.557 72.597 72.627 72.694 72.762 72.854 72.919 72.952 72.967 72.999 72.997 73.034 76.254 76.602 77.202 73.557 73.067 73.107 73.132 73.134 73.164 73.247 73.279 73.212 73.169 73.192 73.202 73.212 73.187 73.154 73.159 73.134 73.124 74.157 73.082 73.887 73.527 73.887 73.579 73.204 74.074 73.912 77.524 76.544 78.132 80.709 79.312 77.832 76.594 74.997 74.137 74.497 74.799 73.384 72.542 72.457 72.529 73.929 76.634 75.984 75.657 74.877 73.982 74.159 73.064 72.504 72.529 72.344 72.337 72.329 72.347 72.354 72.849 74.172 73.252 72.024 72.157 71.942 74.772 77.512 76.904 78.237 79.774 81.032 80.159 78.124 71.954 72.352 72.214 72.062 72.289 72.802 72.397 72.989 72.149 72.134 72.224 72.117 72.059 72.074 72.559 72.894 72.539 73.839 71.739 71.676 71.589 71.539 71.576 71.561 71.504 71.449 73.009 71.386 74.944 72.686 74.136 75.494 72.906 74.421 80.306 77.924 76.904 72.711 76.071 76.319 71.566 71.419 71.491 71.539 71.601 71.624 71.666 71.624 71.574 71.794 72.836 72.746 72.654 74.384 74.279 74.879 72.104 71.969 72.021 71.951 71.991 72.004 71.909 71.966 72.019 72.026 72.046 72.099 72.099 72.144 72.164 72.206 72.229 72.259 72.301 72.364 72.401 72.429 72.451 72.494 72.536 72.571 72.616 72.654 72.681 72.719 72.761 72.779 72.826 72.839 72.891 72.941 72.979 73.011 73.061 73.099 73.114 73.136 73.164 73.184 73.231 73.271 73.309 73.346 73.376 73.434 73.464 73.489 73.521 73.564 73.614 73.671 73.699 73.699 73.711 73.724 73.764 73.791 73.836 73.891 73.904 73.936 73.971 73.974 73.991 74.044 74.084 74.106 74.146 74.134 74.186 74.201 74.246 74.279 74.299 74.364 74.421 74.454 74.464 74.464 74.506 74.524 74.561 74.576 74.616 74.714 74.826 74.889 74.916 74.984 75.044 75.101 75.191 75.299 75.921 75.694 78.059 76.681 77.744 76.281 75.799 75.836 75.884 75.841 75.876 75.921 75.954 75.994 76.086 76.151 76.206 76.279 76.366 76.411 76.489 76.549 76.586 76.671 76.706 76.801 76.869 76.969 77.059 77.154 77.251 77.334 77.421 77.534 77.614 77.676 77.734
73.557 72.805 69.647 69.655 70.07 70.362 69.845 78.532 79.92 77.765 75.552 76.695 74.732 73.635 68.917 66.422 70.752 72.402 70.292 71.042 72.607 68.835 66.205 66.217 67.25 66.927 66.155 66.147 66.372 66.842 66.182 66.167 66.137 66.33 66.862 66.125 66.202 67.312 67.772 66.865 66.442 66.447 67.212 67.057 69.655 70.625 68.97 69.685 72.712 72.865 73.997 74.595 74.797 73.847 74.397 75.045 75.09 74.482 73.46 73.002 70.53 67.457 70.995 72.272 70.8 68.307 69.812 70.317 69.475 68.77 71.552 75.76 70.62 68.74 69.89 69.49 72.325 72.115 68.21 70.47 69.062 68.645 70.237 73.072 76.355 75.2 68.637 69.982 70.662 68.997 69.015 69.182 71.375 69.342 69.28 69.667 70.045 72.01 73.78 75.445 76.075 77.295 75.615 72.98 74.409 72.532 76.434 73.494 77.547 78.999 74.912 77.367 73.374 74.569 72.724 70.704 70.569 70.622 70.634 70.749 70.814 70.849 72.284 72.927 71.199 70.979 71.059 71.127 71.184 71.502 71.697 73.824 72.634 71.744 75.507 75.317 74.237 71.502 71.557 72.239 72.412 72.764 73.954 75.007 75.987 78.602 74.624 78.434 74.919 74.302 72.592 72.587 72.597 72.644 72.657 72.692 72.777 72.894 73.069 72.972 72.942 72.974 73.027 73.012 73.592 75.844 74.344 73.067 73.067 73.129 73.114 73.137 73.154 73.224 73.304 73.267 73.177 73.219 73.234 73.199 73.177 73.157 73.224 73.314 73.114 74.839 74.679 75.557 74.654 73.522 74.042 72.987 73.122 73.042 74.184 76.242 81.937 81.812 78.344 78.379 75.872 74.084 74.254 74.029 74.067 73.769 73.349 72.724 72.362 74.884 75.257 74.627 73.684 75.317 76.124 79.484 74.827 73.509 72.339 72.442 72.309 72.292 72.299 72.319 72.774 73.302 71.979 71.929 71.949 71.907 71.867 72.944 75.699 78.669 80.397 80.539 79.904 75.779 72.619 72.227 71.859 71.937 72.087 72.492 74.647 72.892 72.149 72.107 72.137 72.092 72.064 72.029 72.027 73.159 72.234 72.406 71.966 71.926 71.636 71.566 71.551 71.521 71.451 71.776 71.411 71.364 74.551 73.851 77.571 76.106 76.051 77.194 80.939 73.461 74.896 74.741 76.179 76.101 71.426 71.476 71.539 71.556 71.644 71.676 71.691 71.639 71.571 71.591 71.984 73.286 74.931 72.474 71.994 72.079 72.389 71.956 71.874 71.961 71.901 71.939 71.906 71.934 71.996 72.039 72.046 72.074 72.104 72.136 72.174 72.226 72.249 72.281 72.309 72.346 72.414 72.411 72.456 72.489 72.544 72.589 72.629 72.649 72.674 72.746 72.774 72.789 72.834 72.864 72.911 72.951 72.984 73.019 73.084 73.114 73.144 73.159 73.204 73.224 73.249 73.294 73.349 73.394 73.416 73.449 73.489 73.514 73.549 73.596 73.651 73.711 73.736 73.724 73.736 73.761 73.811 73.814 73.871 73.904 73.931 73.956 73.996 74.011 74.014 74.069 74.099 74.149 74.166 74.146 74.206 74.231 74.264 74.306 74.341 74.396 74.436 74.461 74.471 74.494 74.529 74.546 74.581 74.614 74.659 74.714 74.814 74.886 74.916 75.006 75.071 75.149 75.209 75.334 75.741 76.794 80.116 77.484 76.504 76.764 75.771 75.781 75.856 75.869 75.891 75.929 75.976 76.039 76.096 76.169 76.219 76.296 76.379 76.464 76.509 76.571 76.629 76.684 76.749 76.826 76.901 77.014 77.094 77.139 77.276 77.361 77.461 77.561 77.634 77.706 77.761
72.385 70.585 69.29 69.312 69.895 67.79 68.905 72.412 72.26 71.735 71.22 71.207 75.087 74.515 70.112 66.647 67.567 67.517 66.3 67.43 68.327 68.305 66.195 66.16 66.157 66.18 66.09 66.122 66.155 66.252 66.157 66.185 66.452 66.305 66.982 66.507 67.865 69.882 67.005 68.687 67.72 68.547 69.422 72.865 73.49 75.195 72.922 70.017 72.277 73.567 75.567 76.08 76.285 76.295 76.652 76.335 76.37 75.925 74.012 72.815 71.947 68.215 74.35 76.12 74.777 73.405 73.597 72.232 71.075 70.337 68.022 70.68 68.27 68.095 70.082 68.877 68.48 68.737 70.175 70.697 69.225 68.937 70.5 74.842 75.54 72.96 68.665 70.035 69.167 69.1 69.105 69.2 69.945 69.27 69.295 69.327 71.29 69.895 72.72 75.33 77.825 74.8 75.8 76.09 73.602 73.874 76.467 75.399 80.469 78.594 80.102 77.734 73.294 72.302 72.469 70.607 70.679 70.664 70.699 70.754 70.877 70.837 71.272 72.249 70.932 71.054 71.069 72.209 71.724 75.404 72.082 71.377 72.499 72.387 75.137 76.679 74.859 71.672 71.607 72.559 75.299 75.617 74.279 75.059 75.459 75.954 75.314 76.849 73.042 72.539 72.577 72.617 72.634 72.649 72.712 72.739 72.827 72.902 72.987 72.974 72.987 73.012 73.022 73.034 73.099 73.054 73.089 73.077 73.124 73.157 73.137 73.119 73.152 73.192 73.267 73.322 73.229 73.202 73.354 73.217 73.192 73.167 73.172 73.209 73.092 75.047 75.927 76.667 78.569 74.194 73.414 72.917 72.869 74.337 75.799 74.809 82.352 79.382 78.257 77.154 74.229 74.384 75.149 72.952 73.017 73.029 73.259 74.794 73.552 74.512 73.249 72.674 72.132 72.379 76.574 79.094 72.967 73.487 72.752 74.294 74.352 72.579 72.557 72.602 73.127 72.227 72.014 71.962 71.907 71.892 71.849 71.837 72.899 78.919 80.107 78.149 75.339 72.934 71.829 72.444 71.762 71.814 72.262 74.694 74.714 74.339 72.867 72.117 72.049 72.074 72.059 72.019 71.959 72.017 71.981 72.174 72.306 71.979 71.809 71.559 71.544 71.504 71.471 71.419 71.379 71.396 71.349 72.506 72.489 76.626 77.796 80.591 77.789 74.124 73.554 73.914 77.481 75.384 71.431 71.491 71.561 71.611 71.686 71.681 71.639 71.589 71.574 71.581 71.664 72.959 74.036 72.829 71.896 72.894 72.441 71.786 71.911 71.979 71.926 71.929 71.906 71.934 71.976 72.024 72.039 72.059 72.111 72.161 72.204 72.239 72.284 72.319 72.336 72.366 72.404 72.461 72.501 72.496 72.541 72.581 72.619 72.661 72.714 72.731 72.771 72.816 72.861 72.884 72.941 72.976 72.986 73.041 73.076 73.144 73.166 73.181 73.231 73.256 73.286 73.324 73.386 73.416 73.444 73.479 73.504 73.524 73.586 73.626 73.676 73.704 73.769 73.759 73.784 73.804 73.834 73.866 73.894 73.926 73.936 73.979 74.009 74.019 74.051 74.076 74.144 74.164 74.184 74.199 74.236 74.254 74.306 74.336 74.371 74.416 74.434 74.464 74.499 74.514 74.526 74.564 74.621 74.646 74.674 74.734 74.809 74.866 74.936 74.984 75.069 75.119 75.196 75.274 76.661 79.591 78.899 81.279 78.651 76.099 75.771 75.829 75.871 75.891 75.894 75.949 76.011 76.064 76.126 76.186 76.251 76.316 76.404 76.484 76.541 76.591 76.661 76.724 76.784 76.854 76.924 77.036 77.114 77.174 77.261 77.381 77.469 77.586 77.689 77.759 77.829
71.492 69.702 69.232 69.295 67.305 66.205 66.04 68.19 69.72 67.227 66.777 69.312 73.07 73.162 71.06 67.617 66.21 67.752 67.21 66.205 66.187 66.352 66.185 66.137 66.115 66.382 66.977 66.107 66.092 66.432 67.035 68.857 69.245 67.535 67.917 67.815 72.222 72.182 67.922 69.43 72.405 73.832 74.625 74.562 75.345 75.342 74.487 68.177 72.085 73.117 75.527 75.89 76.085 75.847 76.102 75.832 75.73 75.57 74.035 73.185 70.687 69.932 75.412 75.71 76.227 76.207 76.122 75.947 74.91 70.45 70.03 73.725 71.64 69.042 69.755 68.297 68.342 72.077 73.462 70.392 68.925 69.162 69.582 72.48 71.595 70.062 69.417 69.23 69.717 69.102 69.137 69.302 69.72 69.265 69.31 69.572 70.25 69.662 72.66 69.755 74.367 74.037 74.285 75.76 73.689 71.444 75.129 74.719 72.804 74.217 75.464 76.597 73.164 73.052 70.504 70.952 70.677 70.709 70.764 70.837 70.912 70.907 70.924 70.922 71.027 71.052 71.757 72.947 75.247 75.329 74.714 72.439 71.504 71.792 72.347 72.897 71.964 72.324 71.762 75.019 74.964 78.047 75.159 73.419 74.224 73.919 72.559 72.914 72.482 72.574 72.569 72.694 72.667 72.702 72.752 72.782 72.812 72.939 73.032 73.027 72.994 73.049 73.019 73.057 73.094 73.082 73.102 73.124 73.122 73.149 75.292 76.742 73.184 73.217 73.272 73.329 73.262 73.197 73.249 73.267 73.209 73.164 73.127 73.117 73.097 75.782 77.439 76.287 78.534 72.907 72.982 72.894 74.397 77.092 77.984 81.107 79.382 81.852 80.877 81.189 75.644 75.189 74.634 74.794 73.974 73.049 72.832 74.382 73.599 74.264 75.932 76.757 75.032 74.627 73.252 74.577 73.659 74.559 72.787 75.174 75.792 73.687 72.859 72.649 72.204 72.179 72.059 71.974 71.892 71.862 71.844 71.824 71.807 73.029 78.524 74.004 72.187 72.442 72.739 73.272 72.129 72.219 72.247 75.944 74.664 75.272 74.424 73.147 72.044 72.002 72.012 72.044 71.954 71.892 71.869 71.939 72.096 72.296 72.014 71.959 71.544 71.511 71.429 71.381 71.364 71.346 71.356 71.316 80.499 77.419 78.561 75.391 76.221 80.729 72.536 74.599 75.596 75.986 71.421 71.499 71.564 71.646 71.696 71.671 71.609 71.571 71.571 71.574 71.599 71.859 73.076 74.699 73.156 73.766 74.786 72.656 71.929 71.976 71.969 71.916 71.919 71.926 71.979 72.026 72.036 72.069 72.114 72.191 72.221 72.251 72.296 72.334 72.351 72.399 72.434 72.459 72.511 72.521 72.551 72.584 72.636 72.671 72.726 72.751 72.801 72.819 72.864 72.896 72.946 72.979 73.021 73.071 73.111 73.146 73.184 73.209 73.266 73.294 73.341 73.376 73.414 73.444 73.464 73.519 73.529 73.569 73.629 73.676 73.711 73.734 73.764 73.789 73.819 73.836 73.869 73.901 73.924 73.951 73.976 74.006 74.031 74.044 74.061 74.126 74.171 74.229 74.219 74.219 74.259 74.274 74.324 74.371 74.391 74.429 74.471 74.484 74.496 74.524 74.564 74.591 74.631 74.681 74.701 74.744 74.829 74.894 74.951 74.979 75.046 75.116 75.199 76.176 78.421 80.071 78.299 79.181 79.009 77.051 75.849 75.869 75.884 75.901 75.921 75.976 76.061 76.101 76.171 76.231 76.281 76.341 76.421 76.484 76.556 76.609 76.676 76.736 76.804 76.884 76.941 77.039 77.144 77.244 77.326 77.414 77.534 77.629 77.731 77.834 77.899
73.217 72.715 72.755 67.85 66.107 66.012 66.15 66.192 67.365 69.097 68.215 69.452 70.727 70.68 69.257 66.182 66.12 66.96 66.712 66.15 66.132 67.815 67.097 66.12 66.237 68.407 71.157 67.967 66.097 66.53 67.887 70.655 72.27 69.32 67.57 70.282 73.182 73.715 70.415 69.37 75.072 75.17 75.197 75.53 75.327 75.342 74.962 69.162 67.865 69.86 74.892 74.37 74.12 73.08 72.157 73.172 72.39 75.05 73.672 69.875 68.262 72.185 74.045 74.835 75.905 75.415 75.96 76.11 75.685 69.867 75.217 74.725 71.68 70.872 69.64 69.98 70.812 71.132 73.597 72.475 70.147 69.157 69.87 70.837 68.822 68.777 69.452 70.295 69.412 69.07 69.137 70.295 69.945 69.322 69.35 70.23 70.237 69.72 69.755 72.805 76.175 72.765 76.162 72.185 71.782 72.082 74.014 72.057 72.472 73.407 73.992 73.944 72.722 72.779 70.829 70.992 70.662 70.784 71.422 71.242 70.979 71.024 71.014 71.062 71.229 71.252 72.249 74.427 75.854 78.547 75.022 73.934 72.312 71.717 71.829 71.679 71.742 72.862 72.722 72.522 75.377 76.107 77.332 76.807 73.187 72.499 72.362 72.469 72.522 72.677 72.632 72.722 72.719 72.797 72.789 72.859 72.857 72.969 73.059 73.059 73.069 73.087 73.054 73.082 73.082 73.102 73.067 73.127 73.164 74.197 77.324 77.139 74.139 73.187 73.252 73.347 73.279 73.214 73.232 73.227 73.194 73.169 73.137 73.122 73.062 73.839 73.777 78.634 76.902 75.722 72.877 73.994 76.844 76.822 77.717 76.262 77.792 76.302 79.767 81.697 78.457 76.844 77.747 76.919 75.247 74.499 72.877 73.134 73.314 73.534 76.692 78.202 78.047 76.719 76.977 75.249 74.802 74.094 72.987 73.752 74.474 74.367 72.974 72.362 72.204 72.512 72.064 71.992 71.922 71.862 71.799 71.839 71.867 71.747 73.169 72.447 74.784 75.332 76.057 78.467 75.284 73.484 72.979 74.399 73.939 73.489 72.839 72.697 72.044 71.994 71.949 71.924 71.982 71.904 71.871 71.859 71.906 72.016 72.094 72.026 71.829 71.554 71.451 71.394 71.381 73.316 74.531 73.271 76.489 77.071 75.236 74.746 75.016 74.311 76.241 78.344 76.234 73.964 71.404 71.481 71.581 71.654 71.679 71.631 71.594 71.539 71.536 71.546 71.561 71.564 72.014 73.929 73.946 73.589 75.109 72.259 71.829 71.884 71.866 71.899 71.874 71.909 71.956 72.021 72.061 72.084 72.114 72.189 72.224 72.266 72.294 72.329 72.376 72.416 72.429 72.476 72.506 72.559 72.576 72.609 72.661 72.711 72.734 72.774 72.834 72.836 72.881 72.929 72.986 73.001 73.054 73.106 73.139 73.171 73.216 73.271 73.294 73.351 73.391 73.436 73.454 73.464 73.519 73.534 73.579 73.626 73.659 73.714 73.741 73.761 73.799 73.831 73.846 73.881 73.901 73.931 73.954 73.974 74.001 74.026 74.049 74.079 74.114 74.156 74.199 74.241 74.246 74.256 74.294 74.324 74.316 74.369 74.414 74.449 74.496 74.526 74.549 74.579 74.589 74.621 74.669 74.701 74.721 74.754 74.814 74.901 74.969 74.999 75.064 75.129 75.216 77.464 77.859 78.916 79.554 80.204 78.401 78.576 78.181 76.056 75.861 75.909 75.959 76.009 76.079 76.134 76.216 76.261 76.326 76.346 76.426 76.489 76.549 76.626 76.696 76.771 76.851 76.919 76.989 77.084 77.196 77.306 77.396 77.496 77.609 77.689 77.789 77.886 77.964
74.26 72.767 71.972 68.307 66.177 66.142 67.487 67.895 70.7 70.922 69.29 69.095 68.745 67.882 66.155 66.132 66.07 66.695 66.43 66.077 66.13 67.09 67.497 66.052 66.072 66.36 69.22 68.337 71.302 70.867 67.02 70.325 73.337 70.722 72.217 73.475 74.96 74.972 73.33 67.07 74.985 75.13 75.007 73.985 75.2 74.035 72.58 69.117 68.405 70.162 74.772 74.06 68.437 67.962 67.98 67.482 68.735 74.57 72.062 67.152 67.725 72.202 73.755 74.96 74.882 74.617 74.897 75.177 75.04 69.74 77.07 77.09 75.76 73.205 70.292 73.712 75.017 71.085 71.905 71.855 71.307 69.875 70.797 69.905 68.9 69.075 70.732 69.97 69.717 69.132 69.76 70.902 69.34 69.352 69.417 70.707 69.827 69.77 69.777 69.845 71.337 76.192 73.437 72.092 72.982 75.119 73.844 70.624 71.239 71.702 72.472 72.512 72.504 72.259 72.499 72.067 70.922 71.072 72.457 71.642 70.967 72.504 71.247 71.282 71.859 71.892 72.849 76.227 76.792 77.602 75.767 75.137 73.972 72.679 72.102 71.729 71.759 71.817 72.004 71.847 73.522 74.057 76.564 75.624 74.052 72.267 72.397 72.519 72.604 72.694 72.702 72.724 72.742 72.832 72.812 72.872 72.897 72.999 73.042 73.072 73.804 79.154 77.654 75.014 73.549 73.124 73.117 73.162 73.202 73.632 75.194 76.529 73.214 73.202 73.264 73.347 73.272 73.269 73.209 73.199 74.542 73.167 74.472 73.294 73.067 73.217 76.472 73.904 76.777 77.024 73.244 72.774 78.217 77.387 77.247 77.237 79.282 78.472 78.267 78.479 79.799 77.964 79.524 76.199 74.214 75.334 72.772 73.169 72.862 72.939 75.082 76.772 76.622 77.179 77.874 77.387 76.902 75.087 74.064 74.804 73.774 74.147 74.149 72.769 72.849 72.849 72.549 71.944 71.952 71.897 71.787 71.759 71.869 72.039 73.177 74.307 77.789 77.407 78.884 80.144 78.832 77.289 72.019 72.674 72.279 72.469 72.849 71.877 71.967 71.999 71.964 71.879 71.909 71.937 71.836 71.756 71.766 71.831 71.916 72.074 72.096 71.706 71.494 71.434 71.421 71.546 72.854 77.966 75.859 74.516 77.949 75.756 71.974 77.261 71.454 72.116 72.994 71.426 71.381 71.516 71.626 71.641 71.639 71.634 71.684 71.669 71.774 71.771 71.584 71.561 71.541 71.559 72.754 73.956 73.569 71.939 73.251 72.839 71.904 71.844 71.854 71.876 71.949 72.026 72.056 72.101 72.129 72.176 72.231 72.271 72.316 72.339 72.384 72.419 72.439 72.501 72.531 72.564 72.611 72.649 72.679 72.716 72.754 72.786 72.854 72.871 72.894 72.954 72.991 73.026 73.089 73.126 73.189 73.224 73.254 73.301 73.329 73.401 73.441 73.459 73.504 73.509 73.549 73.584 73.624 73.674 73.714 73.749 73.786 73.806 73.814 73.854 73.889 73.901 73.916 73.941 73.984 73.989 74.031 74.056 74.086 74.116 74.131 74.176 74.236 74.271 74.276 74.281 74.329 74.346 74.386 74.399 74.429 74.459 74.534 74.556 74.571 74.624 74.611 74.646 74.706 74.739 74.761 74.791 74.841 74.911 74.964 75.014 75.086 75.149 75.206 75.836 77.041 76.851 80.374 77.999 77.466 77.439 76.936 76.521 75.939 75.961 75.979 76.031 76.091 76.154 76.236 76.296 76.346 76.374 76.436 76.501 76.591 76.646 76.726 76.796 76.891 76.954 77.046 77.154 77.254 77.316 77.421 77.549 77.676 77.724 77.841 77.929 78.031
74.22 72.985 70.497 67.432 66.635 68.175 69.312 70.402 70.76 69.13 67.355 66.43 67.38 67.727 66.915 66.09 66.117 66.892 66.62 66.157 66.392 66.47 66.975 68.035 70.312 68.075 67.447 67.59 72.27 72.48 68.722 71.297 74.777 74.79 74.762 74.62 75.12 75.34 75.462 69.07 72.385 73.37 74.265 73.84 73.647 73.955 72.232 68.992 68.892 69.39 71.267 71.557 67.1 67.682 68.262 67.415 67.152 70.49 70.215 68.63 67.802 69.832 74.245 74.972 74.37 74.67 74.485 74.192 71.272 74.37 77.535 77.222 77.007 75.567 74.557 75.007 74.202 69.857 71.697 72.11 71.872 70.995 71.215 69.44 68.945 69.145 70.442 69.18 69.285 69.167 70.147 70.615 69.522 69.447 69.825 70.515 69.772 69.79 69.817 69.857 70.615 71.92 69.962 70.012 71.389 74.097 73.114 70.334 70.357 70.442 70.604 70.739 70.742 70.679 71.032 71.879 72.029 73.124 74.562 72.449 71.529 73.407 77.977 72.282 75.884 73.129 74.239 76.247 75.904 76.087 77.162 77.084 76.607 72.499 72.359 71.817 71.839 71.877 71.917 71.957 71.984 73.512 72.129 74.469 72.822 72.517 72.412 72.569 72.697 72.729 72.772 72.792 72.792 72.877 72.857 72.874 72.927 73.002 73.049 73.494 77.564 80.069 76.939 75.467 74.239 73.159 73.149 73.522 77.967 75.722 76.839 73.704 73.237 73.244 73.319 73.372 73.277 73.259 74.137 76.944 76.274 75.322 77.199 75.387 75.357 73.657 76.249 76.429 77.329 76.957 73.142 73.874 78.262 78.202 77.522 77.744 77.497 77.867 82.129 77.692 76.747 79.027 76.182 77.207 77.514 75.147 75.392 72.907 74.494 73.242 72.499 73.822 73.117 72.302 75.532 75.772 78.089 77.962 77.347 75.234 73.097 73.049 73.329 72.652 72.639 73.012 72.369 73.274 72.812 73.492 72.489 71.824 73.679 76.652 73.957 75.142 77.217 78.837 80.412 81.329 79.877 77.067 73.042 71.832 72.862 72.584 72.002 71.769 71.832 71.899 72.254 71.889 71.802 71.834 71.846 71.831 71.749 71.751 71.791 71.881 72.074 71.939 71.606 71.469 71.406 76.996 73.191 77.136 78.299 83.111 80.726 74.274 74.439 73.284 76.124 73.626 71.384 71.381 71.404 71.574 71.639 71.664 71.629 71.674 71.861 71.889 72.066 72.221 72.121 71.631 71.556 71.556 71.531 71.609 71.714 71.804 71.821 71.934 71.786 71.789 71.819 71.881 71.946 72.011 72.071 72.096 72.151 72.154 72.239 72.281 72.321 72.361 72.396 72.441 72.431 72.481 72.531 72.606 72.639 72.669 72.701 72.719 72.779 72.809 72.849 72.889 72.944 72.976 73.044 73.081 73.126 73.171 73.216 73.266 73.304 73.366 73.389 73.431 73.481 73.511 73.529 73.541 73.581 73.629 73.659 73.686 73.711 73.761 73.821 73.851 73.854 73.904 73.921 73.939 73.971 73.994 74.026 74.039 74.056 74.081 74.106 74.144 74.181 74.214 74.246 74.296 74.319 74.324 74.354 74.349 74.396 74.431 74.464 74.471 74.539 74.589 74.609 74.639 74.646 74.706 74.736 74.771 74.791 74.834 74.859 74.939 74.986 75.029 75.081 75.169 75.249 75.301 75.424 77.416 75.779 76.326 76.151 77.859 77.659 75.959 75.939 76.001 76.001 76.009 76.079 76.166 76.234 76.311 76.374 76.436 76.499 76.571 76.631 76.704 76.756 76.834 76.911 77.021 77.099 77.189 77.281 77.356 77.466 77.571 77.709 77.779 77.896 77.991 78.074
73.957 73.802 71.597 69.112 66.902 67.01 69.162 67.945 68.025 67.377 65.91 69.51 71.4 68.865 69.025 66.075 65.982 66.137 66.732 66.38 67.782 68.132 66.375 70.685 72.72 70.292 70.245 70.977 72.525 73.092 72.332 69.08 74.92 75.207 75.492 75.747 75.447 74.98 74.532 69.955 69.725 72.342 73.742 73.752 73.2 73.875 70.365 67.087 68.78 67.555 67.025 66.922 67.087 67.467 68.587 67.215 68.222 69.595 69.712 69.79 69.007 67.73 71.722 72.487 73.507 74.807 74.035 72.592 70.85 76.025 77.09 77.562 77.872 77.67 76.887 76.335 75.712 69.695 75.657 76.085 74.687 71.927 71.027 68.972 70.132 69.825 70.135 69.462 69.407 69.265 69.64 69.687 69.625 69.597 70.212 70.52 69.832 69.817 69.837 69.945 70.63 70.077 70.007 70.027 70.897 71.167 70.319 70.344 70.364 70.514 70.847 70.662 70.642 70.659 70.832 71.734 72.432 72.579 73.437 72.954 73.109 76.467 75.334 76.164 78.774 78.217 74.587 74.077 75.949 75.762 76.667 76.084 79.084 77.744 76.854 72.822 71.872 71.929 72.052 72.072 72.082 72.114 72.167 72.254 72.362 73.079 72.722 72.597 72.709 72.742 72.807 72.824 72.847 72.972 72.857 72.914 72.947 74.017 73.367 74.267 74.949 76.749 75.459 75.739 73.179 73.164 73.199 73.279 76.407 75.194 76.179 73.667 73.227 73.297 73.414 73.362 73.267 73.204 74.162 75.929 78.537 76.159 74.629 74.209 73.489 73.027 74.619 75.969 77.002 76.399 73.222 74.297 74.137 78.517 79.957 76.524 78.939 75.374 76.667 77.037 79.157 76.867 76.664 79.569 79.147 77.204 74.832 74.299 73.217 72.339 72.699 72.907 72.212 72.472 73.492 72.897 73.549 76.764 78.214 78.017 75.672 74.202 72.307 72.489 73.384 72.427 72.394 72.289 72.052 72.547 72.002 73.012 72.377 73.659 71.724 72.067 78.554 80.334 81.142 80.982 80.827 78.662 75.514 72.202 75.884 78.462 72.954 71.654 71.742 71.799 71.942 72.424 71.819 71.724 71.766 71.761 71.771 71.714 71.724 71.771 71.894 72.074 71.839 71.591 71.426 76.454 74.389 76.854 76.479 77.479 77.281 73.409 78.196 77.711 76.204 72.659 71.341 71.351 71.536 71.601 71.664 71.671 71.689 71.864 71.944 72.049 72.381 72.604 72.396 71.924 71.751 71.611 71.611 71.664 71.684 72.601 71.764 71.796 71.761 71.779 71.806 71.884 71.946 71.996 72.051 72.119 72.166 72.204 72.229 72.316 72.341 72.374 72.406 72.451 72.454 72.529 72.561 72.631 72.661 72.701 72.731 72.764 72.799 72.829 72.861 72.909 72.964 73.021 73.071 73.101 73.159 73.189 73.226 73.279 73.314 73.366 73.399 73.464 73.514 73.549 73.559 73.629 73.626 73.681 73.714 73.729 73.744 73.784 73.839 73.846 73.886 73.901 73.919 73.964 74.004 74.029 74.054 74.061 74.079 74.106 74.141 74.171 74.209 74.266 74.291 74.329 74.346 74.356 74.379 74.371 74.424 74.456 74.486 74.496 74.574 74.591 74.644 74.659 74.691 74.739 74.769 74.801 74.824 74.844 74.889 74.964 75.021 75.074 75.104 75.169 75.249 75.321 75.386 75.434 75.769 77.949 78.199 78.424 77.029 75.971 76.024 76.014 76.024 76.021 76.114 76.174 76.264 76.344 76.404 76.471 76.529 76.609 76.661 76.721 76.804 76.884 76.964 77.044 77.124 77.211 77.321 77.401 77.484 77.619 77.754 77.841 77.939 78.021 78.129
74.02 74.315 72.19 69.547 67.39 65.8 65.925 65.682 65.712 65.73 65.832 68.622 72.922 72.34 72.035 70.892 68.527 67.31 66.882 66.912 72.545 70.592 67.202 70.18 73.542 74.03 74.64 73.73 74.18 74.665 75.165 68.747 75.47 75.18 74.647 74.302 73.872 73.465 72.855 71.332 67.815 68.032 71.142 71.052 69.897 67.76 67.42 67.602 67.92 67.977 67.037 66.892 67.362 67.072 67.187 67.095 67.225 70.812 69.745 69.67 68.417 68.135 68.58 69.225 69.02 70.702 71.857 70.057 70.302 74.8 75.422 76.31 77.155 77.28 77.697 77.79 75.58 71.155 77.065 77.477 77.415 76.74 75.725 73.127 72.912 71.042 70.192 73.47 70.65 69.43 69.955 69.672 70.76 70.125 70.337 70.402 69.85 69.857 69.862 70 70.622 70.005 70.025 70.047 71.249 70.734 70.357 70.359 70.634 71.974 70.997 70.667 70.664 70.672 70.807 72.399 71.897 71.177 72.499 73.692 74.114 76.137 77.459 79.452 80.067 78.482 78.124 76.024 75.129 75.617 73.152 76.317 77.689 80.264 80.254 75.377 74.204 72.862 72.154 72.242 72.174 72.249 72.289 72.309 72.702 73.344 72.709 72.597 72.709 72.757 72.832 72.859 72.872 72.929 72.899 72.944 72.974 75.987 74.702 73.114 74.559 76.187 75.962 73.329 73.202 73.192 73.222 73.239 73.927 74.892 73.414 73.252 73.254 73.367 73.409 73.372 73.277 73.237 74.979 76.609 75.984 75.689 75.847 75.649 73.492 73.027 72.957 74.414 75.192 75.049 72.769 72.727 74.607 76.767 73.979 74.662 75.352 74.844 79.187 79.937 78.527 75.634 75.302 78.022 79.072 78.044 76.014 74.427 72.472 73.502 73.807 74.592 72.432 72.249 73.152 72.034 71.994 72.772 75.254 76.477 77.344 78.117 74.737 72.599 71.907 72.407 71.949 72.087 72.297 73.722 71.894 72.377 72.782 71.637 71.609 71.579 76.014 79.467 80.072 79.752 80.362 79.169 74.122 72.787 73.977 73.259 71.542 71.557 71.632 71.687 71.784 71.922 72.874 72.324 71.679 71.689 71.756 71.676 71.639 71.694 71.706 71.899 72.086 71.889 71.566 71.386 73.311 75.811 76.234 75.504 76.279 77.481 78.004 73.419 76.761 71.376 71.311 71.416 71.679 71.734 71.699 71.719 71.774 71.924 72.121 72.399 72.506 72.386 72.114 71.884 71.756 71.674 71.629 72.351 73.709 74.284 71.819 71.804 71.789 71.789 71.809 71.881 71.931 72.006 72.061 72.111 72.166 72.211 72.239 72.296 72.366 72.391 72.429 72.439 72.486 72.536 72.571 72.621 72.671 72.731 72.754 72.781 72.809 72.841 72.871 72.931 72.994 73.031 73.081 73.136 73.186 73.226 73.274 73.309 73.349 73.401 73.446 73.489 73.534 73.579 73.611 73.674 73.694 73.699 73.701 73.744 73.784 73.799 73.839 73.866 73.901 73.926 73.949 73.989 74.029 74.069 74.084 74.096 74.136 74.166 74.186 74.231 74.259 74.289 74.311 74.349 74.371 74.384 74.399 74.424 74.454 74.466 74.509 74.544 74.574 74.631 74.669 74.694 74.711 74.781 74.804 74.831 74.864 74.931 74.944 75.009 75.071 75.116 75.171 75.186 75.249 75.306 75.399 75.644 76.229 77.239 79.016 77.896 76.686 76.054 76.094 76.064 76.079 76.079 76.141 76.181 76.281 76.384 76.466 76.531 76.579 76.646 76.719 76.756 76.841 76.894 76.981 77.064 77.164 77.271 77.369 77.449 77.524 77.636 77.754 77.851 77.951 78.039 78.119
72.945 74.205 72.717 71.695 71.017 66.135 65.692 65.692 65.682 66.955 68.712 68.097 71.93 76.5 75.072 72.295 72.852 68.725 68.505 70.967 72.835 73.35 70.052 69.762 74.75 74.865 75.012 75.747 75.21 75.055 74.632 70.325 72.722 74.225 73.317 73.295 72.85 73.375 70.355 67.86 66.692 66.68 66.595 66.847 67.195 67.32 67.355 67.21 67.807 67.837 66.682 67.312 67.825 67.622 67.025 67.455 68.175 69.315 70.757 68.78 68.877 68.01 68.56 69.442 68.142 68.14 67.972 69.05 69.707 71.41 73.977 75.232 75.07 75.7 76.212 76.857 73.352 74.575 76.26 76.73 77.145 77.46 77.417 77.192 75.897 71.362 74.55 76.312 72.287 69.602 69.817 71.6 73.105 70.257 70.56 70.037 70.037 69.995 69.962 70.352 70.16 70.065 70.07 70.215 70.837 70.412 70.367 70.362 70.424 70.647 70.604 70.629 71.669 71.239 71.347 71.427 71.314 71.742 72.917 74.387 77.312 75.589 76.252 77.299 77.749 78.759 79.657 79.189 77.967 76.432 74.259 73.767 76.249 77.864 77.449 74.279 74.384 74.957 74.899 73.434 72.777 72.424 72.474 72.404 73.489 76.664 75.399 73.867 72.739 72.792 72.859 72.872 73.282 72.949 72.917 75.554 76.544 77.059 77.852 76.354 73.124 73.127 73.172 73.177 73.209 73.232 75.719 76.014 75.169 73.272 73.272 73.264 73.304 73.389 73.407 73.364 73.267 73.244 73.219 77.507 74.124 74.374 73.802 73.349 73.079 73.027 73.002 72.937 72.904 72.812 72.737 72.797 72.864 72.632 72.927 75.102 76.027 74.719 73.019 77.574 74.104 75.037 76.447 75.994 74.474 76.867 76.489 76.112 75.069 74.822 73.569 73.107 72.634 72.229 72.129 72.129 71.989 71.907 71.852 72.529 75.369 76.219 76.462 76.494 71.832 71.362 71.814 72.852 73.054 75.789 73.909 73.119 71.894 71.654 71.567 71.567 71.942 74.562 77.222 77.867 78.862 76.029 73.264 77.869 76.632 72.067 71.449 71.502 71.537 71.757 72.467 73.704 73.542 73.349 74.306 71.784 71.659 71.659 71.686 71.619 71.661 71.691 71.886 72.039 71.856 71.531 72.231 73.009 75.299 74.624 72.894 71.409 72.016 76.991 78.981 72.114 71.474 71.846 71.886 71.729 71.711 71.819 71.784 71.834 71.969 72.154 72.321 72.336 72.321 72.309 72.436 72.234 71.744 74.164 76.234 76.091 72.574 72.699 72.471 71.886 71.844 71.879 71.936 71.989 72.071 72.129 72.179 72.231 72.276 72.309 72.381 72.404 72.434 72.454 72.501 72.551 72.626 72.641 72.684 72.746 72.789 72.801 72.826 72.881 72.904 72.954 73.034 73.091 73.129 73.159 73.209 73.256 73.296 73.339 73.396 73.421 73.454 73.506 73.549 73.601 73.624 73.674 73.706 73.729 73.741 73.776 73.801 73.819 73.854 73.874 73.924 73.939 74.014 74.029 74.071 74.096 74.111 74.141 74.156 74.191 74.231 74.269 74.289 74.319 74.349 74.386 74.416 74.424 74.454 74.476 74.499 74.511 74.551 74.571 74.624 74.659 74.701 74.724 74.766 74.804 74.846 74.889 74.929 74.946 74.981 75.026 75.094 75.136 75.211 75.234 75.269 75.326 75.549 75.894 75.819 77.034 76.914 79.356 77.629 76.124 76.144 76.214 76.119 76.126 76.154 76.241 76.324 76.399 76.491 76.591 76.631 76.679 76.741 76.814 76.861 76.936 77.001 77.071 77.181 77.276 77.384 77.476 77.569 77.674 77.756 77.861 77.954 78.074 78.181
72.385 74.18 73.347 73.012 72.412 68.052 65.782 66.167 68.96 69.665 70.867 68.052 68.252 75.27 69.62 70.84 72.7 72.477 72.72 74.137 74.537 74.597 73.635 68.892 75.202 75.055 74.685 74.73 73.917 73.395 72.902 70.282 68.9 70.717 69.415 70.582 68.412 67.757 66.695 66.595 66.737 66.81 66.502 67.2 67.127 66.745 66.682 66.632 66.76 67.835 66.627 66.747 66.74 66.78 66.805 66.865 66.92 68.42 67.637 67.705 67.35 67.722 68.117 69.052 67.972 68.575 68.537 70.417 68.335 68.322 69.297 71.097 73.02 75.18 74.412 74.892 71.415 74.5 75.365 76.197 76.382 76.957 76.892 77.215 76.222 72.74 76.382 76.18 73.895 71.207 70.777 75.47 75.14 71.365 72.022 71.917 70.192 71.972 70.575 71.062 70.142 70.132 70.14 70.72 70.684 70.387 70.387 70.417 70.457 70.589 70.662 70.692 70.837 70.787 71.334 72.207 71.052 71.117 72.032 73.534 75.127 75.712 72.479 73.584 73.739 74.714 77.582 79.274 79.032 76.237 75.489 77.662 74.194 76.762 73.812 73.127 73.377 75.419 76.294 74.897 73.229 77.604 75.382 74.737 75.424 78.462 77.069 73.879 72.709 72.772 72.842 72.887 73.499 72.929 75.022 76.549 76.142 78.092 77.399 75.147 73.749 73.162 73.162 73.207 73.494 74.169 75.592 79.937 76.764 73.404 73.279 73.282 73.322 73.432 73.414 73.342 73.272 73.249 73.204 73.184 73.177 73.192 74.107 73.107 73.059 73.052 73.014 72.962 72.914 72.827 72.764 72.972 73.102 72.714 72.857 75.097 74.387 74.107 74.734 74.879 72.902 73.212 73.557 72.492 74.302 75.702 76.672 77.189 77.099 76.922 74.094 72.272 72.497 72.714 72.244 72.094 72.012 71.932 71.859 71.799 73.747 74.797 76.799 77.899 76.119 73.404 71.742 72.734 73.572 75.289 75.372 72.447 71.692 71.637 71.604 71.544 71.649 71.849 72.552 74.662 76.267 73.999 78.572 79.987 78.859 76.517 73.542 71.554 71.744 72.077 73.194 73.492 73.784 74.457 73.771 73.749 71.606 71.629 71.646 71.626 71.579 71.604 71.706 71.944 72.019 71.759 71.979 72.746 73.896 72.889 72.414 71.356 71.321 71.361 71.361 71.401 71.614 71.911 71.839 71.771 71.849 71.966 71.826 71.864 72.054 72.279 72.126 71.959 72.639 72.514 72.906 72.486 71.859 71.784 73.654 75.059 73.606 74.239 73.906 72.209 71.896 71.874 71.941 71.991 72.056 72.149 72.186 72.279 72.291 72.324 72.379 72.429 72.474 72.491 72.529 72.594 72.636 72.661 72.709 72.764 72.796 72.826 72.871 72.929 72.946 72.984 73.039 73.111 73.151 73.209 73.221 73.261 73.344 73.381 73.401 73.436 73.499 73.511 73.564 73.656 73.661 73.701 73.741 73.751 73.786 73.826 73.869 73.876 73.916 73.934 73.956 73.986 74.031 74.061 74.099 74.134 74.154 74.174 74.194 74.236 74.276 74.304 74.324 74.374 74.401 74.416 74.434 74.461 74.496 74.494 74.516 74.569 74.599 74.621 74.664 74.699 74.751 74.774 74.821 74.866 74.894 74.931 74.931 74.996 75.026 75.069 75.126 75.194 75.241 75.271 75.311 75.354 75.984 76.156 75.941 76.644 77.244 78.969 77.106 76.416 76.234 76.196 76.106 76.136 76.199 76.279 76.331 76.431 76.526 76.616 76.679 76.726 76.781 76.836 76.906 76.969 77.029 77.119 77.204 77.276 77.379 77.476 77.566 77.676 77.779 77.899 77.981 78.089 78.201
73.365 73.677 73.267 71.865 67.362 67.197 66.445 66.002 67.252 66.575 67.272 68.285 68.445 71.145 68.182 69.482 73.465 73.89 74.32 75.06 74.692 74.412 74.492 66.68 73.852 73.862 73.395 72.94 72.865 73.002 70.09 68.135 66.45 66.635 66.122 66.175 66.582 66.555 66.675 66.565 67.135 67.19 66.427 67.15 67.077 66.855 66.677 66.492 66.475 66.512 66.527 66.575 66.662 66.71 66.797 66.875 66.905 66.955 66.98 67.052 67.6 68.027 67.54 68.3 67.547 67.837 69.435 69.942 68.377 69.007 69.145 69.53 68.86 69.54 69.585 69.755 70.417 73.71 75.787 76.05 76.027 76.457 75.77 75.982 72.957 75.465 77.88 77.287 76.692 76.277 74.442 76.257 75.367 72.355 73.5 73.51 72.917 72.957 71.212 70.367 70.117 70.245 70.675 70.642 70.604 70.429 70.397 70.529 70.599 71.349 70.687 70.667 71.034 71.599 71.472 70.992 71.077 71.122 72.037 72.902 74.439 74.634 71.942 73.269 73.949 71.977 72.944 75.824 77.704 78.757 76.402 76.124 77.802 75.887 73.219 73.292 75.032 78.129 78.924 74.887 74.014 77.532 78.792 76.139 75.947 78.982 76.729 76.234 74.002 72.767 72.809 72.914 72.904 72.934 74.217 78.652 77.414 79.717 77.114 77.714 73.829 73.187 75.052 73.207 74.034 75.874 77.667 77.702 76.154 75.667 75.432 73.722 73.364 73.407 73.367 73.294 73.262 73.244 73.209 73.172 73.174 73.262 73.149 73.069 73.069 73.442 73.137 72.984 72.944 72.864 72.772 72.804 73.279 73.229 72.599 72.719 74.624 73.512 75.877 73.682 72.432 72.327 72.352 72.344 72.344 74.499 79.354 78.317 75.947 75.209 75.267 74.212 73.294 72.612 72.204 72.202 71.979 71.867 71.822 71.679 71.617 71.522 72.714 77.272 78.087 77.247 74.842 73.709 72.252 73.337 75.204 72.992 71.782 71.649 71.619 71.584 71.542 71.689 71.777 71.892 72.142 76.937 79.899 80.659 80.122 79.007 77.139 73.499 71.727 73.022 75.002 75.777 76.207 75.232 76.329 73.704 71.549 71.544 71.606 71.629 71.571 71.526 71.579 71.654 71.969 71.994 71.671 71.406 74.331 71.939 72.014 71.406 71.306 71.406 71.384 71.409 71.699 71.951 71.929 71.901 71.991 72.004 71.916 71.854 72.099 72.226 72.126 71.844 71.861 72.539 72.829 72.721 72.206 71.881 71.844 71.959 72.314 74.574 74.334 72.064 71.901 71.909 71.936 72.009 72.069 72.169 72.219 72.306 72.326 72.361 72.394 72.456 72.504 72.539 72.579 72.606 72.654 72.674 72.741 72.769 72.806 72.849 72.914 72.979 73.001 73.029 73.059 73.151 73.201 73.246 73.266 73.311 73.361 73.411 73.444 73.486 73.544 73.561 73.609 73.691 73.709 73.754 73.764 73.781 73.821 73.849 73.896 73.911 73.941 73.949 74.001 74.041 74.091 74.096 74.149 74.164 74.209 74.241 74.266 74.289 74.319 74.359 74.361 74.396 74.426 74.439 74.479 74.519 74.541 74.561 74.579 74.609 74.641 74.704 74.701 74.749 74.789 74.811 74.854 74.881 74.934 74.966 74.986 74.996 75.054 75.124 75.166 75.246 75.279 75.304 75.311 75.404 76.741 76.719 77.761 79.341 78.754 78.231 78.394 76.896 76.184 76.196 76.086 76.171 76.211 76.294 76.369 76.454 76.546 76.634 76.706 76.761 76.816 76.886 76.934 76.989 77.061 77.149 77.196 77.279 77.391 77.471 77.556 77.689 77.804 77.936 78.056 78.161 78.279
72.6 71.352 71.865 69.527 67.827 67.372 65.642 65.495 65.512 65.55 66.295 68.245 68.185 68.135 67.312 67.207 74.045 74.67 74.407 75.197 73.825 73.197 73.002 68.49 70.572 72.072 72.582 71.775 69.892 68.395 66.495 65.947 67.55 66.102 66.047 66.185 66.205 66.55 66.812 66.157 66.372 67.722 66.447 66.297 66.317 66.342 66.33 66.397 66.447 66.515 66.607 66.662 66.75 66.812 66.882 66.915 66.982 67.055 67.06 67.122 67.155 68.072 67.23 67.337 67.427 67.655 68.925 68.82 68.102 69.205 68.852 69.157 68.627 68.922 68.407 68.652 68.765 71.792 74.947 75.682 75.612 76.347 75.097 74.415 70.447 78.582 79.007 78.865 78.375 78.025 77.857 77.157 75.105 73.082 76.67 75.897 73.66 73.432 71.615 70.367 70.36 70.71 70.972 71.11 70.867 70.824 70.622 70.844 72.292 71.099 70.699 70.719 70.907 71.229 71.827 71.002 71.079 71.152 71.194 71.724 73.619 72.767 73.747 75.387 75.899 72.569 71.707 74.684 78.357 76.284 76.967 77.714 76.602 75.647 72.642 73.259 76.272 78.552 77.674 76.257 74.689 78.712 78.992 78.177 76.552 77.829 79.527 75.057 74.252 72.997 72.887 72.932 72.934 72.972 73.049 78.147 76.204 77.757 75.214 75.772 76.234 73.717 74.907 73.924 75.157 75.012 76.914 76.334 75.599 75.034 73.744 73.392 73.434 73.409 73.352 73.292 73.279 73.274 73.212 73.192 73.194 73.162 73.112 73.104 73.077 73.059 73.042 72.994 72.964 72.894 72.832 72.769 72.912 73.409 72.602 72.524 72.494 74.349 73.504 72.442 72.352 72.292 72.452 72.312 72.329 78.019 81.419 83.014 78.199 76.512 77.217 77.192 76.344 73.434 72.694 73.514 72.769 71.804 71.672 72.029 71.532 71.524 71.497 72.344 77.067 78.304 78.037 75.369 72.259 72.742 74.207 76.312 73.979 71.689 71.659 71.607 71.567 71.607 71.789 72.662 73.017 77.547 78.992 79.867 80.674 80.287 79.142 75.709 72.639 71.502 73.372 74.812 74.289 73.907 75.541 72.009 72.244 71.521 71.526 71.566 71.589 71.481 71.529 71.524 71.734 72.041 71.916 71.829 71.334 71.279 71.414 71.421 71.519 71.564 71.471 71.564 71.914 72.039 72.021 72.046 72.059 71.826 71.661 71.779 71.896 71.834 72.136 72.296 71.669 71.809 71.899 71.949 72.726 73.049 72.096 74.081 74.976 73.344 72.134 72.341 72.191 71.886 71.964 72.036 72.114 72.191 72.246 72.314 72.344 72.411 72.434 72.494 72.519 72.539 72.611 72.644 72.669 72.706 72.736 72.799 72.864 72.891 72.929 72.999 73.049 73.086 73.114 73.161 73.206 73.269 73.311 73.354 73.396 73.436 73.474 73.536 73.571 73.591 73.654 73.694 73.734 73.776 73.791 73.806 73.859 73.864 73.919 73.959 73.989 74.026 74.081 74.116 74.111 74.119 74.179 74.229 74.254 74.284 74.294 74.346 74.364 74.399 74.416 74.436 74.469 74.481 74.516 74.561 74.576 74.611 74.636 74.676 74.699 74.764 74.771 74.829 74.864 74.874 74.914 74.936 74.966 74.969 75.019 75.041 75.101 75.161 75.231 75.301 75.339 75.376 75.394 75.534 77.289 78.226 77.636 79.284 80.744 80.186 78.746 78.236 76.741 76.171 76.111 76.191 76.244 76.311 76.391 76.471 76.569 76.664 76.741 76.801 76.884 76.946 76.969 77.011 77.071 77.164 77.226 77.309 77.419 77.511 77.621 77.734 77.844 77.989 78.101 78.244 78.349
70.655 71.635 73.27 73.295 71.232 69.547 65.827 65.675 65.477 65.477 65.675 68.127 68.202 67.802 67.21 66.175 73.56 73.16 73.135 74.522 74.095 72.5 71.025 68.675 67.477 67.132 66.542 65.98 66.677 65.907 65.837 66.342 66.352 66.452 65.925 66.91 68.18 66.955 65.98 66.045 66.077 66.28 66.127 66.182 66.257 66.312 66.36 66.445 66.535 66.59 66.642 66.67 66.8 66.947 66.857 66.892 66.955 66.997 67.07 67.127 67.222 67.277 67.302 67.332 67.37 67.412 67.53 67.915 67.71 67.797 68.23 69.122 68.44 68.477 68.785 69.122 68.812 68.762 70.765 72.062 75.305 75.135 72.65 70.97 73.83 77.032 77.632 78.232 79.54 78.935 78.815 78.357 73.977 75.37 78.212 77.84 77.63 76.522 75.225 73.582 70.797 72.962 70.987 72.57 73.192 71.832 70.934 70.704 71.087 70.679 70.687 70.732 71.122 71.464 71.059 71.037 71.079 71.149 71.312 73.269 71.969 71.777 74.389 75.962 75.314 71.669 71.679 76.542 75.514 75.727 75.082 74.659 76.172 76.169 74.199 74.649 76.892 77.852 77.259 78.749 77.009 78.742 78.522 78.677 81.959 78.667 77.502 78.147 76.639 73.007 72.892 72.929 72.997 73.022 74.267 76.212 78.309 77.244 76.424 76.187 74.152 74.684 73.732 74.069 75.167 76.709 77.699 74.427 73.364 73.704 73.419 73.472 73.437 73.384 73.352 73.402 74.164 76.052 75.032 73.219 73.259 73.184 73.122 73.097 73.099 73.062 73.012 73.004 72.967 72.932 72.869 72.809 72.727 72.729 72.579 72.537 72.777 72.769 72.734 72.397 72.337 72.292 72.372 72.287 72.284 74.169 80.332 83.002 74.007 76.164 78.529 77.482 77.992 76.527 76.534 77.182 76.059 74.669 72.109 71.509 71.512 71.532 71.484 71.522 71.744 74.962 78.317 76.604 76.759 75.172 72.542 76.569 75.674 72.897 71.672 71.667 71.614 71.799 72.912 72.794 72.389 74.409 77.094 78.509 79.839 80.614 80.422 75.687 72.577 74.204 73.664 72.692 71.452 72.164 71.671 74.126 73.464 71.929 71.494 71.474 71.536 71.471 71.444 71.446 71.529 71.829 72.026 71.806 71.429 71.284 71.299 71.309 71.299 71.351 71.459 71.776 72.049 72.116 72.071 72.166 72.044 71.624 71.686 71.699 71.674 71.694 72.074 73.029 71.609 71.616 71.714 71.931 72.269 72.954 73.749 74.954 76.621 76.104 75.371 72.394 71.939 71.919 71.986 72.064 72.156 72.214 72.274 72.361 72.386 72.456 72.491 72.531 72.549 72.599 72.664 72.676 72.719 72.741 72.801 72.831 72.891 72.929 72.956 72.986 73.056 73.111 73.136 73.184 73.224 73.294 73.321 73.381 73.426 73.481 73.506 73.569 73.631 73.654 73.691 73.744 73.796 73.814 73.829 73.854 73.869 73.901 73.944 74.016 74.074 74.071 74.091 74.109 74.129 74.169 74.209 74.281 74.304 74.329 74.356 74.386 74.424 74.444 74.461 74.479 74.539 74.559 74.571 74.609 74.599 74.619 74.646 74.699 74.731 74.799 74.834 74.871 74.906 74.931 74.966 74.991 75.029 75.059 75.066 75.089 75.134 75.219 75.261 75.326 75.381 75.451 75.456 75.596 77.324 78.044 77.001 75.906 78.696 78.844 78.006 78.029 77.554 76.536 76.136 76.219 76.264 76.324 76.406 76.489 76.586 76.684 76.741 76.834 76.901 76.984 77.024 77.091 77.111 77.194 77.276 77.354 77.451 77.566 77.674 77.779 77.899 78.036 78.159 78.279 78.394
72.432 73.165 73.957 73.91 72.655 69.62 66.73 65.647 65.427 65.87 65.495 67.4 67.755 66.942 65.977 66.657 69.765 71.495 72.455 73.327 71.907 69.317 66.6 65.97 66.822 65.847 66.075 65.64 66.432 65.93 65.74 66.64 66.335 66.967 65.85 67.285 66.692 66.917 65.94 65.995 66.022 66.095 66.172 66.275 66.307 66.365 66.432 66.462 66.522 66.532 66.567 66.667 67.007 67.477 67.142 66.84 66.902 66.91 66.99 67.06 67.162 67.262 67.32 67.38 67.432 67.512 67.5 67.555 67.587 67.702 67.857 68.145 68.4 68.427 69.75 68.95 68.585 69.407 69.917 70.53 69.677 70.437 69.465 69.757 71.66 75.287 76.382 77.91 78.43 77.65 78.28 78.78 72.94 78.39 79.25 79.097 78.77 78.085 77.57 77.282 76.277 75.24 70.85 73.817 74.054 74.034 71.039 70.994 70.744 70.717 70.724 70.737 70.999 71.057 71.009 71.057 71.124 71.167 71.922 72.047 71.367 71.359 71.987 74.279 74.129 71.822 71.869 72.794 72.117 74.342 75.652 75.272 75.377 76.107 74.579 74.744 77.319 78.609 78.032 78.429 77.397 78.367 77.414 79.374 79.772 79.562 77.064 77.942 74.909 73.444 72.847 72.934 73.012 73.047 73.137 76.004 76.314 77.327 75.154 76.522 73.239 73.454 73.792 73.312 74.679 76.079 74.354 74.049 73.662 73.437 73.477 73.437 73.427 73.384 73.397 73.987 77.269 78.187 74.017 73.602 74.159 73.262 73.152 73.129 73.107 73.087 73.047 72.992 72.982 72.929 72.879 72.827 73.619 72.677 72.602 72.569 72.779 74.612 73.089 72.892 72.359 72.287 72.489 72.522 72.242 72.194 75.989 73.754 74.134 76.384 76.732 76.772 78.887 77.317 76.389 76.754 77.882 76.887 71.814 71.487 71.504 71.509 71.492 71.507 71.532 71.837 74.397 77.169 77.444 74.134 77.914 75.199 73.637 72.047 72.104 73.382 73.504 72.694 74.837 73.017 71.589 72.137 74.377 76.109 78.702 79.277 76.194 74.837 74.954 75.679 73.207 71.707 71.799 71.404 71.486 72.501 72.324 72.546 71.774 71.449 71.461 71.446 71.444 71.406 71.451 71.546 71.936 71.986 71.709 71.389 71.309 71.296 71.276 71.339 71.471 71.899 72.109 72.144 72.126 72.184 71.929 71.616 71.654 71.676 71.674 71.654 71.651 73.269 72.884 72.186 72.301 72.254 72.289 73.484 73.386 76.381 73.784 75.061 73.759 72.984 71.999 71.919 72.014 72.064 72.159 72.206 72.281 72.371 72.429 72.476 72.524 72.566 72.584 72.644 72.711 72.744 72.776 72.814 72.851 72.874 72.931 72.974 73.004 73.041 73.099 73.131 73.161 73.219 73.271 73.326 73.379 73.409 73.464 73.546 73.599 73.641 73.669 73.699 73.756 73.776 73.834 73.849 73.881 73.889 73.929 73.956 74.019 74.069 74.101 74.124 74.139 74.151 74.176 74.206 74.249 74.316 74.339 74.369 74.401 74.441 74.459 74.489 74.496 74.529 74.556 74.596 74.624 74.651 74.671 74.691 74.719 74.724 74.794 74.839 74.884 74.926 74.931 74.974 75.009 75.039 75.071 75.116 75.111 75.126 75.169 75.244 75.309 75.351 75.416 75.491 75.501 75.551 77.106 78.199 77.466 76.919 75.874 76.786 77.176 76.821 76.561 76.289 76.394 76.244 76.296 76.341 76.431 76.501 76.594 76.689 76.751 76.821 76.909 76.991 77.064 77.149 77.181 77.266 77.331 77.429 77.499 77.606 77.699 77.789 77.916 78.059 78.206 78.339 78.444
72.31 73.17 74.31 73.947 73.927 68.61 67.042 65.652 65.94 66.757 66.86 65.782 66.447 66.045 65.262 66.552 67.53 68.582 66.942 67.065 67.775 65.737 66.225 65.845 67.2 65.642 66.35 65.552 66.14 66.977 65.832 65.847 65.725 65.765 65.732 65.77 66.842 66.327 65.97 66.047 66.11 66.185 66.232 66.287 66.3 66.465 67.305 67.377 66.437 66.447 66.535 66.76 67.455 67.892 68.185 67.937 68.205 67.807 67.45 67.102 67.11 67.17 67.262 67.372 67.425 67.515 67.552 67.642 67.662 67.675 67.737 67.787 67.882 67.962 68.997 68.62 68.362 68.9 70.12 69.695 68.8 69.177 69.282 69.937 69.092 69.452 74.517 77.622 77.85 76.407 76.597 77.347 72.832 77.335 77.897 78.457 78.95 79.61 79.075 79.125 78.297 76 72.397 75.822 77.452 72.337 70.679 71.419 70.774 71.192 70.779 70.819 70.974 71.249 71.082 71.099 71.137 71.159 72.897 72.134 71.309 71.339 72.547 72.967 71.569 71.559 71.619 71.847 71.784 71.777 73.064 73.689 72.852 73.627 73.649 73.074 76.269 77.164 76.289 76.312 75.284 76.412 78.459 79.539 78.497 78.939 78.244 76.502 76.162 77.277 74.432 73.454 72.989 73.057 73.127 73.169 73.227 74.454 74.107 73.254 73.287 73.274 73.692 73.339 73.332 74.579 73.914 73.424 73.519 73.449 73.437 73.447 73.499 73.419 73.402 75.812 78.272 76.524 77.207 73.532 74.034 73.217 73.157 73.149 73.112 73.097 73.064 73.032 72.989 72.939 72.884 72.832 74.374 74.702 74.864 73.567 72.854 75.382 72.677 72.417 72.342 72.307 72.584 72.887 72.644 72.282 72.222 73.129 74.552 76.962 77.134 80.472 79.134 77.997 77.699 73.434 77.367 76.549 71.474 71.492 71.497 71.507 71.504 71.497 71.499 71.499 71.474 73.902 77.609 77.159 75.297 74.564 71.367 72.399 72.879 72.302 77.634 73.002 74.392 71.797 71.334 71.529 71.589 71.662 73.467 76.559 74.484 73.734 75.004 74.482 73.639 71.957 71.387 71.449 71.499 71.534 71.606 71.979 71.939 71.679 72.091 71.449 71.441 71.454 71.394 71.429 71.624 71.999 71.924 71.574 71.346 71.279 71.351 71.451 71.659 72.041 72.136 72.139 72.169 72.226 71.769 71.711 71.686 71.649 73.189 72.956 72.951 74.729 73.559 73.641 71.911 73.276 73.006 72.729 75.176 76.634 74.941 74.666 74.881 72.661 72.026 71.979 72.064 72.109 72.189 72.254 72.309 72.376 72.474 72.506 72.554 72.599 72.629 72.686 72.756 72.794 72.819 72.854 72.891 72.949 72.966 73.016 73.051 73.091 73.154 73.186 73.216 73.271 73.309 73.359 73.416 73.459 73.499 73.574 73.614 73.694 73.716 73.744 73.806 73.831 73.869 73.891 73.924 73.934 73.969 74.016 74.044 74.076 74.116 74.144 74.174 74.196 74.219 74.249 74.299 74.351 74.409 74.419 74.441 74.474 74.499 74.514 74.534 74.579 74.594 74.646 74.656 74.704 74.734 74.751 74.759 74.784 74.824 74.886 74.934 74.944 74.956 75.014 75.021 75.084 75.106 75.156 75.169 75.191 75.219 75.296 75.351 75.379 75.444 75.529 75.569 75.529 76.551 78.286 76.989 77.486 76.929 76.766 77.256 76.834 76.474 76.839 76.549 76.376 76.329 76.361 76.449 76.511 76.609 76.696 76.781 76.871 76.941 77.059 77.126 77.204 77.264 77.334 77.404 77.474 77.566 77.666 77.756 77.846 77.984 78.119 78.249 78.389 78.516
