ncols 429
nrows 31
xllcorner    525090
yllcorner    188746
cellsize     2
NODATA_value -9999
78.299 80.284 80.632 78.564 72.909 73.019 73.282 73.149 74.174 74.552 76.277 76.859 73.662 72.107 72.264 71.524 71.612 72.884 73.124 72.134 73.002 74.439 73.559 74.422 77.872 79.072 77.784 73.822 72.984 72.324 72.834 72.017 72.062 72.099 72.402 72.402 73.017 75.472 78.529 80.284 80.847 79.222 75.779 72.887 74.502 74.262 72.477 72.757 72.549 73.337 76.897 76.392 73.152 72.937 72.974 73.559 75.022 74.317 73.304 73.377 73.559 74.914 75.857 76.219 76.764 76.767 75.794 73.752 74.297 74.434 73.906 75.004 74.41 73.903 74.289 76.127 77.431 78.976 75.511 73.983 73.951 73.939 73.918 75.801 75.187 74.669 74.557 79.947 81.814 81.734 80.002 75.599 74.204 73.584 73.399 73.637 73.164 73.109 73.082 74.952 74.472 75.504 73.599 72.779 73.029 73.187 72.639 72.604 72.587 72.442 72.459 72.467 72.377 72.577 72.964 76.212 77.799 79.174 79.272 78.652 77.697 77.352 72.507 72.774 76.122 78.172 77.822 73.774 72.102 71.139 70.924 70.894 73.279 72.439 73.802 71.797 70.949 71.939 71.364 70.517 70.377 70.352 70.682 70.549 71.659 73.089 72.252 74.099 73.652 76.434 76.737 75.774 75.189 74.629 72.549 72.042 71.884 71.357 67.532 67.317 67.249 67.227 67.112 67.412 67.672 67.752 67.434 66.959 68.662 67.899 68.394 66.977 67.324 67.757 68.897 69.019 69.857 69.624 75.059 71.474 70.299 73.194 67.007 72.677 67.937 70.224 69.497 67.539 70.479 66.304 69.034 66.132 66.022 65.847 66.994 67.214 65.864 65.714 72.397 68.344 68.434 64.227 67.774 70.024 66.669 64.234 65.641 66.669 67.431 67.266 69.544 65.121 64.614 65.196 65.562 65.286 67.959 72.734 71.004 65.764 65.404 65.509 67.441 65.434 74.309 69.019 66.916 71.786 70.826 67.526 64.629 68.191 66.991 66.529 66.229 67.076 68.844 65.899 65.876 66.824 67.879 67.196 63.066 62.546 64.867 64.809 66.596 64.429 63.521 65.062 66.852 62.189 64.896 64.876 66.151 65.419 65.401 64.184 67.189 62.871 62.981 62.719 65.529 65.601 64.821 69.729 64.964 64.914 67.236 67.774 66.861 63.044 64.309 69.036 66.701 61.774 64.419 64.351 65.884 67.761 63.921 62.771 65.146 65.261 62.319 63.119 63.376 64.786 65.059 64.111 64.066 63.979 65.311 67.504 66.014 62.891 62.849 64.529 69.559 67.041 64.236 66.269 67.751 68.816 65.869 65.001 65.121 67.844 67.446 64.176 65.784 67.601 65.544 68.786 70.054 70.499 66.466 68.781 65.569 66.979 69.926 68.444 69.309 64.544 65.271 65.729 66.059 65.394 65.426 70.446 65.881 66.854 68.636 72.529 70.364 70.454 70.159 67.039 65.406 65.426 65.936 66.681 65.634 65.396 65.421 65.424 65.576 66.306 66.521 65.541 65.516 65.549 65.519 65.536 65.511 65.514 66.141 66.129 66.079 67.649 67.809 71.606 73.091 73.024 73.194 71.786 67.354 65.346 65.899 66.501 66.714 65.074 65.066 65.064 64.944 64.889 64.814 66.651 68.609 67.304 68.256 64.644 65.546 64.914 66.614 65.889 65.749 71.234 72.276 71.196 68.996 64.054 63.906 64.301 65.179 64.381 63.609 63.559 63.419 63.454 67.954 64.379 66.271 67.701 65.529 65.794 67.631 66.406 63.694 63.994 64.554 64.636 63.104 63.164 63.334 63.676 64.806 66.046 66.454 68.709 70.576 70.966 71.399 72.219 71.414 70.151 69.266 69.524 65.626
79.139 81.219 80.347 76.349 72.672 71.674 71.527 71.479 71.982 73.157 76.012 75.539 73.699 72.752 71.469 71.454 71.727 72.189 71.652 72.062 74.289 74.964 74.974 77.524 79.147 80.459 79.239 77.682 75.009 72.282 72.132 72.274 71.989 71.999 71.939 72.122 72.734 72.627 75.787 78.999 79.822 77.542 74.277 74.204 74.619 74.674 72.769 72.529 73.319 74.637 76.187 74.022 72.864 73.144 73.267 74.209 74.739 75.684 74.374 75.962 76.029 75.034 76.114 77.239 76.899 76.727 75.539 74.562 73.954 73.677 73.856 74.15 75.552 74.755 74.733 75.396 75.558 75.515 74.043 74.333 73.977 73.865 75.006 75.476 74.419 74.169 73.774 77.504 80.964 81.954 81.189 79.127 74.494 73.667 73.292 73.864 73.124 73.102 73.029 73.007 73.249 72.934 72.792 72.774 72.719 72.699 72.672 73.447 73.534 72.887 73.849 73.962 72.522 73.877 77.299 78.314 79.157 79.404 78.397 78.427 76.292 73.984 72.297 72.864 72.327 76.864 77.707 72.234 71.019 71.862 70.949 70.869 70.894 72.384 72.344 71.464 70.667 70.777 72.262 70.777 70.694 71.609 70.579 71.192 71.109 70.657 74.014 73.979 73.302 75.812 74.714 71.524 68.849 68.369 70.492 71.047 71.422 72.037 69.124 67.152 67.047 66.974 66.959 66.847 67.042 66.659 66.374 66.177 66.732 68.647 67.644 66.667 70.049 68.822 69.522 70.039 67.119 72.857 72.744 66.737 67.889 70.044 68.927 72.209 67.604 66.687 66.829 68.202 68.079 72.434 70.859 70.027 66.859 67.519 65.874 68.742 65.547 67.747 68.239 70.937 67.217 66.134 67.812 70.097 65.142 65.699 64.344 64.001 66.954 63.949 66.049 63.406 62.716 64.791 64.701 67.004 69.101 66.916 69.216 66.359 67.484 64.339 65.106 63.334 68.324 73.646 67.492 69.839 72.791 70.562 65.696 68.299 65.399 68.751 66.401 69.619 70.821 67.786 67.671 67.504 66.504 63.259 65.304 63.836 64.819 63.711 65.749 67.172 63.359 62.551 63.406 62.114 63.951 66.356 65.439 65.691 64.816 62.884 64.804 62.961 64.939 65.674 68.981 63.364 68.729 65.366 65.296 66.936 64.214 65.891 66.616 61.831 71.841 70.911 65.059 64.534 66.646 65.889 64.394 69.704 65.146 65.841 66.256 62.134 66.494 64.549 62.979 67.324 65.466 64.286 65.221 64.326 63.679 62.586 67.546 66.864 67.021 67.369 76.496 66.451 68.264 65.891 67.721 67.924 66.504 64.869 65.514 65.361 65.559 64.796 65.711 69.954 65.389 65.594 63.936 64.511 64.539 69.434 70.239 69.049 71.026 68.541 68.924 67.629 64.714 65.324 65.091 65.074 66.451 69.116 67.431 67.586 70.969 72.109 73.961 70.494 68.941 66.161 65.461 65.451 65.491 65.669 67.111 66.421 66.206 65.496 66.254 65.854 65.551 65.576 65.544 65.656 65.639 65.596 65.554 65.984 66.251 65.704 68.561 69.239 67.149 68.299 70.711 72.826 73.129 70.254 65.854 65.311 66.034 67.259 65.621 65.131 65.956 65.144 64.976 64.929 65.311 64.831 68.104 67.986 69.126 66.359 64.626 67.759 70.649 66.936 65.509 65.459 70.006 71.436 68.886 63.906 63.869 63.821 63.916 64.599 64.739 64.199 63.921 63.661 64.894 66.429 65.546 67.184 70.306 66.464 67.399 68.131 63.309 63.306 63.934 65.304 63.334 63.291 63.651 64.471 66.546 65.734 65.894 67.164 69.436 71.254 72.054 71.064 69.891 67.026 65.029 64.431 63.781
80.159 80.999 78.749 74.087 72.174 71.582 71.449 71.409 71.317 72.999 75.117 75.109 72.624 71.642 71.342 71.367 71.967 71.364 71.367 72.144 72.799 72.377 73.654 75.169 77.952 80.272 80.664 79.177 79.237 74.507 72.447 72.749 72.107 71.952 72.024 73.494 73.754 72.489 73.079 76.869 75.812 72.287 74.264 77.559 77.122 75.049 72.729 73.579 74.782 74.709 73.224 72.767 72.844 73.972 73.942 72.894 73.902 75.782 75.242 75.659 76.074 75.817 75.784 76.382 76.584 75.552 74.627 75.122 73.857 73.824 73.879 74.279 75.871 75.876 74.899 73.875 74.556 74.514 75.202 75.282 74.545 74.932 74.744 74.227 73.927 74.009 74.147 75.002 79.362 81.937 82.787 80.867 77.052 73.837 73.467 73.147 73.612 73.124 73.042 72.947 72.849 72.852 72.829 72.802 72.744 73.227 72.892 73.092 73.477 74.709 73.349 74.827 73.827 72.299 78.847 79.262 78.649 78.264 77.284 76.039 72.192 71.817 71.754 72.857 72.159 73.129 72.009 71.062 71.007 71.234 71.337 70.874 70.809 71.764 72.797 70.824 70.654 70.582 71.412 72.092 72.012 72.727 71.082 70.539 72.202 72.144 71.462 73.694 73.034 74.572 73.924 70.387 68.227 68.239 70.364 71.034 71.114 71.877 71.879 67.707 66.999 66.914 67.549 66.792 66.607 66.399 66.219 66.129 65.997 67.707 67.869 67.427 67.902 70.817 71.444 70.434 67.924 67.814 69.052 68.594 69.489 67.279 66.402 69.332 69.274 64.519 68.267 67.029 68.817 68.974 72.357 70.179 66.024 68.522 64.739 64.734 63.669 66.957 66.959 73.349 68.934 69.067 69.679 67.237 66.487 65.011 66.496 67.661 67.394 65.102 66.609 63.024 64.619 69.369 69.894 66.249 65.839 66.746 68.401 66.004 66.019 62.571 62.571 63.339 67.931 63.581 64.189 65.569 72.736 70.626 67.314 66.121 64.699 67.871 66.339 66.681 66.132 70.561 68.604 68.297 65.579 62.076 65.009 63.516 64.462 67.566 64.549 66.399 65.644 65.466 61.909 62.926 64.269 66.962 67.001 67.031 68.419 62.056 62.306 63.236 63.419 65.596 63.359 65.966 63.571 62.569 66.996 66.714 63.549 63.199 65.551 68.194 65.826 67.049 63.796 64.444 66.996 67.554 64.786 62.954 67.571 66.021 63.331 62.176 62.999 71.651 64.096 65.501 66.961 71.586 65.114 68.066 62.999 64.216 66.056 68.194 63.891 64.394 73.274 69.799 66.276 65.889 65.011 64.314 70.534 66.034 64.021 64.099 66.694 64.066 70.006 69.116 66.176 66.191 64.591 64.031 64.136 65.759 67.544 69.764 70.694 67.146 68.204 68.981 66.419 65.051 65.564 67.571 67.361 70.431 67.716 70.959 70.156 68.969 70.789 72.149 70.009 65.871 65.466 65.506 65.504 65.501 66.046 68.629 68.229 66.384 65.776 65.691 65.594 65.591 65.571 65.654 65.579 65.561 65.569 65.941 65.991 67.961 71.189 70.121 68.656 67.276 67.536 69.391 70.819 66.921 66.424 65.611 65.816 65.861 65.226 65.114 65.336 65.084 65.036 64.896 64.891 64.914 65.956 65.716 66.231 65.474 68.254 70.341 72.081 71.329 67.544 65.444 65.914 66.524 64.314 63.919 63.916 63.891 63.811 63.791 64.844 65.161 66.926 65.334 66.221 65.644 63.886 67.779 71.809 68.196 69.289 67.029 65.819 63.321 64.536 65.289 63.394 63.621 64.456 66.611 67.509 66.506 64.694 63.516 65.289 70.116 70.719 69.556 66.654 63.744 63.421 63.389 63.471
80.942 80.662 76.264 73.982 73.687 72.324 71.434 71.444 71.662 73.397 75.042 74.752 72.029 71.287 71.269 71.507 71.379 71.257 71.332 72.287 71.814 72.262 72.022 72.302 76.397 78.722 80.299 80.082 78.639 75.454 72.867 72.274 72.814 72.107 71.902 71.969 73.104 73.962 72.744 73.412 72.912 75.959 78.884 79.709 78.102 72.674 73.672 75.174 73.944 73.459 72.699 73.059 73.639 73.204 72.844 72.922 75.032 75.694 75.374 73.772 73.287 73.312 73.342 74.012 74.714 75.709 74.602 75.564 74.229 73.977 74.65 74.579 75.418 75.843 74.764 73.833 74.673 74.852 75.564 74.982 74.744 73.959 74.008 74.45 73.892 73.914 74.152 73.914 76.852 80.347 81.972 81.834 80.177 76.167 73.704 73.374 73.634 73.827 73.074 72.997 72.899 72.942 72.882 72.869 73.104 73.642 73.239 74.179 73.767 73.407 72.684 73.692 74.534 72.649 73.967 77.967 77.274 77.189 73.699 73.097 71.824 71.782 72.192 72.222 72.884 72.044 71.244 71.072 71.002 70.944 71.474 70.959 70.874 70.864 72.307 71.247 70.607 70.559 70.577 71.989 71.732 71.624 71.729 71.964 70.942 71.872 72.607 74.092 73.832 73.367 70.984 72.552 68.184 68.167 68.969 71.052 71.049 71.237 71.557 69.679 67.127 66.934 66.794 66.627 66.462 66.307 66.207 66.132 67.222 68.084 69.359 68.832 68.707 72.119 72.192 70.622 71.327 71.514 69.022 69.559 69.517 69.249 65.787 67.272 69.437 74.657 72.534 67.629 68.429 67.734 75.727 71.199 67.739 64.412 68.534 66.069 65.134 64.212 72.164 64.854 66.772 71.259 68.157 70.847 65.689 64.602 68.451 66.069 70.489 63.876 67.521 64.956 63.009 67.304 67.839 66.269 65.874 65.684 62.809 63.854 64.456 62.904 62.679 63.269 63.759 69.081 70.661 70.521 69.074 68.949 65.229 63.811 68.039 65.581 65.149 66.556 68.214 68.266 72.546 68.344 63.739 69.061 66.814 65.709 67.054 64.536 65.634 66.924 64.671 66.411 64.521 65.916 66.274 66.511 67.924 68.699 66.381 70.799 64.954 62.539 65.239 65.089 66.531 63.456 64.506 64.709 69.451 64.941 63.974 63.441 64.619 71.881 63.801 69.426 65.929 63.724 65.791 64.844 64.799 65.186 62.676 65.281 63.884 62.596 62.234 65.766 65.649 68.229 68.866 63.289 67.979 65.609 63.539 67.216 62.686 64.354 66.476 67.539 72.379 71.309 69.384 67.189 66.244 69.131 71.576 66.876 64.019 65.174 68.289 65.391 69.446 68.921 66.989 64.229 66.976 71.351 66.319 66.019 70.796 69.706 65.946 64.571 64.644 64.996 68.991 67.449 66.149 66.184 65.809 69.669 68.646 67.754 71.169 68.259 69.499 70.461 68.321 65.454 65.499 65.519 65.526 65.576 67.786 68.524 69.549 68.336 67.079 65.541 65.614 65.599 65.591 65.584 65.594 65.594 65.846 65.846 67.484 70.841 73.334 73.441 72.151 68.789 68.009 67.861 67.526 66.306 66.356 67.109 65.956 65.296 66.029 65.369 65.221 65.164 65.064 64.964 65.304 65.746 66.096 65.206 64.641 68.751 71.426 72.039 72.134 72.431 71.836 69.704 65.761 65.659 64.799 63.949 63.964 63.939 63.876 63.794 64.641 65.614 65.851 66.694 66.634 64.961 64.194 66.054 70.014 70.856 68.566 67.906 66.446 63.224 63.324 64.481 64.844 63.859 65.876 70.621 70.646 68.094 63.961 64.341 64.161 66.376 68.311 65.769 63.476 63.446 64.686 63.681 64.159
79.557 80.717 75.192 71.749 72.777 72.842 72.214 72.609 73.437 72.654 73.987 73.004 71.567 71.379 71.187 71.422 71.127 71.177 71.712 71.267 71.367 71.792 71.872 73.369 75.802 77.672 79.222 82.272 79.387 77.619 72.894 73.382 75.424 75.279 72.017 71.872 71.814 71.839 72.307 72.564 74.649 78.729 80.427 81.082 79.589 77.047 74.244 73.104 72.497 72.562 73.547 73.947 72.762 72.772 72.839 74.622 76.997 76.492 73.274 73.657 74.219 74.184 73.759 75.274 74.297 74.749 75.442 75.032 74.752 74.507 75.069 74.118 76.106 76.068 75.06 73.901 73.982 74.141 74.775 74.151 74.528 73.901 74.566 74.385 73.899 74.054 74.794 75.667 73.929 75.624 80.859 82.352 81.354 79.489 74.324 73.587 73.254 73.242 73.009 73.029 73.009 72.912 72.902 72.824 72.774 73.302 73.962 73.562 73.064 72.592 73.492 72.979 75.187 73.924 72.747 77.964 74.612 72.059 72.052 72.554 72.357 71.684 71.614 71.589 71.702 72.254 71.184 71.069 70.999 70.929 71.337 71.827 70.984 70.847 71.124 73.649 73.207 70.542 70.482 70.502 71.397 72.787 74.784 72.109 72.882 72.549 71.539 72.234 75.357 72.697 71.129 72.642 68.089 68.069 68.104 69.879 71.039 71.034 71.597 71.899 68.654 66.772 66.607 66.537 66.432 66.284 66.169 67.939 68.129 67.002 66.967 68.954 69.224 73.704 69.477 68.489 66.307 67.024 70.824 71.267 70.214 66.899 65.039 65.514 71.324 68.027 70.514 69.672 66.234 68.317 67.784 71.094 68.822 70.994 71.299 65.364 65.422 66.482 70.372 66.429 69.989 67.077 65.704 64.269 64.654 66.007 69.719 67.012 69.567 67.424 66.122 66.539 65.637 63.899 67.414 64.724 63.719 62.859 64.874 63.322 62.902 63.609 62.774 64.937 71.077 65.492 64.414 68.914 67.684 65.664 63.797 65.042 68.594 65.312 66.404 67.527 66.522 69.787 69.467 69.627 67.549 67.754 65.584 66.634 64.842 65.869 64.967 65.834 63.729 64.099 62.169 63.039 69.824 64.972 67.334 66.589 68.249 62.662 62.079 63.989 63.307 67.024 63.227 65.652 65.099 63.052 62.832 64.077 64.822 64.289 67.399 72.512 71.952 67.369 64.304 64.812 62.839 65.217 66.177 66.077 64.097 63.909 62.639 62.559 62.287 62.344 66.769 65.752 64.492 63.699 65.179 68.164 67.512 67.197 63.597 62.724 64.174 66.314 67.219 65.184 64.509 66.414 67.312 68.239 72.172 68.774 65.871 65.394 70.986 67.846 66.811 63.851 64.329 66.674 70.539 70.944 70.116 64.649 71.339 64.451 64.519 66.964 67.861 64.861 71.484 67.856 65.801 66.131 65.526 66.349 66.991 69.036 73.274 71.026 67.189 67.911 67.241 65.516 65.579 66.309 66.439 68.239 69.496 69.139 69.491 68.379 69.276 66.834 65.654 65.601 65.606 65.614 65.629 65.971 65.726 65.716 67.759 71.889 73.869 74.561 73.936 71.704 69.086 66.134 66.419 67.411 67.419 67.051 65.499 65.716 65.631 65.339 65.306 65.479 65.104 65.111 65.406 67.116 67.459 66.096 65.789 68.714 71.199 71.949 70.751 70.756 71.979 70.984 66.154 65.026 66.381 64.639 63.996 63.971 63.929 63.854 63.794 64.199 65.004 68.131 66.291 64.984 63.584 65.641 63.969 70.239 69.184 67.494 65.316 63.189 63.226 63.614 64.966 65.176 65.026 70.311 71.984 69.694 66.051 63.846 64.646 64.731 63.814 63.561 63.374 63.611 63.976 64.269 64.964
77.602 78.197 74.312 72.217 71.252 71.087 71.767 72.437 72.749 71.529 72.987 73.362 71.687 71.097 71.612 70.984 71.057 71.347 73.042 71.839 71.214 71.794 72.644 71.802 73.344 74.592 77.889 79.727 80.409 78.874 75.332 74.959 73.784 72.749 71.932 71.889 71.852 73.502 73.767 72.457 72.504 77.214 79.372 81.942 80.979 78.877 73.517 72.254 72.909 73.992 73.104 72.657 72.659 72.734 73.772 75.387 76.507 75.547 73.459 74.914 75.244 75.334 74.724 73.837 73.459 73.484 75.084 77.789 77.542 74.502 73.834 73.869 75.97 76.051 75.585 74.501 74.497 74.828 74.631 74.005 73.928 73.93 74.533 74.481 74.454 75.382 75.219 73.947 73.752 73.872 77.317 81.409 82.709 80.804 78.202 73.612 73.482 73.074 73.969 73.049 72.974 72.902 72.857 72.872 73.857 73.999 73.172 72.927 72.894 72.709 72.624 72.647 74.789 75.222 73.094 74.754 75.839 73.149 72.077 72.077 72.479 71.697 71.599 71.529 71.457 72.224 71.854 71.089 71.004 70.952 71.982 73.172 71.354 71.147 71.772 74.197 75.752 70.682 70.522 70.429 70.434 71.684 74.267 74.379 70.899 71.534 72.832 73.647 71.107 73.327 73.672 69.379 68.079 67.999 68.032 68.147 70.337 71.049 71.172 71.864 71.719 68.047 66.572 66.479 66.429 66.274 66.312 69.639 68.059 70.137 71.612 70.352 68.439 70.192 69.107 70.552 67.302 71.497 70.727 66.757 66.924 65.444 66.182 69.764 70.352 71.537 70.192 69.394 67.712 67.392 65.139 67.522 68.962 69.267 64.874 66.184 70.122 67.467 73.157 71.672 67.152 67.904 65.004 64.504 66.287 65.422 69.177 68.582 66.407 67.949 68.594 65.994 66.982 70.107 71.914 71.147 69.302 62.974 62.899 62.882 62.862 62.914 62.869 62.844 63.249 67.072 65.652 66.434 70.777 65.764 64.827 68.664 66.804 67.344 66.482 65.127 67.964 65.702 67.554 67.524 67.554 66.554 69.157 64.509 67.037 65.809 62.824 64.857 64.859 64.087 65.677 65.439 74.872 66.094 68.457 62.987 66.522 63.162 65.622 62.297 62.167 63.112 64.304 64.344 65.917 65.389 65.129 67.042 62.244 64.669 71.019 68.864 68.947 67.234 63.987 65.644 71.369 68.584 62.744 66.592 66.014 65.484 64.444 64.484 62.344 65.364 66.602 68.574 65.432 68.712 64.059 64.284 65.959 66.812 66.834 62.789 64.374 66.129 65.927 63.399 67.519 68.399 64.824 69.569 69.162 64.526 67.864 67.639 65.674 72.321 64.444 63.959 64.459 64.806 71.549 71.619 67.254 66.796 65.229 64.494 66.629 70.194 68.591 65.599 67.714 65.009 65.504 66.104 66.969 67.761 67.941 68.694 71.014 72.996 67.241 67.166 65.634 65.646 67.219 67.384 68.116 69.761 69.869 71.186 70.014 67.496 66.806 68.169 67.079 65.739 65.619 65.646 66.316 65.906 65.726 66.034 68.456 72.906 74.436 73.406 74.464 72.931 68.696 65.586 65.614 66.561 67.506 66.206 66.229 66.809 65.436 65.401 65.461 65.966 65.226 65.456 65.279 65.299 66.179 67.901 67.579 66.009 68.906 70.474 69.739 69.099 69.964 68.251 64.566 64.354 64.431 66.116 64.974 64.036 63.951 63.896 64.086 64.056 65.906 67.114 67.849 65.016 63.829 63.856 63.644 64.876 68.001 66.611 63.946 63.339 63.511 63.726 63.891 67.511 69.029 71.326 72.439 71.694 68.861 64.934 64.149 64.921 64.059 63.816 63.691 63.994 64.254 63.741 64.391
77.449 73.594 73.312 71.574 70.922 70.912 70.907 71.429 72.337 72.324 72.589 72.434 73.154 71.749 71.097 70.909 71.607 72.717 73.992 74.077 71.294 72.447 71.289 71.447 72.402 74.007 74.539 78.542 79.362 77.992 76.467 73.877 72.604 72.029 71.739 71.822 71.869 72.162 72.699 72.854 75.689 74.389 78.262 79.954 81.259 80.064 77.387 72.977 74.764 73.022 72.652 72.654 73.139 74.569 74.909 76.099 75.542 75.142 74.729 75.212 75.254 75.287 74.769 73.357 73.412 73.422 74.862 78.064 77.204 75.682 73.721 73.893 74.07 74.68 75.078 75.192 75.057 74.025 74.603 74.163 73.855 74.33 75.256 75.642 75.172 74.997 74.497 73.957 73.847 73.964 76.039 80.217 81.954 81.987 80.357 75.887 73.644 73.282 73.462 73.349 72.934 72.942 72.872 72.907 74.122 73.052 72.944 72.942 74.147 73.567 72.749 72.699 73.039 73.764 74.809 76.632 76.499 72.804 72.079 72.029 72.087 72.447 71.632 71.559 71.507 71.592 72.327 71.282 71.349 71.517 71.194 72.277 71.904 70.807 73.597 75.777 76.952 74.607 70.567 70.439 70.552 71.827 70.817 71.354 71.349 70.592 70.187 70.049 72.209 73.117 75.432 68.257 68.032 67.947 67.997 67.992 69.689 70.887 71.064 71.327 71.937 69.427 67.369 66.464 66.397 66.362 67.819 71.727 70.907 73.732 72.559 70.542 67.617 68.614 72.227 72.537 67.872 67.992 66.379 66.154 67.044 69.202 65.349 67.764 70.997 72.194 74.339 66.419 65.452 67.802 69.379 67.902 68.102 66.604 66.977 66.512 67.367 65.977 64.337 69.884 70.809 66.314 65.442 66.517 64.494 64.359 66.939 73.059 69.964 69.722 66.747 66.352 66.802 73.272 73.949 66.862 63.859 63.049 63.517 64.247 62.997 63.067 62.959 62.967 65.704 66.024 70.109 68.749 67.934 64.459 64.534 69.079 65.877 69.547 66.274 64.419 66.459 64.134 65.092 65.092 64.717 67.784 65.462 63.609 65.942 70.234 66.517 64.237 66.329 65.037 64.899 66.007 66.277 67.134 68.569 70.209 66.517 62.069 62.299 68.594 63.864 68.694 66.794 66.247 65.304 64.699 64.074 66.452 62.682 66.764 68.752 64.772 64.644 61.779 64.192 65.692 69.849 68.962 64.449 64.554 65.284 66.164 64.987 62.324 63.687 64.107 66.084 67.767 69.174 64.957 64.487 63.644 69.599 63.214 65.224 62.864 67.637 66.129 65.187 63.112 65.544 65.992 64.859 67.717 65.829 66.746 64.486 66.144 65.039 69.051 64.814 65.321 65.286 65.351 64.181 70.981 64.316 64.439 64.486 64.601 67.639 70.094 65.629 70.294 68.156 68.474 65.214 68.691 67.269 68.109 67.604 67.804 70.459 67.904 68.026 65.676 65.726 65.911 66.871 68.189 68.656 70.056 71.224 69.999 68.096 66.034 66.026 66.691 67.916 67.164 66.864 66.936 66.466 65.856 65.824 68.726 72.534 74.384 73.551 72.491 72.676 71.016 66.824 65.666 65.854 65.776 66.259 67.689 66.896 65.589 65.786 65.421 65.371 65.319 65.411 66.169 65.666 65.816 66.979 68.546 67.699 67.139 66.691 66.764 67.969 67.501 64.996 65.271 64.444 64.369 64.336 64.446 65.759 65.421 64.114 63.939 64.271 65.641 66.029 65.539 65.486 65.104 63.844 63.829 63.526 63.726 64.409 64.394 65.144 63.671 63.676 64.636 66.599 70.144 71.439 72.581 72.299 71.174 70.071 66.106 64.149 64.616 64.026 63.899 64.254 63.866 63.786 63.689 63.649
78.007 73.462 70.924 70.749 70.662 70.699 70.784 70.849 71.514 72.262 71.019 71.674 72.369 72.577 71.912 75.949 79.712 75.872 74.962 72.387 71.824 71.069 71.167 72.164 72.952 71.904 73.827 77.167 75.912 71.822 72.969 72.682 72.737 73.854 73.532 73.592 71.814 71.827 71.899 71.792 74.139 74.097 74.967 79.057 80.532 81.307 79.562 77.019 72.694 72.247 72.829 75.712 75.887 74.102 73.282 75.932 75.824 76.179 73.629 74.952 75.247 74.259 73.947 73.274 73.459 74.907 76.102 76.612 77.562 76.794 74.397 75.717 75.012 74.558 75.194 75.429 75.731 74.456 75.74 75.784 74.781 76.904 76.251 75.162 74.034 74.307 74.127 73.957 74.129 74.844 74.329 76.782 80.909 82.377 81.732 81.522 74.377 73.307 73.054 73.772 73.299 72.927 72.879 72.869 73.472 74.212 73.087 72.927 73.007 75.449 76.762 73.514 72.587 72.534 73.872 74.862 74.107 72.359 72.034 71.979 72.014 72.079 71.822 71.824 71.432 71.784 72.432 72.117 71.499 72.132 71.302 73.722 74.794 71.024 72.502 73.802 76.694 76.009 71.439 70.439 70.592 70.974 71.934 72.374 70.399 70.877 70.292 69.907 71.897 71.097 71.452 68.174 68.004 67.889 67.912 67.884 67.917 70.012 71.074 71.047 71.502 71.882 68.622 66.639 66.354 66.504 69.282 71.864 69.844 67.402 68.002 69.847 71.542 70.982 71.249 70.447 72.439 68.314 69.674 73.737 68.487 70.732 67.277 68.207 70.819 68.552 68.657 73.937 66.994 67.172 65.477 67.859 66.882 65.519 65.484 67.217 68.067 67.579 66.927 66.557 64.687 67.844 66.337 66.834 66.859 66.674 68.627 75.069 76.317 72.217 68.207 69.594 64.832 63.984 68.677 68.609 64.987 66.569 64.162 63.457 64.054 63.147 63.084 63.349 63.742 66.737 69.787 68.414 65.919 68.459 68.142 65.227 66.379 71.827 66.482 66.374 66.252 64.784 65.007 64.984 67.747 68.767 66.922 64.979 66.914 71.034 64.702 64.719 67.309 69.744 68.179 66.734 66.717 68.457 63.549 65.879 63.389 65.889 66.379 64.867 66.682 71.059 69.664 64.792 66.639 63.169 66.022 69.562 65.534 67.097 63.769 62.414 63.049 65.482 66.357 67.664 70.439 67.267 65.309 62.782 66.264 66.277 67.697 63.422 63.932 66.194 63.329 63.099 62.869 65.669 67.152 64.292 64.574 63.864 63.187 63.702 66.622 65.617 65.474 65.889 64.597 65.092 64.134 65.424 65.694 66.469 65.231 67.286 66.736 71.164 66.744 67.909 64.071 68.114 65.004 64.301 64.469 66.649 66.829 65.031 67.109 66.846 70.946 72.511 69.199 68.366 67.284 68.546 67.124 66.654 66.846 66.936 68.171 68.664 66.464 65.749 65.819 65.839 66.136 69.901 70.589 70.969 70.066 70.161 67.049 66.094 66.094 66.094 66.384 68.131 68.524 67.959 67.041 65.794 66.069 71.016 73.294 73.934 71.986 72.384 70.809 66.494 65.659 66.491 67.381 65.931 65.701 67.051 65.621 65.581 65.584 68.094 65.411 66.986 66.141 65.671 65.624 66.776 70.019 72.121 71.214 67.564 66.139 66.709 66.364 65.271 64.646 64.569 64.426 64.429 64.416 64.996 64.419 65.521 65.646 64.166 65.211 66.356 64.081 63.814 63.809 63.909 65.426 64.129 63.636 63.579 63.854 64.259 64.219 64.284 65.999 69.344 71.076 71.746 72.641 72.679 70.881 69.784 65.181 63.779 64.089 64.939 65.056 64.331 63.866 63.816 63.746 63.696 63.851
74.957 72.562 71.129 71.154 71.082 70.567 71.817 72.364 73.294 72.812 71.569 71.069 73.027 73.309 74.489 77.842 79.094 75.367 74.239 72.644 70.979 70.974 71.924 72.192 71.242 71.582 73.367 74.684 73.432 71.947 71.649 71.297 72.464 72.502 74.009 72.949 73.227 71.772 71.754 72.324 71.934 72.414 72.742 76.052 80.992 82.362 80.654 78.932 73.789 73.199 74.842 76.152 75.132 72.699 72.629 74.429 75.814 75.747 73.747 73.637 74.644 73.269 73.134 73.867 75.007 74.409 75.837 74.779 77.537 77.372 76.529 74.471 74.541 74.301 74.697 74.951 75.698 74.704 74.406 74.685 75.487 75.546 74.271 73.779 73.899 73.787 73.927 74.524 74.639 74.062 73.907 74.177 78.197 81.974 83.577 81.819 77.317 73.782 73.119 73.227 73.299 72.909 72.849 72.842 72.917 73.904 73.244 72.582 75.954 79.772 78.837 76.679 72.409 73.469 74.597 74.127 72.972 73.697 73.324 72.907 72.347 72.089 73.354 72.147 71.852 72.477 76.324 75.892 72.712 71.057 71.024 71.657 71.014 71.497 71.044 71.129 76.459 72.674 71.642 70.974 70.492 71.532 73.747 73.609 73.637 70.447 70.622 69.594 71.102 71.099 70.792 68.109 67.957 67.849 67.794 67.812 67.832 68.364 70.812 71.084 71.102 71.572 70.334 67.829 67.982 69.687 71.787 72.592 68.787 68.012 70.074 67.412 68.512 69.852 71.627 74.269 72.389 67.834 67.014 68.832 66.449 71.519 67.612 69.529 71.134 69.672 65.542 68.357 66.889 67.894 65.877 66.999 65.369 67.122 66.112 67.062 65.067 64.164 64.047 66.314 66.597 67.714 66.992 66.587 69.082 68.804 66.804 73.914 73.767 70.779 67.392 67.597 67.692 66.752 68.307 64.757 65.519 66.267 65.604 66.849 67.884 65.127 66.824 63.124 64.387 63.197 63.399 64.984 65.822 69.114 69.062 66.902 66.307 66.327 67.154 66.432 67.967 64.574 64.514 67.219 65.874 66.847 64.484 63.099 64.469 63.284 70.232 66.437 65.442 64.867 67.354 66.909 66.169 69.049 66.074 66.142 63.524 65.582 65.979 66.074 68.189 68.952 67.332 65.619 68.279 68.407 68.909 71.547 68.342 67.874 65.387 63.764 66.562 66.137 65.589 66.232 64.277 64.112 65.682 66.942 66.757 63.362 63.582 62.357 64.987 64.269 62.532 62.769 64.664 65.394 63.164 63.302 63.197 62.834 63.099 65.464 66.514 66.327 70.087 68.889 63.884 67.429 64.932 64.162 63.992 63.924 66.451 67.749 67.904 71.494 68.609 71.224 66.629 67.464 68.246 64.399 66.146 68.429 68.146 66.476 66.944 66.581 67.649 69.029 70.274 70.874 68.784 70.934 68.691 66.746 66.936 68.029 68.036 67.621 66.254 65.841 65.886 65.919 65.949 67.979 69.856 68.549 69.116 69.524 67.721 66.194 66.129 66.141 66.144 66.484 68.119 69.569 69.126 66.739 67.869 70.009 71.269 72.599 69.394 66.944 65.899 65.689 66.426 67.514 66.501 65.809 65.699 65.724 65.719 65.631 67.089 69.391 67.066 66.161 66.224 65.631 65.921 68.151 72.586 73.569 73.011 70.531 67.641 68.084 66.651 66.871 65.146 64.594 64.521 64.504 64.484 64.431 64.354 65.209 67.154 66.881 66.604 65.011 64.041 63.911 63.904 63.891 64.511 65.659 64.556 63.754 64.164 65.361 64.186 66.161 68.936 70.906 72.266 72.619 71.761 70.621 68.501 65.681 63.771 63.824 63.889 64.301 64.151 64.006 63.824 63.811 63.806 64.271 64.741
73.802 73.397 72.079 73.049 72.612 71.887 73.757 73.374 71.777 71.362 72.492 73.539 74.887 75.237 75.462 75.359 76.799 75.267 75.287 73.677 72.089 71.444 71.512 70.957 71.367 72.389 72.554 73.052 74.057 73.842 71.072 71.214 71.639 73.467 75.772 73.407 71.644 71.707 71.704 71.899 72.237 71.729 72.507 73.102 77.854 80.062 81.224 80.099 78.424 74.687 72.667 73.317 72.769 73.244 74.102 73.604 72.524 72.867 73.437 73.327 73.289 73.224 74.272 75.449 77.487 74.387 76.029 74.557 77.267 77.264 77.25 76.355 74.411 74.005 73.937 74.669 75.161 75.519 74.508 75.151 74.803 73.74 73.796 73.995 73.954 74.034 74.609 74.149 73.792 73.767 73.737 74.427 76.592 82.017 81.807 82.029 80.354 76.972 73.749 73.297 72.884 72.852 72.852 72.809 72.792 73.137 73.979 75.282 78.219 79.302 79.837 78.047 74.042 73.249 72.474 72.332 72.299 72.134 72.117 72.254 73.142 74.602 74.259 73.264 73.537 77.084 81.489 80.894 77.809 71.502 70.854 70.869 70.899 71.227 73.614 71.037 72.774 72.029 72.614 70.612 70.384 71.719 73.824 74.624 73.802 73.164 70.004 70.189 71.064 71.082 70.659 67.964 67.894 67.824 68.342 67.844 67.869 67.899 70.214 71.027 71.084 71.219 69.449 69.009 70.404 70.317 72.914 71.462 68.599 69.742 72.049 70.769 70.934 70.149 70.409 70.534 69.402 66.544 68.289 69.054 67.667 67.159 68.062 66.862 71.132 70.112 69.547 67.629 66.962 67.599 68.214 67.524 66.509 64.397 64.379 66.267 64.687 66.667 66.889 65.119 67.432 67.397 65.717 66.949 68.497 68.679 66.029 65.697 70.622 67.704 70.139 69.104 70.517 68.802 67.327 70.704 68.124 70.464 67.049 69.877 65.367 65.809 69.379 66.479 67.604 65.569 65.889 64.014 63.294 67.247 69.397 63.979 65.964 67.677 65.707 67.089 67.244 66.267 64.614 66.852 68.147 66.207 67.449 62.587 63.957 65.374 66.829 63.939 67.652 64.679 63.299 65.097 66.114 65.024 66.844 64.349 67.312 65.674 65.439 64.394 63.824 64.044 65.722 64.547 68.907 68.132 71.142 70.962 67.077 66.189 63.304 64.632 67.552 65.527 66.194 63.729 67.044 63.802 62.242 67.272 70.759 64.314 63.244 62.407 65.309 64.294 65.289 63.249 64.469 64.487 63.499 64.962 63.674 63.624 64.464 67.929 66.582 63.834 70.887 64.607 66.897 63.937 63.724 63.744 64.164 65.256 67.821 72.016 63.811 68.801 68.606 75.661 70.791 70.001 65.056 66.359 69.959 65.494 65.531 69.696 66.084 67.544 67.904 66.229 66.181 67.829 68.721 68.601 68.204 68.841 68.689 68.474 70.239 69.134 65.871 65.906 65.956 65.996 65.969 66.204 66.939 68.564 67.709 68.719 68.611 66.931 66.154 66.164 66.266 66.684 67.121 69.396 68.641 69.014 69.626 70.289 69.106 67.734 66.606 65.969 65.769 65.894 66.809 66.886 65.926 65.801 65.781 65.794 65.746 67.709 69.246 69.859 67.666 66.556 66.404 66.584 68.576 71.781 73.206 74.396 73.496 71.974 70.469 67.316 67.961 67.874 66.646 65.421 64.579 64.596 64.526 64.464 64.384 66.164 67.161 67.354 66.599 66.291 64.006 63.989 63.954 64.234 64.004 64.714 64.891 65.081 66.594 69.289 69.036 69.376 71.326 72.391 72.491 71.576 70.861 67.479 64.476 64.844 63.834 63.904 64.136 64.854 63.996 63.914 63.866 63.861 63.856 65.331 66.216
72.779 72.664 71.752 72.309 71.949 72.479 72.149 73.419 72.097 72.369 73.947 75.364 75.162 74.314 75.307 75.289 74.922 73.224 74.407 73.282 73.574 71.772 70.769 70.847 72.174 72.804 73.887 76.682 78.067 76.514 73.342 71.172 72.029 72.824 75.514 73.744 73.424 71.597 71.762 71.667 71.722 72.177 72.222 73.652 73.299 79.134 80.314 81.614 79.739 76.624 76.244 78.634 74.142 73.959 72.877 73.892 73.857 72.764 72.842 72.929 73.397 74.867 74.862 74.904 75.967 74.679 73.572 75.054 77.119 77.262 76.734 77.428 77.425 73.983 74.128 74.771 75.45 75.887 75.67 74.006 73.686 73.856 73.949 74.742 77.202 75.432 73.692 73.707 73.724 74.454 75.362 75.114 74.259 76.064 80.582 82.232 81.577 79.619 75.269 73.252 73.102 72.937 72.834 72.824 72.782 72.859 73.174 75.317 78.894 78.124 79.254 79.842 77.324 72.984 72.339 72.294 72.239 72.412 73.252 73.577 72.909 72.424 72.177 71.917 71.374 79.729 82.184 82.362 79.214 71.704 70.994 70.927 71.259 70.907 72.342 71.002 70.827 71.199 71.757 71.374 71.777 73.357 75.102 74.729 75.404 74.189 72.117 72.142 71.147 71.099 69.769 67.922 67.877 67.829 68.249 68.542 67.767 69.004 70.889 71.812 73.572 71.649 71.892 69.767 70.357 72.344 71.472 69.129 67.397 69.837 70.929 70.594 69.172 68.969 67.622 67.822 66.967 66.997 69.454 67.704 67.327 67.502 71.319 70.422 71.324 70.329 72.279 69.302 68.349 65.709 66.007 67.547 67.342 66.357 66.489 66.509 68.714 67.822 65.869 64.904 67.672 67.792 64.889 65.667 66.849 65.459 66.199 66.144 68.649 68.109 68.927 71.032 70.634 67.134 67.474 64.709 66.212 67.354 68.602 70.229 66.637 64.639 68.994 67.644 65.452 66.274 64.114 66.969 64.542 67.672 67.432 68.442 69.019 68.289 66.557 64.982 68.197 67.484 65.787 66.449 70.199 65.414 64.567 66.239 68.334 63.659 66.844 66.319 69.652 64.494 63.882 63.719 68.887 64.422 66.329 65.522 64.464 67.442 66.759 66.734 67.764 65.537 66.284 64.334 63.354 66.784 67.587 65.329 67.047 67.269 65.954 67.859 69.057 65.432 66.312 64.422 64.734 65.857 64.789 66.234 65.819 62.459 64.244 64.007 65.349 66.827 65.922 64.022 63.287 64.627 64.959 65.902 63.982 64.552 63.497 66.727 65.512 65.932 66.267 66.127 66.117 67.264 64.567 66.899 68.109 66.461 68.094 65.919 63.854 63.979 67.239 66.209 74.876 70.554 66.791 69.439 69.684 70.679 65.414 66.121 66.139 69.546 69.059 69.016 67.324 69.131 69.169 70.796 68.211 69.289 69.586 69.091 72.606 68.514 67.286 65.989 65.989 66.019 66.016 66.006 66.101 66.649 66.831 68.971 68.014 66.434 66.174 66.266 66.754 66.864 67.406 67.461 70.304 67.514 69.706 69.316 66.986 65.834 65.804 65.774 65.861 67.104 67.329 66.031 65.949 65.894 65.906 65.874 65.741 68.491 70.444 70.791 66.744 66.229 65.536 67.861 68.081 70.944 72.571 73.396 72.621 70.824 69.636 67.179 67.094 67.809 67.964 66.441 65.886 65.381 65.584 64.666 65.566 67.166 68.276 67.214 66.444 67.001 64.754 64.229 64.034 64.026 64.291 64.666 65.624 66.561 67.909 70.849 71.676 71.596 72.591 72.911 71.056 70.214 67.096 64.264 63.986 64.789 64.521 64.604 64.931 64.774 63.989 63.974 63.979 63.901 63.889 65.791 66.956
70.562 70.702 70.889 70.924 70.822 72.274 73.764 72.219 70.952 71.154 71.177 70.407 71.634 70.689 71.477 71.012 70.674 70.767 74.952 75.837 74.974 70.884 70.697 70.919 72.589 72.397 75.774 78.997 79.292 77.749 75.772 72.629 71.439 70.952 71.062 72.164 73.994 73.247 73.639 71.614 71.607 71.874 72.317 72.542 72.214 75.727 79.219 82.027 80.754 79.242 79.084 77.664 74.469 73.029 73.787 77.449 77.609 73.489 72.909 74.177 74.917 73.617 76.779 74.832 75.712 74.322 76.332 76.699 75.674 73.642 74.216 76.843 76.096 75.357 74.953 75.326 75.391 75.198 73.724 74.527 74.16 73.988 74.458 74.904 75.133 73.742 73.702 73.879 74.107 74.507 75.037 73.742 73.822 73.909 78.272 81.162 82.762 81.074 78.634 74.089 73.259 74.344 72.792 72.799 72.779 72.767 72.867 73.094 75.657 75.727 78.072 79.767 78.952 76.432 72.374 72.859 73.544 73.649 74.119 72.772 71.934 71.877 71.619 71.594 71.742 76.452 79.832 80.549 78.114 72.807 71.782 70.907 70.909 71.029 72.699 72.722 71.189 70.674 71.402 71.574 71.262 72.807 73.872 74.822 73.904 74.019 70.214 71.909 71.117 71.132 70.039 68.047 68.039 67.837 67.819 68.094 69.134 71.279 72.172 74.372 72.587 72.667 70.624 73.484 67.774 69.324 71.699 69.577 70.274 68.007 68.112 70.612 66.547 68.299 67.054 68.212 68.722 67.897 68.707 70.514 69.739 68.124 69.504 69.554 70.102 72.674 68.842 68.002 67.749 65.784 66.264 68.104 67.264 65.909 66.974 68.932 67.849 67.027 64.934 66.179 66.814 66.257 67.014 65.389 66.687 68.354 65.507 66.344 64.172 64.194 64.347 68.634 69.189 71.662 67.757 68.739 66.629 68.334 64.127 69.152 64.299 66.229 65.967 71.357 66.764 64.679 66.457 68.059 65.984 66.534 65.389 68.314 67.509 67.799 68.887 67.164 66.229 66.677 69.102 67.909 67.552 64.824 67.282 66.022 66.229 64.999 69.809 64.732 65.234 64.259 64.757 63.014 62.759 63.229 65.629 65.702 65.527 65.599 66.092 66.734 69.337 64.932 64.992 67.387 64.597 66.204 67.814 63.419 64.152 71.469 66.107 65.267 62.712 68.964 63.109 64.754 65.512 69.317 68.659 69.152 67.357 65.324 62.467 62.419 63.757 66.289 65.807 64.969 62.937 63.614 63.714 63.659 63.097 63.827 68.227 66.149 63.897 65.304 65.202 69.067 69.657 67.327 66.127 65.727 67.229 64.086 64.491 67.236 65.426 64.116 65.741 65.414 67.704 70.519 64.926 67.491 72.446 68.511 67.336 67.114 67.284 69.086 69.039 67.364 68.409 70.006 66.426 69.086 68.256 68.749 68.926 70.434 71.171 71.986 67.916 66.236 66.031 66.766 66.091 66.094 66.181 66.671 66.486 67.479 68.596 68.466 66.784 66.476 66.869 67.414 70.104 71.014 72.824 72.344 67.726 68.381 66.389 65.824 65.844 65.851 66.919 67.489 66.319 66.081 66.006 65.989 65.976 65.861 65.776 67.106 68.826 66.016 66.219 65.751 65.989 71.146 70.854 68.454 71.021 72.159 72.076 69.891 67.426 65.141 65.826 65.446 67.364 67.939 66.139 67.579 67.194 65.561 67.736 68.179 67.611 67.256 65.976 65.266 67.084 65.031 64.239 64.206 64.234 66.889 67.011 65.034 66.884 68.714 71.219 72.496 71.994 70.766 69.341 64.724 63.841 63.916 64.166 64.431 65.901 64.461 64.666 64.639 64.516 64.029 63.931 63.946 64.039 66.196 66.726
70.289 70.204 70.147 70.129 70.777 70.429 73.284 70.429 70.794 69.944 69.807 69.794 69.989 69.999 69.777 69.814 69.817 70.359 73.519 72.932 73.187 71.857 70.907 71.519 72.574 72.054 74.034 77.839 79.282 79.674 78.317 72.984 70.954 72.047 72.974 73.312 74.047 73.524 72.057 71.724 71.569 71.562 72.479 72.244 72.789 73.849 77.342 79.702 80.589 79.042 76.584 75.972 76.802 76.804 78.349 79.599 78.812 76.687 74.654 74.117 72.942 72.814 72.959 73.207 74.742 76.142 76.172 74.502 74.589 73.292 75.994 76.344 76.447 76.271 74.991 75.628 75.877 74.459 73.767 74.54 74.373 74.12 74.881 75.555 76.866 73.694 73.824 75.057 75.559 74.339 73.604 73.574 73.639 74.017 75.232 79.514 81.872 82.179 80.427 76.952 74.139 73.352 72.799 72.782 72.779 72.757 72.752 72.887 73.359 73.459 76.384 78.599 79.782 78.444 75.374 74.309 73.004 73.472 73.287 71.907 71.799 71.899 72.084 71.667 73.039 72.929 76.994 77.859 74.357 71.514 70.614 70.464 71.002 71.049 73.227 72.347 70.594 70.557 70.504 70.714 70.634 70.794 76.919 74.099 74.959 71.927 70.202 70.314 71.322 71.094 70.339 68.187 69.019 68.469 68.129 69.694 71.847 74.737 73.154 74.589 73.234 71.439 68.762 71.007 70.097 69.452 70.447 70.324 67.797 68.859 70.954 67.627 68.127 66.724 69.237 70.889 69.497 67.169 69.089 69.117 66.789 66.909 66.292 67.047 66.302 67.802 67.604 68.587 66.347 66.147 65.772 68.264 66.592 67.392 65.807 69.322 65.767 66.097 66.647 68.149 64.272 67.664 70.329 65.077 67.297 68.569 64.177 64.234 64.809 64.437 64.374 65.197 65.679 65.849 67.457 66.332 66.509 68.437 65.527 68.674 66.004 64.689 67.352 69.989 67.902 68.832 64.989 67.039 66.534 65.782 65.902 67.589 69.727 68.387 65.697 63.129 64.434 66.232 66.077 66.669 65.114 66.944 65.959 65.579 68.607 68.802 67.054 64.774 66.124 62.557 65.634 69.027 62.889 62.229 64.454 67.284 66.724 63.212 66.042 67.609 67.412 66.154 64.692 64.899 64.874 63.867 66.724 65.634 62.522 68.967 66.747 63.189 65.607 67.054 66.287 64.179 65.802 69.549 69.709 65.077 64.014 63.959 62.769 62.814 65.077 66.789 64.809 67.102 66.399 63.414 63.179 62.822 62.839 63.609 64.534 65.492 66.052 65.947 66.009 70.822 67.699 67.969 64.907 65.507 65.699 65.321 66.089 65.414 63.986 64.069 70.826 68.719 67.554 66.024 64.986 67.174 67.596 65.851 67.564 68.421 68.076 71.409 67.254 67.931 69.311 67.901 68.534 66.731 69.204 70.331 66.791 68.941 69.069 69.799 69.144 67.254 67.821 68.374 66.681 66.156 66.504 66.969 66.764 66.829 66.604 67.786 68.584 67.326 67.091 70.349 74.809 74.269 74.734 74.669 73.249 69.439 67.646 66.566 66.051 66.339 67.381 66.684 66.206 66.674 66.064 66.081 65.979 65.874 65.891 65.971 68.411 66.351 66.251 66.896 69.894 72.584 73.029 72.179 69.836 69.916 70.669 65.289 65.184 65.139 65.134 65.121 65.891 66.951 67.219 66.946 67.839 68.164 69.481 67.324 65.991 64.741 64.271 64.291 65.876 66.444 65.076 64.596 64.511 68.406 67.341 66.886 64.831 64.536 69.234 71.269 70.514 68.581 64.309 65.099 64.129 64.044 64.164 64.839 64.459 64.341 64.134 64.271 64.121 64.059 64.079 64.111 64.846 64.261 65.569
70.564 71.349 70.122 70.059 70.049 70.272 72.244 70.672 69.774 69.832 69.767 69.754 69.952 69.677 69.684 69.727 69.697 70.039 73.814 72.457 73.174 72.514 71.114 70.584 70.942 70.744 71.274 75.472 78.592 80.079 78.409 76.647 71.864 71.454 71.004 72.264 73.219 74.549 71.564 72.242 71.804 71.532 71.624 72.709 71.977 73.299 73.577 78.537 78.469 74.142 72.174 76.107 75.699 77.422 80.149 80.702 80.354 78.284 75.174 72.254 72.624 72.777 75.179 74.782 76.029 75.597 73.374 73.459 73.207 74.539 74.132 74.325 77.209 77.772 75.912 75.662 75.12 74.521 73.639 73.642 74.696 74.359 73.871 74.023 73.876 73.777 74.777 75.024 73.772 73.582 73.589 73.779 74.237 75.014 74.167 76.359 80.977 82.212 81.669 79.697 75.962 73.777 72.914 72.749 72.752 72.734 72.704 72.779 72.864 72.619 74.857 78.512 79.299 79.827 77.097 72.969 72.269 72.162 72.049 71.942 71.799 71.984 72.759 73.414 72.069 71.052 70.879 71.024 71.647 70.659 70.574 70.517 70.557 71.224 71.282 70.657 70.589 70.582 70.539 70.569 70.614 74.904 77.739 71.984 72.224 71.962 72.124 72.089 71.917 71.092 70.804 68.664 68.464 69.222 70.629 70.957 71.009 74.334 75.499 76.682 72.119 67.534 70.087 72.609 70.972 70.569 69.374 69.794 69.737 68.072 73.559 73.149 72.892 69.632 70.472 70.764 70.264 69.987 68.907 66.074 70.234 67.952 69.649 65.424 65.367 65.654 69.664 68.242 69.114 69.807 65.504 70.877 67.859 68.237 64.792 68.387 70.282 65.237 72.979 71.114 65.762 65.342 65.492 64.349 64.367 70.042 64.907 64.839 64.677 64.344 64.394 65.184 65.089 64.392 64.402 65.002 67.627 66.332 68.294 68.042 69.099 66.502 65.329 72.529 70.912 66.989 63.969 65.172 66.579 68.292 67.369 66.954 68.922 66.804 66.027 65.784 63.729 64.484 64.639 65.632 64.437 66.569 65.062 65.714 64.802 66.197 64.067 63.514 64.917 65.487 70.972 63.904 63.877 63.104 64.804 69.202 68.644 63.419 65.657 63.097 62.419 64.137 64.624 62.909 63.794 63.049 65.079 65.382 66.979 67.447 68.147 63.987 66.417 67.707 64.672 64.879 63.574 63.044 63.267 63.209 62.889 63.997 62.509 63.967 65.109 65.822 65.592 63.892 63.454 66.467 63.704 63.842 63.517 62.949 63.002 63.082 64.134 63.357 65.292 66.054 69.939 70.657 66.634 66.329 63.844 67.256 69.731 65.221 64.364 64.124 68.104 66.971 65.694 65.764 64.709 64.999 64.891 66.904 67.661 66.169 65.091 68.601 69.001 70.136 67.494 67.061 66.806 67.264 67.631 69.016 71.109 68.184 68.724 69.339 67.884 66.121 68.201 70.224 68.719 66.239 66.324 66.436 66.481 66.444 66.414 66.499 69.626 70.514 67.284 72.386 74.439 75.124 76.739 75.116 73.529 68.969 67.751 68.079 67.714 67.726 67.301 66.329 66.916 66.471 66.141 66.106 66.006 65.991 66.001 66.534 67.151 67.669 66.596 69.784 72.369 73.821 74.459 73.116 71.906 69.164 69.159 65.189 65.179 65.181 65.169 65.169 65.239 65.711 67.216 67.211 67.586 68.534 67.941 66.591 64.949 64.441 64.354 64.341 64.319 66.711 65.904 64.536 67.131 71.916 69.794 65.521 65.279 65.009 66.119 69.754 66.724 64.079 64.039 64.536 64.934 65.249 64.681 64.331 64.544 65.284 64.376 64.361 64.701 64.256 64.554 64.331 65.271 64.911 64.459
70.722 71.484 71.397 70.129 70.047 70.079 71.542 70.194 69.654 69.639 69.627 69.852 70.294 69.754 69.674 69.654 69.632 70.197 73.932 72.284 74.957 73.522 72.034 70.504 70.382 70.594 72.169 73.352 76.044 78.872 79.339 77.759 73.987 72.079 72.312 74.437 76.127 72.282 71.807 71.674 72.019 71.487 71.532 71.464 71.487 72.552 72.514 75.849 72.394 72.229 73.207 72.862 72.727 73.984 79.517 79.962 81.524 79.514 77.909 74.602 73.499 74.294 75.572 75.907 74.507 73.147 73.754 76.052 76.887 76.007 74.219 73.615 76.688 76.572 75.394 74.391 73.777 73.589 74.041 74.581 73.598 73.569 73.863 73.827 74.383 75.077 73.899 73.584 73.589 73.589 73.722 74.559 74.444 73.762 73.784 74.282 78.194 81.167 82.992 81.229 78.887 73.727 73.209 72.749 72.724 72.749 72.684 72.734 72.902 73.097 72.587 76.394 78.239 79.642 79.022 76.742 72.322 72.222 72.094 72.654 73.387 73.139 72.787 71.944 71.114 71.012 70.877 70.774 70.724 70.637 70.632 71.014 71.527 71.272 70.949 70.712 70.564 70.572 70.584 70.599 70.759 72.252 71.627 72.632 72.109 77.934 75.374 70.694 72.282 71.087 71.062 71.039 70.402 71.022 70.977 70.982 72.847 74.564 77.474 80.619 76.839 69.639 71.132 70.812 69.647 72.452 70.407 73.087 72.974 70.529 71.489 72.744 70.334 70.864 68.489 71.892 68.494 70.344 74.924 66.644 72.027 73.477 69.337 66.849 66.714 66.737 69.842 69.067 68.372 68.924 66.787 68.822 67.647 65.764 70.287 72.917 70.159 68.549 70.452 69.729 66.764 66.812 67.522 64.387 68.727 70.807 65.114 66.829 67.187 65.052 65.937 65.952 65.634 67.404 64.359 64.894 64.042 64.802 67.657 67.237 69.364 67.219 68.324 65.977 68.259 67.177 68.169 67.392 67.657 67.519 70.149 70.789 73.839 67.594 67.197 63.659 64.344 68.977 67.012 67.767 65.727 62.934 66.467 64.969 64.582 66.792 66.202 65.964 64.472 66.872 65.429 64.872 63.552 64.834 62.719 64.832 65.984 64.617 63.292 65.427 64.072 64.239 62.752 63.249 63.862 65.407 62.534 63.539 68.757 66.639 64.104 63.909 62.427 62.892 65.282 65.197 65.084 62.324 64.337 66.624 62.239 62.944 62.774 63.217 67.807 63.289 65.272 64.819 64.107 69.644 66.859 66.642 66.197 67.892 63.762 63.097 64.677 63.977 63.827 65.552 70.337 67.022 68.019 65.209 68.349 69.601 69.596 67.866 64.596 64.334 68.799 67.594 66.726 66.331 64.731 65.521 66.809 66.489 69.029 65.924 67.074 65.396 68.906 70.284 68.954 68.254 68.791 67.939 69.749 69.451 67.681 70.184 72.186 68.046 67.341 66.191 66.889 69.721 69.184 66.959 66.684 66.954 66.464 66.501 66.639 70.201 77.019 77.284 73.586 67.599 71.974 74.504 75.249 74.074 70.171 67.726 67.094 67.454 68.511 67.459 68.836 68.201 66.334 66.309 66.254 66.136 66.086 66.109 66.569 66.704 66.916 66.911 67.514 70.109 72.821 74.249 73.831 72.716 71.966 68.304 67.049 66.829 65.781 65.211 65.214 65.201 65.186 65.106 65.514 66.106 67.911 67.179 67.089 67.626 66.101 64.424 64.389 64.391 64.344 64.934 66.211 64.971 69.449 72.231 71.886 68.189 64.844 65.724 65.146 64.804 64.346 64.071 64.286 64.399 65.199 64.829 64.361 64.674 64.586 64.349 65.826 64.254 64.346 64.639 64.491 64.611 64.471 65.384 65.149
70.419 70.312 70.654 71.017 70.364 70.717 71.972 70.039 69.617 70.174 69.764 70.717 71.377 70.722 69.642 69.679 69.667 70.429 74.549 74.372 72.992 74.127 72.772 71.119 71.029 71.674 71.469 71.062 73.829 77.632 77.354 72.859 71.937 73.437 74.909 77.857 77.567 74.799 71.739 71.652 71.382 71.407 71.474 71.487 71.422 71.472 72.179 71.799 72.897 72.857 72.102 72.232 72.229 72.569 76.307 79.777 80.977 79.897 78.507 76.199 72.757 74.614 74.787 73.229 73.287 75.197 74.087 76.619 76.417 75.987 73.287 74.662 74.595 75.975 76.356 75.045 74.033 74.272 74.276 73.593 73.811 73.648 73.637 75.514 75.448 73.529 73.514 73.539 73.584 73.794 74.759 74.799 74.487 73.469 73.672 74.149 75.499 78.794 81.584 82.227 80.677 77.514 73.647 72.829 72.664 72.694 72.714 73.532 73.134 72.884 73.627 73.844 78.314 78.669 79.757 78.472 74.872 72.959 72.297 73.532 74.072 72.717 71.397 71.299 71.172 71.042 70.897 70.742 70.924 72.397 72.432 71.067 70.979 70.559 70.987 71.042 70.579 70.599 70.609 70.574 70.687 70.589 70.589 71.529 74.437 75.734 76.517 69.384 71.904 72.659 71.072 71.012 70.999 71.014 71.022 71.147 71.182 70.274 74.494 79.417 80.722 68.527 69.799 69.584 70.237 68.342 69.864 70.047 69.204 66.604 68.489 68.779 69.827 70.407 73.162 70.442 68.767 73.542 72.079 69.469 70.279 69.649 69.239 68.789 72.849 68.837 65.809 70.257 65.277 69.639 66.014 65.602 65.089 68.019 67.124 74.187 70.959 67.157 68.159 68.159 65.769 67.344 65.857 67.307 67.894 67.882 67.749 67.997 67.772 65.312 68.719 66.632 65.622 67.927 67.014 65.522 63.972 64.069 64.122 65.704 67.754 67.212 68.837 68.292 65.544 66.397 66.544 66.207 66.019 68.132 72.182 69.802 71.929 67.164 69.809 68.492 65.267 68.679 69.024 65.657 65.472 63.952 64.747 64.959 63.497 66.042 65.729 66.614 64.289 70.032 63.547 64.429 65.074 65.842 67.899 65.702 63.449 66.492 63.899 65.279 64.834 62.297 63.849 65.857 68.292 67.832 64.029 62.442 67.507 66.667 64.699 66.099 64.149 68.739 66.259 64.002 64.809 62.822 64.387 63.884 65.177 65.194 65.627 63.207 65.484 63.559 67.029 64.524 67.049 67.264 67.624 66.032 66.252 65.072 64.277 63.194 63.222 63.317 63.592 65.509 66.269 66.592 67.402 67.149 69.759 68.249 69.041 68.906 65.601 64.649 64.339 67.276 64.426 65.021 65.629 67.856 68.494 67.029 68.569 69.711 71.971 71.284 75.704 73.076 68.069 68.826 68.169 71.006 68.246 72.591 71.021 66.624 68.784 68.096 66.814 66.521 66.259 66.319 66.554 67.851 67.249 67.006 66.576 66.576 68.471 76.959 77.914 77.671 77.494 74.196 67.816 71.016 72.996 74.666 71.399 67.166 67.129 67.886 68.009 67.189 68.026 67.209 66.414 66.311 66.216 66.209 66.214 66.316 67.384 66.546 66.974 68.476 69.981 67.499 70.089 72.691 72.671 71.189 70.061 65.511 65.821 66.866 67.411 66.191 65.264 65.226 65.216 65.159 65.084 65.419 67.471 65.984 65.681 68.381 66.874 64.866 64.554 64.511 64.516 64.709 66.394 69.644 71.921 72.931 73.281 71.434 68.331 64.881 65.829 65.376 64.264 64.761 64.986 65.496 64.734 64.436 64.771 64.799 64.349 64.286 65.044 64.506 64.821 65.044 64.511 64.584 64.786 64.731 65.484
70.117 70.102 70.267 70.679 70.954 71.392 71.604 69.652 69.797 70.474 69.682 69.694 70.217 69.679 69.679 69.787 69.892 69.687 73.799 74.577 72.119 72.334 71.129 72.099 71.712 70.604 70.439 71.019 72.102 72.727 71.169 72.622 72.059 73.384 77.222 78.837 78.729 77.137 73.992 71.749 71.439 71.359 71.454 71.459 71.427 71.374 71.442 73.819 72.722 71.982 72.094 72.202 72.257 72.342 73.172 77.862 79.399 78.292 75.902 72.914 74.087 74.174 72.924 72.687 72.942 73.612 73.052 74.239 75.399 74.907 75.047 74.725 74.239 74.994 76.609 75.71 74.725 74.292 74.98 74.587 74.195 74.089 75.416 75.256 73.702 73.489 73.494 73.524 74.594 74.129 73.449 73.449 73.397 74.027 74.422 75.369 74.539 75.412 80.414 82.052 81.512 79.514 73.654 72.864 72.772 72.677 72.682 72.672 73.047 72.672 73.137 72.487 74.184 77.247 79.144 76.177 76.612 74.522 73.119 72.607 72.054 71.529 71.419 71.297 71.169 71.044 71.149 72.217 73.969 74.179 71.969 70.489 71.507 70.977 72.757 71.802 70.644 70.589 70.564 70.557 70.567 70.582 70.592 70.527 71.247 72.704 70.862 68.984 68.629 70.917 71.304 71.807 75.047 72.959 70.542 69.854 69.794 68.724 70.847 73.377 70.942 72.277 73.092 69.537 69.882 67.464 67.327 71.262 71.282 68.194 69.919 71.047 70.707 72.109 71.517 68.782 70.084 71.574 68.432 69.949 66.237 66.179 65.854 68.169 69.599 72.129 74.984 74.129 67.669 68.394 65.647 67.767 65.687 69.274 68.064 67.584 69.317 70.784 66.192 66.934 67.002 67.294 67.494 69.442 69.474 66.774 68.484 68.057 68.117 67.774 64.989 65.954 66.534 68.167 66.807 65.552 66.569 65.407 66.102 64.242 66.442 68.172 69.402 67.934 64.369 66.332 67.359 69.612 67.599 70.032 67.512 72.802 72.752 67.832 69.852 67.329 65.582 67.077 67.257 66.917 67.672 67.589 68.057 64.047 66.844 63.362 65.767 66.472 65.709 66.642 65.817 62.807 62.424 63.902 64.304 69.549 66.199 66.474 63.642 67.019 66.179 65.419 67.779 67.562 65.122 65.494 65.634 64.044 65.724 64.807 63.532 68.674 68.369 68.512 67.547 69.989 71.209 64.369 66.499 66.897 69.377 63.382 62.659 62.702 62.814 65.172 67.409 68.882 69.577 65.959 66.322 67.434 65.584 68.769 65.687 64.224 64.819 66.169 64.429 66.029 66.744 70.132 66.604 64.952 66.422 67.469 67.361 70.326 69.131 64.506 64.496 65.809 67.104 64.946 66.339 68.081 65.776 67.566 67.764 66.774 67.681 69.016 69.784 71.741 66.221 67.399 70.391 72.319 70.686 72.204 72.039 69.021 68.419 67.499 67.939 66.569 66.314 66.346 66.426 66.566 68.089 68.066 66.614 66.974 74.941 77.941 77.711 77.534 77.334 76.994 74.644 68.766 67.941 71.319 67.386 67.844 67.654 68.294 67.701 67.651 68.849 66.476 66.449 66.419 66.269 66.334 66.309 66.894 67.541 66.381 70.806 72.071 72.934 70.931 67.329 69.681 71.299 70.504 69.016 66.794 65.964 66.351 65.751 66.964 65.989 65.319 65.259 65.169 65.111 67.019 66.719 65.641 65.809 65.656 65.884 65.251 65.589 66.089 64.901 67.024 70.621 71.859 73.174 73.369 72.379 71.164 67.269 64.699 64.774 66.019 66.076 64.811 64.854 64.574 64.616 64.584 64.446 64.406 64.344 66.679 64.744 65.844 66.041 64.606 64.639 64.674 65.656 68.644 66.244
70.099 70.067 70.117 70.149 70.294 70.377 72.489 73.752 72.227 69.947 69.619 69.597 69.594 69.554 69.629 70.434 70.959 70.962 74.112 74.112 72.182 72.489 71.284 70.589 70.124 70.152 70.214 72.772 73.274 72.014 71.959 72.774 72.369 71.777 74.792 77.882 79.647 78.892 76.177 71.872 71.889 71.632 72.509 71.437 71.424 71.347 72.589 75.214 74.244 72.174 72.052 72.574 72.194 72.247 72.229 74.207 77.457 74.722 73.612 74.387 73.024 72.694 72.734 72.644 72.757 72.999 73.059 73.657 74.314 74.489 73.244 73.725 74.04 74.788 76.607 76.497 76.345 76.016 76.111 75.781 75.908 74.678 73.996 73.522 73.541 73.677 73.567 74.179 74.147 73.519 73.372 73.509 73.469 74.644 75.309 74.207 73.767 74.012 77.534 80.632 79.362 73.827 73.012 73.329 73.117 72.817 72.777 72.614 72.602 72.562 72.827 72.669 72.449 73.947 73.014 74.167 74.667 73.597 72.199 71.874 71.634 71.519 71.419 71.297 71.234 72.009 74.282 74.599 73.052 74.719 72.729 72.654 73.172 74.837 76.089 74.859 70.627 70.579 70.604 70.609 70.622 70.609 70.582 70.669 71.804 70.634 70.757 70.989 69.992 69.922 71.232 74.842 77.634 75.954 70.057 69.839 68.322 69.424 70.219 70.417 69.842 69.239 72.432 71.879 69.737 69.672 68.437 70.692 66.989 68.147 66.702 68.452 68.099 69.312 70.424 69.929 69.829 70.194 71.612 70.804 67.942 68.359 67.912 67.987 67.777 70.272 71.797 70.959 66.257 67.734 65.427 67.032 67.137 71.982 72.147 69.552 68.769 67.929 64.824 67.939 68.912 65.807 70.024 69.112 67.287 69.344 65.087 65.377 65.472 67.382 65.167 64.282 65.352 66.252 64.739 65.777 67.374 68.167 66.689 64.049 65.302 70.259 67.679 67.414 68.549 67.949 66.622 68.377 65.729 65.787 68.029 67.804 68.814 67.812 65.402 66.767 66.919 65.519 66.582 68.544 69.662 66.317 74.929 64.697 64.974 65.267 64.314 63.712 66.944 65.727 65.134 65.409 64.489 63.744 65.752 71.379 65.672 69.774 67.489 64.404 65.739 69.264 68.937 65.199 68.832 65.304 62.969 65.689 66.304 67.889 63.862 67.412 68.239 65.864 66.917 69.289 64.884 65.017 65.049 67.167 64.147 67.672 65.397 63.179 62.762 64.837 68.507 65.097 63.954 68.214 67.637 66.092 69.777 67.549 67.327 64.924 63.402 63.922 63.994 66.722 70.074 68.592 73.149 66.099 67.969 67.924 66.661 66.609 66.419 65.274 65.059 68.156 66.371 66.606 66.791 66.896 68.681 66.734 68.499 71.756 65.506 66.806 68.246 68.336 66.359 68.159 68.874 70.406 72.801 70.956 69.936 68.231 70.526 67.954 66.636 66.344 66.394 66.441 66.481 66.531 67.034 67.826 68.749 73.994 77.994 77.774 77.534 77.346 77.154 76.989 76.836 75.591 69.926 67.199 66.901 67.089 68.769 67.116 66.724 68.409 67.551 66.566 67.349 72.189 70.371 68.769 67.519 66.459 66.221 66.906 72.474 73.286 74.331 73.569 72.526 67.889 67.521 68.919 66.526 65.684 65.839 65.476 65.449 65.479 66.551 66.526 65.366 65.269 67.014 68.161 65.901 64.886 64.944 66.114 66.511 65.501 66.756 67.439 69.154 71.464 72.646 73.336 73.281 72.224 70.856 67.734 64.909 65.021 65.839 65.311 66.049 65.556 64.631 64.824 65.386 64.594 64.474 64.446 64.496 64.779 65.041 65.016 65.001 65.514 65.499 67.304 70.709 71.554 68.814
70.324 70.009 70.044 70.024 70.059 71.077 73.917 76.757 75.007 70.752 69.642 69.624 69.607 69.547 69.697 70.359 70.117 70.202 72.214 74.774 74.727 71.982 70.032 69.927 70.017 70.037 70.109 72.622 72.027 70.839 70.662 71.127 71.387 72.142 73.104 76.977 78.499 79.157 77.684 75.474 71.747 73.747 72.814 71.654 71.387 72.377 72.317 71.724 74.264 72.092 72.854 74.577 72.557 72.162 72.152 72.539 74.912 74.184 73.127 74.082 75.292 72.674 72.504 72.542 72.677 73.647 75.542 75.292 73.899 72.979 73.029 73.126 74.25 76.487 78.821 76.609 77.01 76.168 76.524 75.234 74.24 73.365 73.428 73.552 73.57 73.939 74.129 73.592 73.764 73.484 73.439 74.142 74.827 74.634 73.469 73.357 73.592 73.894 74.224 76.369 73.274 73.734 73.649 73.169 72.879 73.049 73.144 72.574 72.614 72.554 72.594 72.874 73.002 73.547 73.184 76.239 79.324 77.984 74.084 72.047 71.677 71.524 71.447 72.077 72.817 72.807 74.952 74.717 75.589 76.452 75.559 71.862 77.652 76.072 74.667 76.149 72.749 70.977 70.667 70.659 70.664 70.587 70.557 74.252 73.737 71.674 73.404 74.379 70.854 74.184 72.432 74.359 74.894 71.947 71.527 71.739 70.842 70.889 72.634 72.119 71.949 69.772 79.919 74.444 71.949 73.047 69.044 70.569 70.242 70.952 67.897 71.617 72.114 70.727 70.667 70.369 68.447 68.969 68.427 67.664 67.352 68.927 72.512 69.137 72.932 71.777 70.189 73.104 69.777 66.592 68.084 68.314 67.597 67.254 75.707 71.482 67.407 69.732 67.957 66.064 68.592 67.539 69.694 68.409 68.534 68.749 66.827 67.122 69.122 66.577 66.357 65.617 64.607 66.414 67.459 68.327 68.409 71.974 66.459 65.342 64.114 66.482 65.957 65.854 68.409 67.629 67.124 68.332 66.737 66.962 68.434 66.312 65.444 67.774 67.884 69.014 65.829 63.799 66.024 66.822 68.292 69.754 73.182 68.599 66.614 64.212 65.354 64.472 63.874 63.727 65.352 63.859 63.062 63.639 64.594 69.707 65.387 78.152 69.354 63.319 65.599 63.379 67.357 64.877 70.227 71.597 63.604 64.579 66.207 66.629 64.172 64.564 64.522 64.329 64.757 66.904 69.234 67.222 63.609 63.459 62.692 70.209 71.454 65.212 62.937 62.942 64.507 66.437 66.837 64.372 63.767 64.364 66.982 68.714 66.099 66.364 71.749 68.759 66.592 66.319 65.907 67.469 71.314 67.979 67.277 66.371 64.259 64.199 64.819 65.046 64.379 67.299 65.814 65.094 66.494 66.221 68.431 68.454 71.251 66.861 71.634 68.081 70.134 68.741 77.304 67.864 68.986 76.249 72.346 68.559 72.066 68.366 68.781 68.176 67.339 66.704 66.469 66.524 66.569 66.589 66.666 66.741 67.486 70.531 77.341 77.649 77.421 77.201 76.999 76.846 76.689 76.551 75.459 69.921 67.629 67.156 67.731 66.809 67.201 68.136 66.681 67.841 70.079 69.654 69.974 70.721 67.709 67.486 66.671 70.361 72.961 74.339 74.984 73.716 71.881 67.689 66.754 66.749 66.636 65.809 65.559 65.529 65.496 65.464 65.446 67.076 67.509 66.916 68.181 66.789 65.066 64.946 64.906 65.214 65.729 66.661 65.596 67.234 68.249 71.441 73.056 73.019 71.721 70.116 67.379 64.761 64.554 64.719 65.079 64.879 65.216 64.661 64.594 64.639 64.594 64.509 64.539 64.609 65.226 65.371 64.654 64.631 64.856 65.211 69.286 71.291 72.486 73.039 71.484
71.367 70.102 70.587 69.967 70.012 70.524 75.217 77.047 76.924 72.542 70.272 69.579 69.574 69.577 69.669 70.464 70.167 69.984 72.227 74.009 73.212 72.957 70.234 69.937 70.077 70.564 70.982 70.489 70.237 70.734 72.284 72.459 70.619 72.397 72.709 74.222 77.197 79.564 79.244 76.749 73.084 71.879 72.134 71.394 71.344 71.492 73.432 74.629 71.954 72.502 73.372 75.679 73.994 72.077 72.102 72.177 73.574 73.677 74.577 76.007 78.934 76.362 72.419 72.327 72.882 74.869 76.202 75.969 74.562 72.887 72.947 74.464 75.175 77.018 79.345 76.686 76.883 75.937 75.483 73.745 73.343 73.358 73.304 73.574 74.429 73.922 73.357 73.349 73.744 73.564 74.214 75.459 74.917 73.304 73.314 73.327 73.367 74.729 75.274 73.602 74.829 75.409 75.727 73.884 73.002 72.817 72.647 72.532 72.577 72.569 72.662 72.782 73.997 72.622 73.417 77.749 79.842 78.994 76.694 71.999 72.134 72.999 72.932 71.567 71.334 74.127 76.012 75.054 76.634 73.039 74.742 76.024 77.707 74.982 75.462 75.602 75.244 71.557 70.687 70.684 70.672 70.592 70.549 74.727 75.657 71.399 71.882 72.352 70.432 72.409 73.344 75.007 68.537 71.294 73.034 71.927 70.549 78.012 76.402 69.212 72.937 72.032 73.342 73.774 69.342 71.122 70.309 68.804 69.579 73.289 71.699 72.287 69.699 70.654 69.874 67.424 70.759 71.087 68.109 69.469 68.527 68.339 72.414 75.727 71.639 66.817 68.624 72.224 71.222 72.549 68.467 69.924 69.264 73.334 73.274 67.514 70.319 71.079 70.214 67.587 65.477 69.032 66.927 66.547 67.214 67.407 68.199 66.609 68.739 68.077 66.249 65.464 64.499 65.077 66.454 66.494 68.694 70.572 68.192 67.844 66.754 65.799 64.169 67.782 71.329 69.569 66.149 69.977 67.974 66.429 68.149 69.309 64.924 67.274 65.832 66.814 64.727 63.934 65.689 64.907 67.577 68.479 65.907 67.374 65.329 63.462 67.762 64.912 68.254 63.659 64.382 62.694 64.149 72.607 68.947 66.377 69.507 70.562 65.992 65.844 63.262 62.589 63.069 65.614 70.162 69.944 64.814 62.319 62.719 65.554 62.879 67.567 67.252 64.634 65.089 67.609 67.434 62.709 67.627 66.024 63.739 71.152 66.472 64.034 63.382 62.832 66.959 68.094 64.064 66.114 65.247 63.287 67.129 68.109 65.362 69.279 70.482 72.294 70.477 68.204 72.299 67.362 70.732 67.667 66.819 68.734 66.264 65.296 65.246 66.289 64.436 64.491 65.894 67.064 66.629 65.086 66.899 67.591 68.836 67.696 69.084 67.921 68.906 68.961 72.284 66.069 67.284 72.059 77.929 72.369 74.084 75.004 68.944 67.331 67.791 67.014 66.531 66.581 66.601 66.684 66.746 66.809 67.156 67.516 70.864 75.614 77.289 77.074 76.879 76.711 76.576 76.444 70.034 68.251 68.591 67.046 66.891 66.791 66.744 66.764 66.714 67.859 69.754 70.091 70.516 66.856 66.594 67.316 67.639 69.501 72.271 74.156 73.996 72.799 68.204 66.166 67.714 67.289 67.664 66.751 65.759 65.594 65.526 65.516 65.506 67.129 68.271 68.834 67.921 65.286 65.036 64.986 65.296 64.884 65.629 65.991 66.376 65.289 64.729 68.971 71.794 71.889 69.664 65.356 65.291 65.131 64.621 65.756 66.296 65.299 64.676 64.644 64.664 64.606 64.561 64.621 64.719 65.221 65.001 65.389 64.741 64.856 67.179 69.401 71.611 73.309 73.781 73.469 72.856
71.942 70.864 71.279 70.082 70.237 72.729 74.644 74.362 75.274 72.867 69.677 69.609 69.584 69.564 69.574 69.619 69.647 69.614 72.874 72.839 70.444 73.424 71.077 71.367 72.784 72.832 70.599 69.984 70.124 70.552 72.262 71.414 72.374 72.592 72.472 71.849 75.282 77.914 76.569 73.117 71.809 72.214 72.157 71.687 72.087 71.349 72.222 71.534 71.434 72.399 72.687 74.649 72.972 72.009 72.064 72.067 71.997 72.694 76.219 77.864 79.372 79.252 77.374 74.042 74.899 74.104 74.224 74.007 73.014 73.317 74.354 75.155 75.443 75.588 75.456 75.535 76.545 76.075 74.832 73.888 73.271 73.258 73.643 74.607 73.647 73.334 73.279 73.497 74.034 74.579 75.829 76.457 73.889 73.239 73.272 73.262 74.999 75.689 75.249 75.292 75.912 75.939 76.427 77.129 73.319 73.072 72.679 72.539 72.572 72.559 73.902 73.427 74.157 73.429 72.704 77.404 79.139 79.834 77.949 74.439 72.937 72.662 71.827 71.337 75.904 75.052 75.999 74.759 77.982 72.517 77.322 76.599 76.217 75.197 76.169 73.764 74.677 70.644 70.684 70.662 70.624 70.549 70.589 73.952 71.829 70.839 74.392 70.314 71.784 69.569 70.784 74.222 70.007 70.194 70.994 72.419 76.697 78.217 73.109 73.312 73.712 70.467 68.922 69.264 73.194 70.282 72.112 70.132 68.457 69.404 66.827 68.832 67.304 71.784 71.119 70.139 66.912 67.759 70.044 71.699 69.672 70.372 73.527 68.919 66.849 66.279 66.169 69.372 71.299 70.004 67.257 68.454 77.324 73.699 65.974 67.432 67.589 69.142 70.422 65.997 66.839 65.017 70.392 69.894 65.927 68.237 67.397 68.324 71.529 71.819 70.522 71.134 74.544 69.437 68.079 70.097 69.259 69.227 69.979 71.789 69.289 65.877 68.157 68.284 66.844 71.959 70.974 67.204 67.192 68.734 67.172 68.592 66.267 66.019 66.024 69.389 71.042 65.862 68.809 65.924 65.399 64.864 67.797 64.782 65.679 65.604 63.929 68.072 67.269 64.899 65.692 62.804 63.192 65.474 63.084 70.354 62.642 65.692 63.574 64.184 63.129 64.092 62.457 62.952 66.532 66.787 64.607 63.442 64.447 63.457 62.452 63.284 64.724 63.214 65.124 65.809 64.282 62.619 63.062 66.384 66.062 66.984 71.727 67.002 64.124 63.089 65.829 65.327 73.979 71.772 65.589 63.542 65.282 68.524 70.209 73.722 66.582 72.559 70.544 67.789 66.177 69.094 67.757 68.644 71.094 69.039 67.836 65.049 64.319 64.396 64.754 67.561 68.426 69.276 68.879 67.126 69.039 67.629 68.351 69.699 68.014 66.116 68.399 72.219 72.839 70.536 68.801 71.681 78.156 78.046 77.159 74.594 74.051 67.409 66.786 68.071 67.394 66.854 66.729 66.761 66.804 67.014 67.314 68.094 72.694 70.326 71.401 76.326 76.786 76.609 76.474 72.019 67.386 67.944 67.284 67.029 66.889 66.869 66.881 66.814 67.119 67.681 68.316 70.521 68.479 66.646 66.636 68.899 71.606 68.109 67.639 72.339 72.739 70.711 67.681 66.216 66.581 68.201 67.716 67.861 66.491 65.649 65.611 65.569 65.589 66.484 67.976 67.749 67.616 67.331 66.894 65.069 65.019 64.934 64.919 65.911 65.909 66.279 64.741 65.429 69.581 71.944 68.844 65.216 64.714 65.174 65.071 65.609 66.434 66.041 64.741 64.746 64.674 64.639 64.666 64.811 64.989 64.791 64.756 64.904 64.926 67.211 72.389 72.014 73.206 73.789 73.009 71.979 71.454
71.427 69.359 70.139 70.254 71.279 71.967 71.919 72.867 73.072 70.189 69.804 69.602 69.557 69.572 69.537 69.522 69.557 69.562 72.312 74.374 73.012 74.704 73.157 73.352 70.909 72.849 72.962 70.047 70.017 70.129 71.052 71.264 72.374 71.244 70.939 72.634 74.759 74.627 72.717 71.342 71.002 71.017 71.869 71.709 72.009 71.637 71.332 71.319 71.774 71.754 72.317 73.414 74.259 72.444 71.999 72.044 72.092 71.999 73.034 77.959 79.077 80.267 81.249 76.162 72.734 72.467 72.627 72.752 75.087 75.504 73.004 73.644 74.001 75.412 74.803 74.759 74.625 74.575 74.769 75.321 73.283 74.058 74.394 73.69 73.626 73.403 73.412 73.637 74.694 74.012 73.372 75.114 73.304 73.254 73.234 73.209 75.094 75.412 74.427 75.827 76.154 77.714 79.079 79.777 76.767 72.837 73.069 72.574 72.459 72.532 72.959 75.489 76.429 75.267 72.204 77.247 78.787 80.477 78.819 76.769 72.834 72.187 71.949 74.127 80.159 79.447 76.277 71.527 79.054 75.917 72.387 73.802 74.954 72.694 72.082 75.949 74.537 70.669 70.672 70.627 70.614 70.547 70.742 70.607 73.892 72.074 74.162 74.637 72.644 71.542 70.962 76.484 72.712 69.754 76.622 72.394 72.732 71.472 73.874 75.284 70.732 71.424 70.814 70.119 69.617 72.489 74.819 67.882 70.769 68.372 67.477 70.074 69.799 76.377 74.262 69.257 68.594 71.644 71.332 70.117 67.819 69.374 71.417 69.497 67.079 67.042 66.012 65.892 71.244 69.922 72.774 68.549 71.294 73.607 70.852 71.602 67.994 68.259 69.404 65.377 67.724 69.854 71.559 71.759 66.974 66.909 64.959 66.444 66.897 71.027 71.597 73.274 70.234 70.937 66.159 70.034 69.049 70.354 70.734 76.797 71.584 66.122 66.502 67.297 66.814 69.902 68.722 69.917 67.282 66.647 68.502 65.824 66.829 69.197 69.697 70.187 73.724 68.322 64.774 64.077 65.894 65.432 63.289 63.464 63.484 63.894 63.072 64.987 65.312 66.759 67.247 65.209 63.887 67.049 64.652 65.237 65.917 65.574 63.544 64.972 64.109 63.957 64.092 64.884 63.704 66.182 65.284 63.969 64.279 66.332 63.277 63.124 65.964 64.677 66.809 66.372 67.597 62.987 62.779 64.052 64.564 67.174 71.177 63.287 63.312 64.662 64.474 68.009 69.109 64.337 70.784 64.962 66.529 65.447 68.419 66.779 68.804 66.877 65.762 65.514 65.682 67.142 66.332 66.287 68.669 70.944 68.079 66.111 64.444 64.821 69.126 68.189 71.239 70.781 69.024 67.434 68.791 71.059 66.021 69.794 68.826 68.034 68.691 67.956 69.849 76.226 70.716 68.096 71.326 76.746 78.659 78.426 77.014 72.519 67.794 66.556 66.984 67.781 67.031 67.039 66.884 67.144 67.461 71.966 74.601 74.284 73.711 70.211 76.236 76.506 73.084 68.024 68.034 67.606 67.174 67.039 66.909 66.999 66.924 66.846 66.729 66.796 68.719 68.926 66.771 66.686 67.759 72.479 73.821 72.921 68.744 66.816 70.521 68.301 66.494 66.421 66.211 66.364 66.281 66.229 67.094 66.804 65.691 65.771 66.336 68.411 67.641 66.866 69.176 67.994 66.734 65.346 65.076 65.261 65.394 65.174 65.844 66.156 65.714 64.896 64.861 67.539 64.784 64.759 65.419 65.734 65.316 64.934 66.921 70.909 65.521 64.766 64.711 64.749 64.786 65.226 64.829 64.784 64.799 65.499 67.294 71.061 72.271 73.466 73.639 72.949 71.374 68.076 66.729
69.257 69.234 69.187 69.207 70.322 70.694 72.679 73.527 72.792 69.904 69.609 69.612 69.462 69.552 69.579 69.599 69.729 70.019 71.144 74.727 74.212 73.179 73.577 71.499 72.249 70.547 72.844 71.117 70.142 71.372 72.364 70.719 70.412 70.574 71.187 71.824 73.507 71.772 71.074 70.614 70.512 70.692 71.032 71.839 71.557 71.279 71.277 71.314 71.299 72.059 71.662 73.184 73.209 71.914 71.929 71.992 72.109 72.112 71.944 76.162 80.749 82.329 80.362 77.697 72.399 72.419 73.104 74.919 76.184 76.039 73.114 74.201 75.98 75.462 74.982 73.86 73.715 75.124 76.044 73.845 75.327 73.924 73.159 73.595 74.181 73.437 74.097 74.584 73.429 73.197 73.212 73.212 73.189 73.389 73.937 76.012 75.164 73.284 73.514 75.159 78.462 80.302 81.234 81.599 80.652 73.892 73.104 72.647 72.594 72.682 72.504 72.887 73.754 73.669 72.467 73.897 78.097 79.504 79.712 77.794 74.689 72.194 72.429 74.882 79.519 79.452 74.484 72.732 79.722 79.802 78.174 78.157 75.152 77.357 74.469 76.257 74.629 71.407 71.057 70.629 70.594 70.532 70.627 70.567 75.077 75.517 73.734 73.724 72.317 71.262 72.149 73.034 71.832 73.117 74.722 72.477 69.847 73.422 71.187 72.002 69.924 71.257 72.854 70.429 72.042 75.224 76.837 69.719 70.549 69.492 67.522 70.739 71.539 74.267 72.889 70.267 67.852 67.607 70.642 66.549 68.254 69.509 69.874 66.589 66.612 68.469 69.447 67.012 72.889 70.767 69.517 65.999 68.707 70.197 68.569 69.059 69.479 70.212 68.984 66.312 68.392 70.022 68.747 65.249 69.894 71.879 68.997 67.394 70.712 75.364 75.292 75.252 67.644 67.309 68.489 66.457 73.942 68.712 77.184 71.464 68.972 65.989 67.349 68.942 68.499 71.697 66.319 70.292 69.079 67.104 67.192 71.074 69.207 72.859 69.167 68.637 67.569 65.254 69.274 65.332 69.199 65.687 63.484 63.494 63.497 67.994 65.902 64.819 65.862 66.254 64.349 67.579 64.557 66.149 64.449 62.759 62.742 64.529 63.352 66.084 62.914 63.944 64.384 66.262 64.284 64.544 63.752 64.197 70.884 68.587 68.587 66.069 66.392 65.882 66.639 66.709 66.097 63.867 62.772 62.752 67.464 68.299 67.074 65.684 65.142 65.389 66.702 67.449 67.452 69.039 66.169 65.227 63.432 64.122 67.634 63.887 64.519 64.777 64.412 63.729 67.239 66.057 65.354 64.944 73.479 72.059 67.866 68.516 65.461 65.469 67.949 69.436 68.956 68.281 69.651 66.189 66.274 66.909 65.574 66.034 66.664 69.451 68.226 70.609 68.391 68.314 72.179 70.379 71.161 72.131 76.096 77.086 76.941 73.151 67.761 66.834 66.851 67.614 68.604 68.099 67.219 67.269 69.421 73.904 75.279 75.531 74.556 72.694 71.051 73.934 68.066 68.506 68.521 67.416 67.156 67.051 67.056 67.044 66.961 66.861 66.836 66.899 67.889 67.004 66.811 67.641 72.289 74.476 75.221 74.676 73.509 69.916 68.066 66.481 66.351 66.251 66.219 66.206 66.151 66.131 66.101 67.714 67.626 68.094 70.519 73.371 73.696 67.484 67.084 67.049 65.786 65.841 65.401 65.401 65.314 65.176 65.976 66.414 66.164 66.129 66.079 65.901 65.291 65.551 65.619 65.659 64.999 65.349 65.144 64.996 64.849 64.824 64.836 64.904 65.451 64.949 64.874 64.851 65.211 68.921 71.424 73.184 73.619 73.571 73.239 71.066 68.169 66.329 65.196
69.169 69.147 69.139 69.857 69.319 69.359 71.187 71.672 70.719 69.692 69.517 69.512 69.482 69.569 69.702 69.734 69.952 69.702 72.119 73.839 74.344 71.477 74.029 72.264 71.797 72.389 72.909 71.617 71.034 70.769 70.349 70.179 70.289 70.692 72.944 72.772 71.629 71.297 70.469 70.477 70.494 70.532 70.774 71.262 72.204 71.249 71.369 71.459 71.244 71.229 71.919 72.859 73.877 71.764 71.882 71.977 72.084 72.149 72.032 73.074 79.912 79.689 80.224 79.187 75.547 73.672 73.464 73.769 75.217 74.387 74.424 76.004 75.999 74.633 74.107 73.214 75.482 76.895 76.335 74.439 74.905 73.466 73.445 73.825 74.959 74.755 73.809 73.129 73.177 73.179 73.164 73.344 73.102 74.589 76.649 74.997 73.309 74.147 73.167 73.012 77.249 81.634 81.689 81.137 79.862 75.074 73.617 73.207 72.847 73.309 72.559 72.734 74.689 72.697 73.712 72.302 77.732 78.464 79.947 78.629 75.017 72.577 72.612 72.202 72.209 71.337 71.094 70.887 77.089 75.919 73.187 80.119 80.247 78.887 73.889 72.204 74.742 73.624 72.599 70.649 70.617 70.589 70.592 70.574 70.562 72.409 73.592 74.284 72.287 68.764 70.622 72.119 71.717 73.327 69.549 70.437 73.162 72.512 72.267 72.297 70.577 69.922 71.909 70.539 73.039 74.654 76.117 68.652 70.072 69.537 67.422 67.767 70.589 70.312 72.389 71.599 68.672 73.392 69.999 69.027 70.479 70.534 69.907 66.714 68.179 68.507 68.469 70.709 68.502 68.464 69.307 71.599 69.649 70.749 67.319 66.479 70.519 68.032 70.097 70.964 67.099 68.997 71.099 66.389 70.972 67.137 69.182 69.054 67.817 66.797 76.237 76.334 73.584 70.517 65.492 67.019 69.952 66.957 69.827 68.154 69.434 69.977 69.244 69.899 70.434 70.087 70.927 71.794 68.024 66.782 70.534 73.727 71.452 68.619 67.627 68.094 67.814 70.214 71.392 69.709 67.744 66.817 65.339 63.539 64.842 64.112 65.532 65.049 63.882 68.132 63.584 69.454 65.244 64.349 64.552 63.057 62.924 63.324 64.479 70.794 65.972 66.102 62.999 63.409 63.397 66.037 64.719 66.277 67.409 65.917 66.937 67.519 68.154 63.254 63.814 63.979 65.197 66.407 63.834 66.709 66.189 63.824 66.592 66.599 65.052 69.917 67.994 63.722 66.214 65.589 64.704 65.187 63.404 63.584 67.044 68.269 66.624 67.099 64.964 63.769 66.922 66.214 67.402 70.729 68.659 70.104 66.091 64.701 64.501 66.344 68.699 70.166 66.884 68.186 68.811 67.349 66.066 67.766 67.006 66.164 66.881 72.541 69.324 67.046 66.449 68.659 68.209 72.016 73.599 75.999 71.669 73.206 70.006 68.474 66.886 66.941 66.946 66.966 67.474 69.119 69.334 69.496 71.026 74.124 75.569 75.359 74.446 73.686 69.911 68.631 68.341 68.029 67.369 67.281 67.841 67.176 67.136 67.091 66.976 66.974 66.989 67.296 67.886 67.006 66.791 70.936 73.936 75.356 76.139 75.764 74.534 73.124 69.106 67.621 66.996 66.294 66.256 66.916 66.371 66.151 66.419 68.016 68.141 69.329 72.384 74.189 72.646 70.606 68.139 65.866 65.831 66.426 65.766 65.719 65.809 65.526 66.051 66.251 65.779 66.086 66.406 66.506 65.436 65.591 66.286 65.156 65.439 65.479 64.974 64.924 64.936 64.926 65.699 65.786 65.816 65.554 65.996 65.659 69.656 71.669 72.956 73.761 73.189 72.294 70.854 66.156 65.006 66.226 67.689
69.454 69.099 69.272 70.162 70.034 69.212 70.904 71.457 69.792 69.649 69.569 69.612 69.507 69.474 69.674 69.767 69.904 69.862 71.032 72.537 71.959 70.164 71.754 71.302 71.434 73.132 72.664 72.052 71.964 70.789 70.147 70.327 70.874 71.494 73.069 73.379 70.817 70.419 70.427 70.479 70.489 70.484 70.547 70.819 71.347 71.962 72.639 72.984 71.254 71.212 72.864 80.912 75.934 72.354 71.847 71.947 72.027 72.082 72.109 72.177 73.694 78.144 79.197 80.309 78.737 74.539 72.517 72.454 72.592 72.649 76.907 77.257 75.88 74.366 73.064 74.085 75.174 76.032 75.176 75.706 74.767 75.21 74.056 74.326 75.083 73.521 73.069 73.092 73.129 73.132 73.119 73.442 75.149 75.694 73.274 73.069 73.034 73.552 73.199 72.942 73.434 80.149 80.632 82.222 79.894 77.019 73.714 73.177 73.214 73.112 72.524 72.472 73.037 72.517 72.824 72.207 74.287 76.552 79.444 80.237 77.379 72.662 72.347 71.452 71.357 71.327 71.257 72.329 76.157 77.519 77.114 74.819 77.357 75.009 76.287 71.192 72.894 70.974 70.604 70.582 70.639 70.587 70.582 70.554 70.562 71.479 73.079 73.289 71.629 70.312 72.014 68.729 71.682 72.517 73.682 71.702 74.274 73.584 73.834 72.537 71.974 70.014 69.694 70.259 72.552 75.212 73.082 69.059 69.987 67.757 67.349 67.357 67.524 72.362 71.477 68.522 66.907 70.302 74.074 69.377 71.209 70.157 68.159 66.567 70.984 67.862 68.689 68.282 66.632 69.274 67.479 69.164 73.434 71.972 72.492 70.019 69.524 70.902 71.484 71.062 74.327 65.504 67.522 67.449 68.724 68.712 68.522 70.642 65.609 67.839 73.112 75.634 66.912 70.877 65.839 68.667 67.449 69.604 66.067 66.812 67.612 69.539 70.414 70.999 67.827 67.057 68.602 71.279 68.647 66.737 67.902 70.864 65.204 66.337 66.309 70.414 69.327 70.897 67.392 67.274 68.727 66.382 65.489 63.774 64.424 63.697 64.087 63.322 63.162 71.489 64.794 66.199 65.162 65.512 65.914 66.084 66.127 65.957 66.287 67.932 64.664 65.272 63.099 63.137 65.457 67.244 68.884 65.642 64.544 63.942 64.977 69.559 69.569 68.967 66.489 65.557 65.029 68.002 64.559 64.549 66.034 68.842 68.197 66.059 63.492 65.177 67.087 67.697 64.632 69.889 64.084 63.337 63.499 65.454 66.014 67.947 64.724 63.704 63.824 64.389 66.024 67.004 66.207 67.669 67.094 65.186 64.429 64.459 64.391 68.421 67.754 68.936 71.449 67.926 67.906 68.196 66.349 73.496 71.804 70.179 71.314 70.276 67.096 68.276 66.706 69.151 68.836 75.956 74.246 75.606 72.461 71.226 70.614 67.659 66.926 66.976 66.991 67.026 67.539 68.474 69.101 69.821 73.096 74.809 75.376 74.154 72.601 69.534 67.571 67.474 68.539 67.776 67.394 67.279 67.541 67.284 67.244 67.104 67.039 67.124 68.291 67.411 68.249 68.389 68.004 71.049 74.509 75.006 75.964 75.319 74.386 69.821 66.796 67.674 68.619 68.179 67.319 68.021 67.411 66.174 66.181 67.331 68.626 71.806 74.439 73.476 73.486 70.899 66.516 65.969 65.886 65.906 65.771 66.084 66.079 65.626 65.456 65.594 65.634 65.206 65.204 65.281 65.366 65.474 65.666 66.281 65.109 65.036 64.976 65.019 65.379 65.649 66.711 66.381 65.869 66.251 65.876 66.474 71.349 73.021 73.844 72.819 71.644 69.159 67.256 64.986 65.239 66.034 66.639
70.732 70.477 69.709 69.349 69.197 69.269 71.554 73.727 70.599 69.562 69.494 69.447 69.482 69.454 69.484 69.604 69.554 69.679 70.799 71.782 70.117 69.797 70.767 71.924 72.979 72.687 70.637 70.997 72.059 71.849 70.817 71.267 72.039 74.197 76.294 75.639 71.349 70.327 70.432 70.447 70.469 70.487 70.467 70.572 70.882 71.904 73.824 74.394 71.319 71.229 71.527 77.127 78.752 74.529 71.924 71.899 71.949 72.004 72.067 72.064 72.467 74.884 77.839 81.109 79.904 77.837 72.797 72.357 72.989 74.042 76.174 73.632 74.333 72.945 72.952 73.534 75.02 75.011 75.503 78.096 77.908 75.057 74.979 74.758 74.187 73.229 73.049 73.067 73.049 73.074 73.634 74.799 73.614 73.049 73.832 73.049 72.999 72.989 73.242 73.797 73.792 76.447 79.689 81.597 80.764 78.874 74.307 73.299 74.117 74.294 72.462 72.514 72.422 72.454 72.774 72.452 72.564 73.682 78.534 80.084 78.397 74.194 72.002 71.802 71.947 72.074 72.157 72.224 75.049 77.819 77.767 75.122 72.782 74.779 75.982 73.132 73.399 72.617 70.604 70.582 70.892 70.624 70.609 70.572 70.557 73.367 75.992 74.684 73.387 72.039 70.364 68.959 69.522 72.817 73.344 76.899 73.967 76.374 76.997 72.344 71.074 72.052 71.799 73.334 71.337 73.122 72.787 72.644 68.744 69.592 67.502 67.412 67.859 68.502 69.782 67.149 67.037 70.669 72.189 70.784 69.289 66.894 68.777 71.609 72.542 71.114 66.837 68.384 66.494 67.129 68.199 71.604 69.484 66.714 71.402 69.892 69.957 70.927 68.582 72.617 68.707 68.012 65.782 68.662 71.667 66.497 68.899 67.964 66.697 67.762 69.359 71.524 67.202 70.877 68.942 69.014 70.627 72.837 66.839 66.254 70.147 68.729 68.817 69.629 67.219 69.364 69.842 69.099 68.542 68.782 70.112 72.092 68.229 65.944 66.289 67.289 68.042 65.539 64.977 69.467 64.549 65.997 64.662 63.664 63.889 63.464 63.924 63.279 67.209 67.849 67.729 66.377 69.949 66.759 66.644 70.272 65.009 66.087 65.689 66.974 63.209 66.167 64.042 63.882 63.709 65.222 66.844 65.112 65.904 62.697 63.804 63.524 68.494 69.469 66.529 65.427 64.284 66.664 64.592 66.297 64.859 65.732 66.004 64.547 66.997 65.592 67.054 69.384 66.007 65.524 65.294 65.532 63.694 65.484 66.719 66.579 67.017 66.389 64.017 66.212 64.637 66.279 67.049 65.044 64.404 64.436 64.416 66.746 68.301 67.661 66.786 67.036 68.084 68.601 66.051 69.526 74.534 73.874 68.451 69.026 70.116 66.356 69.936 67.996 71.839 69.029 71.829 74.356 74.284 72.441 71.241 71.299 71.816 68.406 66.971 67.329 67.204 67.549 67.544 70.086 73.036 72.056 69.689 73.986 74.176 71.449 68.449 67.654 67.416 68.409 68.836 69.234 67.961 67.404 67.379 67.311 67.281 67.164 67.204 68.186 68.196 68.089 67.871 67.676 68.174 68.946 69.946 73.464 74.764 74.571 71.304 66.896 66.911 66.834 68.164 68.776 69.336 67.296 66.916 66.204 66.169 66.884 68.141 69.604 71.929 72.499 70.996 68.421 68.374 68.646 66.874 66.406 66.059 66.759 66.476 65.589 65.486 65.424 65.311 65.229 65.194 65.181 65.204 65.284 65.631 65.239 65.621 65.296 65.091 65.396 65.844 65.101 65.369 66.111 65.814 66.329 65.459 65.311 68.171 71.989 73.061 71.316 67.796 65.659 66.481 66.564 65.566 65.831 66.021
69.107 69.719 70.197 70.134 69.182 69.909 70.957 74.454 71.127 69.442 69.564 69.487 69.554 69.519 69.567 69.589 69.434 69.487 71.412 73.627 71.914 70.714 70.712 71.132 70.527 70.849 70.339 71.064 72.837 73.979 75.219 71.929 74.744 76.564 77.987 76.894 75.254 70.877 70.372 70.454 70.469 70.434 70.414 70.469 70.662 70.917 74.134 74.022 74.202 71.487 72.142 75.914 72.302 73.272 72.409 71.762 71.869 71.954 71.992 72.017 71.954 73.359 76.054 78.517 80.069 79.354 76.007 72.904 74.447 73.824 73.504 72.482 72.549 73.557 74.154 73.707 74.675 75.344 75.754 77.819 77.515 76.359 76.46 74.563 73.49 73.107 72.987 73.019 73.549 75.259 75.594 74.339 73.017 72.982 73.429 72.987 73.049 73.827 74.567 74.189 73.197 73.679 78.689 80.794 81.584 79.757 75.952 73.097 73.179 72.659 72.479 72.467 72.472 72.449 72.674 73.044 72.347 74.339 76.874 79.657 79.354 76.484 72.112 72.299 73.322 72.444 71.362 70.929 72.604 75.829 75.277 75.184 74.779 73.077 70.534 71.397 74.832 70.687 70.579 70.657 70.667 70.667 70.684 70.854 70.739 72.117 72.417 72.209 71.937 71.617 70.049 69.547 69.064 73.177 74.287 70.234 69.927 71.592 70.967 72.179 72.659 70.622 69.824 71.587 71.559 71.372 71.102 70.374 70.899 70.964 70.889 67.422 67.352 67.599 67.292 67.287 67.469 70.362 70.054 69.044 66.864 66.792 68.334 72.032 69.712 72.517 72.592 69.359 69.594 71.292 71.372 70.142 69.292 68.669 67.882 68.432 69.894 71.329 69.999 70.279 69.179 73.392 68.034 70.727 70.487 69.347 69.337 70.629 69.794 72.617 68.834 71.182 69.592 67.554 67.452 73.779 68.562 72.377 65.759 70.402 73.277 69.927 65.817 67.137 64.817 69.162 70.854 71.299 75.892 68.614 67.254 69.547 70.289 70.879 68.367 64.499 65.362 64.564 65.062 66.224 64.819 68.027 66.822 65.112 63.532 64.009 63.489 63.342 63.269 63.879 65.072 69.277 68.387 65.989 65.729 67.277 68.967 66.207 63.817 62.857 63.227 62.932 66.117 66.014 65.509 66.304 65.987 67.029 66.899 65.614 67.014 65.139 65.154 65.589 63.819 63.662 63.189 64.089 64.502 65.974 63.642 64.079 65.887 68.637 65.677 66.042 66.502 67.594 65.349 67.372 68.699 65.572 65.577 64.447 67.474 67.769 64.389 64.972 65.999 66.472 65.917 64.447 65.122 64.432 64.869 65.996 65.841 66.051 71.694 65.816 64.886 66.849 67.574 70.264 67.239 67.779 74.439 68.599 70.276 67.756 68.221 70.096 69.451 74.499 72.879 71.361 72.159 68.139 70.871 72.079 67.916 66.989 67.286 68.779 69.001 67.916 67.154 67.429 67.639 71.741 74.706 74.569 72.921 69.901 70.621 67.691 67.714 67.464 67.574 69.349 67.736 69.799 67.559 67.454 67.431 67.359 67.246 67.301 67.876 68.311 67.759 67.806 68.814 71.056 68.664 68.559 68.844 68.544 72.291 71.949 66.961 66.791 66.809 66.836 66.816 67.021 67.689 69.711 68.041 66.546 66.424 67.921 68.339 69.279 67.224 67.324 70.876 70.089 72.784 72.581 72.209 70.656 65.929 65.731 65.714 67.069 65.786 65.451 65.711 66.181 65.246 65.286 65.289 65.319 65.276 65.284 66.126 65.231 65.636 65.586 65.664 65.121 65.189 65.839 69.871 67.191 65.516 65.574 65.714 70.131 72.254 71.231 65.491 65.574 67.351 67.391 65.701 65.829 65.936
68.789 68.799 68.817 69.579 70.834 71.004 71.854 71.939 70.389 69.452 69.477 69.509 69.494 69.512 69.784 70.432 69.449 69.484 71.397 74.009 72.217 72.119 71.284 69.842 70.869 70.887 70.529 71.279 70.782 72.444 73.062 73.572 73.972 75.889 77.882 79.134 76.342 73.634 70.247 70.439 70.414 70.404 70.447 70.469 70.524 70.739 72.787 74.029 72.119 71.769 71.579 71.147 71.484 71.119 73.174 72.329 71.759 71.824 71.899 71.939 71.984 71.897 72.444 77.442 79.429 80.302 78.867 75.357 72.744 72.464 72.384 72.782 73.442 74.275 73.069 72.668 72.638 73.414 73.934 76.336 76.67 75.541 75.481 74.797 73.108 72.942 72.952 74.332 76.399 75.042 73.424 72.954 72.959 72.942 73.349 73.734 74.402 73.904 73.449 72.944 72.989 73.152 77.677 80.449 81.772 80.647 78.244 73.134 73.004 73.054 72.502 72.622 72.464 73.004 72.614 72.584 72.374 74.032 78.344 79.264 80.002 78.204 74.799 73.357 73.059 71.532 71.084 70.984 70.924 70.824 70.734 71.612 72.322 70.504 73.182 74.622 75.567 73.879 73.122 72.554 70.674 70.687 70.747 70.877 70.882 70.742 71.044 70.637 70.962 70.059 70.569 69.429 69.682 70.029 72.944 69.692 75.059 70.929 69.867 73.684 75.102 71.534 69.269 71.427 71.692 70.332 70.809 71.957 72.189 70.427 69.197 67.574 67.502 67.452 67.377 67.274 68.262 67.169 70.547 69.744 66.942 66.864 66.767 69.659 71.922 70.847 70.847 70.692 69.254 75.129 68.609 71.162 67.814 68.424 68.172 67.619 70.187 70.109 70.039 68.854 70.397 74.042 69.439 68.107 68.217 69.294 67.047 72.762 67.257 68.212 66.232 69.549 69.054 67.999 66.387 67.544 67.934 69.327 67.797 69.137 65.872 69.494 67.222 66.659 67.777 67.829 68.007 69.837 76.429 67.889 68.837 68.657 64.482 69.232 67.682 69.019 68.469 66.154 65.847 64.289 66.094 64.572 66.192 65.637 66.639 64.612 64.304 64.159 63.892 63.617 63.529 63.242 63.507 65.569 65.714 65.187 67.159 65.032 62.939 62.882 62.964 63.842 65.027 63.587 64.627 66.682 68.767 67.169 68.257 69.329 68.082 62.969 63.552 66.254 65.332 63.812 63.364 64.364 64.612 67.344 67.114 69.542 70.754 65.862 65.499 64.339 65.182 69.502 65.822 64.482 68.439 66.139 65.682 66.637 68.314 67.557 68.352 65.134 64.567 64.727 65.444 65.662 65.559 64.929 66.132 65.536 68.794 67.899 67.384 70.834 68.999 66.524 67.246 68.209 68.589 68.694 70.001 66.621 66.896 67.299 69.336 70.496 72.699 71.994 72.706 70.634 76.371 71.256 68.204 67.416 67.269 67.031 67.144 67.364 68.139 69.144 68.041 67.871 68.896 74.226 75.489 76.051 74.721 72.911 69.176 68.489 68.454 67.926 69.429 67.811 67.856 68.599 67.746 67.689 67.519 69.241 67.386 67.481 68.444 67.804 67.844 69.309 72.509 74.416 72.709 68.416 67.869 68.976 69.679 68.374 66.946 67.721 66.839 66.824 66.839 66.841 66.894 67.249 69.719 68.171 67.471 66.619 69.569 67.449 66.604 66.409 69.056 72.019 73.574 73.764 73.434 72.821 70.679 66.951 66.104 67.749 66.944 66.636 65.936 66.566 65.659 65.399 65.354 65.349 65.299 65.324 65.436 65.431 65.854 65.461 65.904 66.064 66.609 70.916 72.181 70.754 66.116 65.566 66.606 68.256 70.129 67.241 65.124 65.594 67.256 66.686 65.866 65.949 66.004
69.619 68.747 69.017 68.712 68.872 69.909 72.152 74.302 73.427 70.439 69.467 69.382 70.489 72.224 73.082 74.512 72.919 71.602 71.742 69.684 73.992 71.192 70.519 69.459 69.507 69.532 69.609 69.794 69.719 69.967 72.469 72.654 70.739 73.854 76.619 79.554 77.534 75.694 71.287 70.329 70.399 70.422 70.462 70.449 70.452 70.604 70.812 71.437 71.502 71.112 71.602 71.169 71.159 71.069 71.484 72.942 71.797 71.707 71.807 71.872 71.907 71.917 72.117 75.129 79.262 81.264 80.032 78.359 73.079 72.414 73.737 74.187 73.514 72.532 72.498 72.541 72.732 73.881 75.492 73.732 74.237 74.417 74.647 75.141 73.948 73.38 75.372 76.277 74.209 73.012 72.887 73.067 73.187 73.824 74.367 73.409 73.054 73.012 72.904 72.929 73.057 73.122 75.084 79.574 81.392 81.372 79.449 75.569 72.619 73.232 72.552 73.514 72.509 72.602 72.604 72.752 72.562 73.019 77.412 78.119 80.347 79.339 76.009 71.942 71.764 71.342 71.292 70.979 70.929 70.804 70.707 70.819 70.962 70.867 73.239 72.074 71.912 71.627 71.557 71.667 70.642 70.787 70.769 71.622 71.424 70.787 71.027 70.792 70.487 70.087 69.252 69.872 70.254 70.952 69.742 71.799 71.972 69.184 69.674 72.264 72.254 69.714 68.747 73.202 73.969 73.104 72.287 70.717 73.734 70.824 68.897 68.707 67.679 68.267 68.497 67.377 68.087 67.244 67.244 68.184 67.012 66.937 68.917 67.324 67.812 70.807 72.649 69.262 67.127 70.537 70.517 69.724 68.437 67.712 68.134 69.834 69.902 72.202 73.592 70.689 70.852 70.064 72.942 67.802 73.119 69.127 68.797 72.084 71.689 71.374 66.097 65.287 68.782 69.364 68.297 67.964 70.417 73.584 70.627 68.377 69.017 67.474 72.709 67.604 69.452 71.967 68.172 67.417 65.104 65.837 71.609 67.367 70.462 68.272 69.584 67.579 68.777 64.684 65.472 65.464 68.239 66.074 70.364 64.247 66.852 67.772 65.779 63.957 63.559 64.019 63.899 63.344 64.607 65.359 63.294 64.524 67.289 65.384 64.179 63.577 63.827 66.372 66.354 66.559 64.487 64.899 70.904 68.577 66.712 65.232 73.147 64.989 68.927 71.089 64.637 64.132 65.452 64.972 65.332 71.059 65.629 65.754 63.852 68.047 67.824 65.104 65.124 69.932 69.234 68.274 66.909 65.812 64.894 70.379 65.487 67.837 65.717 64.877 68.129 67.269 66.912 66.732 66.174 65.772 66.897 68.264 67.229 69.461 70.106 70.521 68.346 68.691 67.589 68.856 67.396 68.284 67.359 70.856 67.716 70.566 70.131 69.371 72.951 72.384 72.759 72.024 70.754 70.561 68.459 67.004 67.056 67.099 67.126 67.159 67.811 68.611 69.531 68.286 71.926 75.099 76.334 75.369 74.071 73.881 70.016 69.021 68.506 69.154 68.654 67.766 67.859 68.054 67.626 68.191 69.086 68.919 67.559 68.249 67.886 68.099 68.984 73.181 75.136 76.054 75.364 73.176 70.859 70.569 69.321 71.471 75.921 73.859 66.879 66.876 66.864 66.836 66.824 67.584 68.514 69.541 67.371 69.231 66.761 66.111 66.099 68.004 68.796 71.061 73.201 74.376 75.004 74.034 72.559 69.224 66.999 66.496 66.564 67.004 66.799 66.169 66.364 65.699 65.511 65.354 65.296 65.216 65.389 65.904 65.171 66.004 66.346 67.896 71.446 72.639 73.739 72.854 69.486 67.619 67.101 67.559 67.989 65.819 65.556 65.946 66.214 66.676 66.909 66.036 66.069
71.027 69.384 69.697 68.684 68.734 68.884 69.957 73.732 71.539 72.312 71.342 71.192 72.242 73.779 76.122 75.882 74.847 72.407 72.537 73.852 73.207 73.257 71.274 69.724 69.399 69.432 69.467 69.527 69.612 69.727 69.934 70.344 71.277 71.369 74.054 77.042 78.244 76.999 75.079 70.474 70.364 70.407 70.444 70.459 70.464 70.502 70.652 70.922 71.694 71.252 72.327 71.384 71.149 71.109 71.049 71.529 73.077 71.704 71.737 71.777 71.882 71.957 71.947 72.039 76.564 79.512 80.007 79.809 76.089 72.969 74.332 73.534 72.455 73.545 73.933 72.995 73.862 74.284 75.642 74.539 73.612 75.327 74.808 73.483 74.496 75.8 76.079 75.017 74.137 72.979 73.507 73.989 74.174 73.609 73.079 72.912 72.909 73.102 73.259 73.629 73.984 74.109 73.144 77.762 80.732 81.664 80.309 77.762 73.672 73.209 72.822 72.644 72.692 72.489 72.889 72.692 72.737 73.519 74.722 78.969 79.324 80.079 78.057 73.379 71.872 72.787 72.337 71.047 71.667 71.599 71.604 71.239 70.907 70.769 70.802 72.549 73.119 72.222 70.864 71.742 71.862 72.282 72.524 76.019 73.784 71.022 70.934 70.829 70.924 70.389 70.069 70.092 71.927 72.502 70.629 70.537 70.334 69.689 69.604 69.669 70.522 74.924 75.499 73.044 78.252 72.864 70.407 71.847 74.567 69.612 67.917 69.014 67.852 67.844 67.672 68.847 70.707 67.594 67.764 68.289 67.154 68.374 73.524 70.289 67.212 70.054 69.087 68.929 68.439 76.499 71.437 72.299 70.449 68.987 68.349 67.709 71.602 69.749 68.634 70.997 70.834 66.977 67.067 68.384 70.484 68.314 71.467 72.774 71.327 68.632 66.429 65.444 66.419 69.987 68.782 69.254 69.294 71.904 69.904 65.794 69.507 67.892 71.992 68.174 66.504 69.162 70.749 72.824 68.444 67.909 68.857 70.214 75.864 70.034 69.147 67.944 66.502 67.559 64.834 67.184 67.034 69.572 77.074 65.334 64.979 65.804 64.287 63.587 63.664 64.059 63.469 63.939 64.677 65.729 66.267 64.869 69.189 69.452 64.589 63.942 66.837 65.387 63.647 64.347 67.024 66.122 67.999 65.429 63.597 65.519 64.142 67.199 70.539 66.574 65.269 66.324 66.894 67.449 64.362 69.237 67.447 64.262 65.644 67.119 66.517 69.784 67.062 68.419 72.859 73.427 74.979 69.839 64.854 66.739 68.407 69.757 66.107 67.254 67.902 70.519 70.472 69.587 66.002 65.172 67.564 70.921 67.144 68.966 65.074 70.421 67.489 65.954 65.436 66.216 68.101 66.511 69.071 72.356 71.651 71.639 70.321 72.751 71.039 70.799 69.879 73.104 73.051 70.714 68.864 67.581 67.169 67.159 67.194 67.204 67.421 67.926 68.904 69.429 70.994 74.361 75.341 73.984 69.484 70.489 67.831 68.821 69.729 69.251 67.846 67.761 67.721 67.726 67.656 67.601 70.211 70.849 68.039 68.336 67.809 67.911 70.986 74.739 76.386 77.019 76.154 74.596 72.841 71.381 71.716 73.614 74.966 75.721 68.986 66.876 66.874 66.861 66.849 67.379 69.034 68.579 67.449 67.834 67.544 66.189 66.171 66.354 68.841 71.021 73.324 72.999 74.626 74.931 73.704 71.886 67.401 66.004 65.854 65.686 65.736 65.829 65.579 66.579 65.631 65.334 65.281 65.334 65.286 65.266 66.264 70.059 70.489 71.736 73.379 74.111 73.949 73.669 72.379 70.461 67.924 66.789 66.299 66.084 66.039 66.029 66.024 66.199 66.671 67.019 66.421
70.807 71.999 70.304 68.594 69.444 69.307 71.554 72.132 71.532 70.689 70.954 70.797 71.349 71.604 73.792 72.562 70.699 71.342 70.887 72.337 71.859 69.679 72.297 71.992 69.914 69.872 69.544 70.142 69.774 69.909 70.717 71.434 70.799 70.519 73.529 75.944 77.499 78.097 76.477 73.709 70.199 70.362 70.424 70.452 70.457 70.487 70.587 70.827 71.684 71.394 71.274 71.342 71.117 71.129 71.059 71.039 72.427 72.532 71.717 71.744 71.857 71.934 71.989 71.889 73.107 77.792 78.887 80.284 79.094 76.102 72.254 72.857 73.093 74.745 74.373 73.898 73.796 73.214 73.412 73.551 72.941 73.34 73.285 74.038 73.85 76.098 75.939 73.947 73.657 74.547 74.262 73.734 72.814 72.804 72.877 72.872 72.899 73.564 74.062 73.677 73.279 73.332 72.707 75.092 79.447 81.667 81.607 79.279 74.669 72.639 73.337 73.334 74.294 72.542 72.864 72.979 72.702 72.884 72.319 76.352 77.999 80.012 78.619 75.342 73.987 74.494 74.187 71.569 72.124 71.279 70.802 70.712 70.662 70.617 70.659 71.147 72.284 73.667 73.852 74.437 73.717 74.959 74.837 73.379 71.657 70.869 70.742 70.617 70.657 70.677 71.354 74.619 70.754 73.069 73.197 69.697 68.887 69.864 70.444 72.972 70.524 74.197 71.092 77.062 71.782 74.937 70.579 71.447 70.822 72.639 68.082 69.909 69.397 67.932 67.859 67.749 72.454 67.622 70.894 70.739 67.739 67.592 71.077 71.639 70.959 71.262 70.612 71.744 69.649 70.129 74.899 67.672 71.444 71.269 70.577 70.257 68.924 70.804 69.829 67.907 66.892 67.682 68.967 70.692 70.942 68.394 68.482 67.257 68.907 69.302 70.694 68.267 68.344 68.959 69.857 69.034 72.064 68.217 67.897 65.354 72.522 71.157 68.919 69.807 68.364 73.219 72.414 76.039 69.872 73.829 67.807 68.654 68.042 71.982 68.022 69.937 66.052 64.872 64.394 67.267 66.964 66.942 66.059 63.832 69.964 69.762 74.112 68.917 64.599 63.657 68.607 64.592 66.459 67.729 67.634 68.574 65.854 71.172 63.749 64.522 65.379 70.789 67.207 67.939 64.174 66.189 67.199 67.392 65.419 74.237 74.599 70.572 64.804 66.244 64.599 65.237 66.799 66.469 63.897 68.619 64.892 68.784 68.769 66.332 69.767 70.002 67.384 65.594 68.244 71.112 66.099 68.349 69.024 67.577 65.224 66.567 65.992 66.019 68.239 69.409 65.569 70.579 64.907 64.422 69.004 68.294 66.481 65.224 71.276 68.866 66.779 65.579 67.281 66.401 65.871 68.569 68.399 72.401 70.546 70.964 69.056 71.314 69.679 68.481 70.384 74.879 70.474 72.176 70.056 69.166 67.969 67.579 67.259 67.966 68.321 68.276 70.064 72.969 69.764 70.159 73.694 70.909 67.886 67.816 67.736 69.091 69.444 68.094 68.331 68.326 67.806 67.804 67.684 67.644 71.539 69.034 68.306 68.031 68.004 71.166 74.436 76.091 77.346 76.356 75.061 73.316 71.724 69.136 70.229 76.456 77.139 74.294 72.879 67.289 66.879 66.914 66.866 66.864 69.216 69.296 69.219 66.734 66.354 66.281 66.196 66.169 66.786 69.011 68.714 68.636 73.184 74.636 74.874 73.466 72.734 67.654 66.099 66.054 66.634 66.491 65.689 66.049 65.944 65.354 65.301 66.454 67.494 65.391 68.776 72.726 72.144 73.281 74.254 73.654 72.829 71.669 72.389 69.231 67.911 66.046 67.164 66.799 66.074 66.086 66.094 66.121 66.894 67.941 68.066
