ncols 385
nrows 31
xllcorner    526050
yllcorner    186210
cellsize     2
NODATA_value -9999
123.076 124.343 123.928 126.521 129.136 130.041 127.581 128.213 127.333 126.146 124.953 123.561 122.638 123.063 122.551 122.711 122.753 123.268 123.648 123.513 123.793 125.808 127.963 127.971 128.201 126.176 127.661 127.916 127.633 126.616 124.413 124.221 124.731 125.506 127.868 125.133 123.838 125.048 124.403 125.613 124.563 125.173 125.518 125.071 125.176 125.368 125.623 125.848 126.158 126.296 126.478 126.566 126.776 127.371 128.098 128.946 129.751 130.478 130.996 131.536 131.863 132.128 132.083 131.986 131.988 132.056 132.136 132.263 132.391 132.446 132.968 135.098 135.368 134.373 138.108 135.491 135.178 138.346 135.528 137.433 136.853 138.588 139.411 139.696 139.476 139.648 136.913 140.338 141.243 142.851 139.903 140.353 137.688 137.583 133.591 133.601 133.528 133.593 133.626 133.538 133.383 133.326 133.241 133.218 133.291 133.313 133.356 133.383 133.351 133.356 133.343 133.361 133.393 133.418 133.431 133.443 133.471 133.466 133.526 133.558 133.568 133.606 133.631 133.631 133.616 133.576 133.571 133.486 133.436 133.361 133.501 136.773 136.511 137.903 136.846 135.993 136.063 135.836 137.033 133.306 133.096 133.206 132.591 132.241 131.916 131.561 131.218 130.983 130.558 130.386 129.833 131.773 132.918 132.916 137.123 144.313 146.461 146.803 146.406 146.426 145.756 145.776 145.701 146.128 147.381 147.491 146.531 145.706 138.978 141.393 145.583 145.876 146.681 146.713 146.018 142.09 130.415 129.745 129.748 129.715 131.495 132 130.885 131.29 132.628 133.628 134.253 133.258 129.685 132.503 128.898 130.62 129.175 128.17 128.338 130.36 128.663 129.29 129.818 127.238 127.218 129.738 129.478 126.613 125.775 128.245 128.183 126.038 128.545 124.728 127.625 128.308 127.62 125.728 125.025 130.375 131.693 128.375 123.743 123.693 120.98 121.17 123.78 118.398 118.513 124.028 123.093 127.055 122.478 122.143 130.013 126.145 124.095 122.208 125.148 120.923 122.955 123.63 120.213 120.195 119.595 120.58 120.515 122.998 118.983 118.17 119.683 118.498 119.668 121.223 123.43 121.913 121.718 121.348 120.235 117.82 118.405 118.613 119.068 117.753 117.635 117.278 116.973 116.663 116.74 119.643 117.54 121.26 120.93 121.128 116.565 115.768 115.583 115.525 115.925 115.725 115.923 116.093 115.85 115.82 115.573 115.283 115.155 115.143 114.803 114.703 121.32 117.318 119.318 119.643 117.063 122.743 122.3 116.655 116.26 117.82 118.35 114.758 117.208 118.133 119.208 115.605 117.883 117.388 119.508 112.358 115.155 114.065 115.903 116.41 114.093 113.043 117.343 115.175 113.883 112.43 109.388 110.175 114.883 115.835 114.48 113.145 113.553 111.543 111.748 115.945 112.933 111.005 108.623 108.825 111.068 109.945 112.348 108.56 107.833 107.695 106.86 107.735 106.005 104.18 104.075 103.955 103.89 103.795 103.673 103.465 103.395 103.31 103.305 103.223 103.158 103.095 103.06 102.983 102.875 102.768 102.703 102.638 102.555 102.5 102.438 102.38 102.26 102.185 102.153 102.085 102.04 102.07 102.455 102.188 102.643 101.865 102.958 101.718 101.573 101.813 101.548 101.495 101.768 105.093 106.955 102.303 105.878 106.33 103.468
123.181 123.086 123.063 124.061 127.153 126.691 123.836 128.043 127.163 125.043 124.263 122.928 122.986 122.741 122.991 122.568 123.026 123.353 122.766 123.001 123.083 123.531 128.431 127.853 128.138 127.531 125.223 123.921 126.706 126.638 126.031 124.638 124.636 124.268 126.011 123.753 123.591 123.853 124.373 124.576 124.703 124.633 124.728 124.816 124.951 125.171 125.393 125.546 125.976 126.108 126.223 126.323 126.516 127.093 127.928 128.711 129.521 130.293 130.856 131.436 131.846 131.988 131.936 131.921 131.978 132.048 132.153 132.271 132.356 132.418 132.853 134.423 137.796 137.343 137.351 142.371 135.978 141.288 141.988 139.161 138.383 138.611 138.726 140.798 137.478 135.988 136.473 140.591 139.833 141.943 141.683 139.378 135.418 136.476 136.683 133.631 133.633 133.803 133.908 133.966 133.701 133.541 133.363 133.283 133.221 133.218 133.176 133.263 133.351 133.358 133.368 133.361 133.351 133.378 133.391 133.383 133.468 133.533 133.558 133.616 133.583 133.598 133.636 133.618 133.581 133.593 133.578 133.518 133.416 133.306 133.978 135.436 137.006 133.773 134.551 137.396 137.201 136.441 136.183 133.883 132.963 132.988 134.203 132.281 131.931 131.543 131.211 130.968 130.498 130.208 129.861 131.973 132.973 132.896 137.163 144.691 146.491 146.798 146.751 147.061 145.826 145.868 145.766 146.101 147.266 147.808 146.521 143.606 142.808 143.908 146.588 146.853 146.731 146.783 146.003 143.528 129.763 129.745 130.478 130.173 130.418 130.895 133.193 131.153 132.928 127.793 129.728 127.023 126.678 133.4 134.823 132.295 130.155 127.405 128.848 129.635 128.413 127.738 129.645 128.49 127.273 127.595 129.723 125.055 125.093 125.748 124.958 127.255 127.723 129.74 131.355 127.655 126.805 125.775 125.878 124.958 130.865 129.08 128.405 125.13 122.93 124.68 118.708 118.95 121.528 124.01 125.313 127.553 133.843 127.048 129.588 126.4 120.878 121.043 124.733 120.323 123.22 125.77 123.355 121.543 119.483 121.938 119.71 121.73 122.775 125.363 120.543 123.658 121.445 118.248 120.043 121.215 120.948 120.775 117.818 118.218 119.008 118.23 117.663 117.818 117.7 117.61 117.075 116.658 116.695 117.72 120.543 116.923 121.695 119.063 116.395 115.883 115.795 115.803 116.108 115.935 115.915 115.85 115.765 115.788 115.943 116.1 115.79 115.425 114.52 114.398 119.98 119.398 118.335 116.368 114.183 116.063 119.268 118.403 117.49 118.178 119.415 116.04 118.185 117.465 118.273 115.478 113.678 116.165 114.895 112.748 117.02 115.613 116.628 119.583 115.543 115.65 115.143 115.98 114.9 111.558 116.88 113.27 115.623 117.97 111.623 115.255 111.738 111.66 109.983 107.21 113.618 108.365 108.088 105.89 108.97 109.988 109.05 109.51 111.68 111.368 110.193 107.9 105.775 105.093 104.103 103.975 103.908 103.853 103.745 103.705 103.535 103.425 103.343 103.265 103.235 103.175 103.103 103.015 102.973 102.908 102.808 102.723 102.658 102.59 102.493 102.435 102.378 102.268 102.243 102.165 102.12 102.05 102.3 102.348 102.42 101.965 103.64 102.06 102.188 102.23 101.655 102.228 104.18 103.2 104.153 102.643 102.83 102.765 102.03
123.591 123.198 122.646 122.318 127.296 126.761 123.508 125.043 124.151 122.273 124.261 121.756 121.841 121.796 121.918 122.108 122.261 122.698 122.736 122.973 122.433 125.873 126.391 128.963 129.613 129.906 127.806 125.206 128.221 124.823 123.153 123.891 124.068 124.101 124.116 123.718 123.406 123.733 124.071 124.151 124.113 124.158 124.326 124.518 124.693 124.921 125.078 125.301 125.733 125.946 126.006 126.091 126.358 126.986 127.813 128.573 129.358 130.098 130.706 131.341 131.771 131.878 131.836 131.898 131.986 132.023 132.141 132.246 132.278 132.381 133.078 136.591 136.306 138.943 140.991 142.116 141.726 139.781 141.926 138.413 138.416 138.631 139.263 137.921 135.418 135.836 135.911 136.618 141.586 141.578 136.783 136.448 136.766 135.011 133.768 133.678 133.686 133.893 134.203 134.508 135.328 134.278 133.943 133.566 133.363 133.281 133.228 133.228 133.231 133.311 133.348 133.366 133.396 133.378 133.393 133.486 133.501 133.536 133.576 133.591 133.666 133.681 133.626 133.601 133.578 133.553 133.531 133.483 133.413 133.346 134.308 134.213 136.423 135.148 136.453 139.781 138.073 136.283 135.418 133.071 134.188 134.081 136.401 133.768 133.023 132.781 133.073 133.356 133.068 132.073 132.171 132.778 132.901 132.951 136.256 144.973 146.478 146.801 146.333 145.738 145.713 145.701 145.386 145.856 147.376 147.141 144.901 145.356 145.666 144.431 145.553 146.366 146.741 146.751 145.996 142.418 129.715 129.758 130.045 129.755 129.703 129.925 129.08 134.333 132.228 133.73 131.003 128.19 132.048 138.798 134.468 130.898 131.473 127.573 127.388 127.435 127.533 126.688 128.128 129.833 125.343 124.9 125.375 124.245 124.105 124.08 124.51 125.803 127.625 128.315 131.25 126.635 127.6 126.165 126.818 127.96 125.235 124.855 123.41 131.66 129.593 131.348 128.203 121.28 119.81 126.88 128.448 131.793 129.185 127.758 130.313 125.925 124.29 124.845 123.793 123.06 125.015 124.35 123.275 122.188 122.023 122.903 122.885 124.12 126.565 125.585 127.23 121.333 123.943 122.985 119.508 121.763 119.833 118.58 120.345 118.448 118.74 118.33 117.758 117.85 117.808 117.815 117.495 116.755 116.678 116.67 116.648 116.218 116.083 116.685 116.108 116.013 116.068 115.82 115.873 115.563 115.978 115.615 115.46 115.62 115.233 115.265 115.908 115.86 115.525 114.745 114.813 118.268 118.41 117.84 114.978 115.86 116.913 114.508 117.235 115.04 117.413 117.465 116.013 118.608 115.75 115.795 115.053 117.998 114.368 114.6 116.69 115.118 118.168 115.858 112.275 116.175 115.47 114.495 114.453 114.225 113.268 114.803 114.855 113.105 111.423 111.455 109.598 112.455 110.053 110.368 111.463 106.735 108.898 108.13 108.083 108.583 114.103 106.068 106.57 109.845 109.208 108.948 108.113 107.398 104.138 104.03 103.95 103.933 103.883 103.79 103.713 103.61 103.473 103.385 103.305 103.243 103.173 103.108 103.088 102.998 102.908 102.818 102.71 102.663 102.575 102.518 102.45 102.355 102.293 102.215 102.185 102.128 102.133 102.49 102.475 102.365 101.9 101.883 101.715 102.373 101.56 101.618 102.143 104.165 104.443 108.353 105.678 102.583 102.538
123.486 126.241 124.066 125.183 124.436 125.136 123.308 122.526 124.988 124.776 122.786 120.916 120.981 121.756 121.556 121.526 121.603 122.118 122.713 122.721 122.316 124.141 125.223 123.946 122.463 127.433 127.923 126.931 127.176 123.866 124.143 123.218 123.513 123.701 123.723 123.248 123.171 123.273 123.483 123.566 123.736 123.901 124.076 124.276 124.561 124.728 124.928 125.163 125.446 125.561 125.658 125.763 126.103 126.846 127.738 128.553 129.321 130.033 130.721 131.268 131.683 131.816 131.826 131.911 131.958 132.048 132.153 132.148 132.238 133.761 132.723 133.523 140.211 136.498 138.441 137.278 139.291 139.036 138.938 137.078 135.186 135.188 135.211 135.251 135.273 135.313 135.423 136.301 137.096 139.071 136.101 137.536 136.733 135.418 134.531 134.301 133.743 133.906 134.973 136.181 137.608 136.688 136.171 134.376 135.223 136.838 134.076 133.313 133.291 133.261 133.251 133.288 133.363 133.376 133.436 133.506 133.516 133.546 133.603 133.728 133.716 133.951 133.641 133.693 133.631 133.503 133.486 133.468 133.411 133.356 133.308 133.416 134.173 137.456 139.153 142.016 141.233 136.543 135.146 133.058 133.946 135.443 135.456 133.001 132.966 132.933 132.988 133.731 132.821 132.078 132.873 132.858 132.888 132.933 137.603 143.596 146.526 146.793 146.313 145.946 141.628 140.368 140.206 142.558 147.433 147.961 143.646 136.403 134.733 134.596 140.436 145.788 146.733 146.783 145.923 139.665 129.893 129.718 129.775 130.155 130.405 133.003 131.85 128.17 134.723 131.398 129.343 131.138 130.405 128.58 136.555 140.868 140.108 127.253 126.87 128.735 129.363 127.393 128.148 125.988 124.545 124.443 125.328 124.62 124.043 124.715 127.135 128.893 127.978 127.365 127.038 124.313 126.36 125.04 126.255 124.078 126.423 128.535 128.075 129.748 132.315 128.618 126.678 123.208 120.995 129.765 130.265 132.15 127.29 124.353 130.778 125.078 124.43 121.16 120.465 124.853 126.378 124.335 124.828 122.355 123.478 124.153 124.123 126.605 123.338 125.513 130.055 124.818 124.433 122.355 122.31 122.72 121.34 118.23 118.878 119.038 118.823 118.4 118.15 117.923 117.803 117.753 117.403 116.815 116.54 116.633 116.365 116.165 116.163 116.16 116.085 116.675 116.045 116.048 115.69 115.92 116 115.433 115.535 115.315 115.41 115.04 117.978 116.225 116.763 117.08 115.05 116.263 114.253 114.968 115.635 115.933 116.9 114.825 113.975 114.533 115.08 118.565 114.863 117.058 118.195 115.995 116.245 117.9 112.605 117.073 116.333 115.528 118.868 114.413 112.975 114.84 117.545 118.788 112.748 117.745 114.34 119.145 120.415 115.175 114.95 112.665 112.858 112.558 112.318 109.76 108.873 108.235 107.498 108.768 109.318 112.66 107.898 108.875 109.423 106.833 110.383 107.818 107.443 108.853 104.21 104.108 104.045 103.958 103.903 103.838 103.778 103.688 103.593 103.495 103.41 103.285 103.245 103.183 103.178 103.098 103.023 102.875 102.803 102.743 102.655 102.595 102.508 102.413 102.33 102.29 102.238 102.163 102.13 102.128 102.3 103.258 102.478 102.24 102.298 101.923 101.73 101.788 103.165 105.413 103.523 106.265 107.675 102.068 102.943
123.083 125.578 122.751 123.528 124.846 123.743 122.283 124.126 124.911 124.921 123.291 121.093 120.656 121.346 120.943 121.318 121.128 121.726 122.051 123.356 123.893 124.291 123.036 125.043 123.021 125.246 128.343 127.856 128.161 123.171 123.791 123.531 123.083 122.811 122.958 122.686 122.756 122.948 123.158 123.396 123.621 123.813 124.063 124.263 124.493 124.718 124.913 125.143 125.306 125.286 125.303 125.511 125.948 126.806 127.756 128.628 129.401 130.053 130.753 131.271 131.643 131.723 131.796 131.898 131.946 132.058 132.076 132.143 133.038 134.906 135.163 135.418 138.046 138.316 137.868 136.181 137.861 136.368 136.256 135.688 135.098 135.151 135.931 135.161 135.196 135.226 135.251 137.806 138.661 138.723 137.168 136.286 136.743 137.743 135.063 133.838 133.766 133.936 135.553 136.871 138.161 139.151 135.973 138.433 138.806 138.581 139.296 133.808 133.506 133.356 133.353 133.331 133.331 133.371 133.426 133.476 133.493 133.546 133.583 133.593 133.618 133.658 133.601 133.653 133.538 133.498 133.466 133.441 133.358 133.366 133.243 133.316 134.663 136.813 142.223 143.101 142.328 138.983 133.966 133.016 133.188 133.116 133.781 133.018 132.981 133.056 133.356 133.266 132.348 132.776 132.878 132.851 132.903 132.918 138.283 144.658 146.513 146.781 146.301 145.598 140.306 142.158 140.003 144.983 146.246 146.061 145.081 138.193 132.088 132.306 141.881 145.843 146.748 146.753 145.886 141.343 129.84 129.748 130.105 130.523 129.733 133.118 129.82 132.415 127.888 130.023 127.503 127.405 130.78 138.568 131.345 130.59 131.8 127.3 126.16 127.66 129.383 126.138 126.308 125.9 124.485 124.763 124.59 124.355 124.07 124.238 128.075 127.208 125.173 124.715 124.863 125.323 126.16 125.358 126.868 125.035 123.675 126.083 129.298 131.57 129.23 124.97 122.663 123.75 120.873 122.035 131.715 129.565 129.61 125.143 128.778 125.618 121.91 123.72 121.853 125.985 127.675 128.565 126.928 126.32 121.428 123.448 121.603 131.383 131.615 129.295 125.795 129.62 129.353 128.1 125.29 125.59 122.75 119.91 118.433 118.873 118.953 118.665 118.365 118.383 117.955 117.6 117.358 116.923 116.838 116.495 116.25 116.3 116.205 116.128 116.36 117.358 116.925 116.013 115.783 116.383 115.77 116.52 115.655 115.44 115.328 117.335 117.228 117.543 115.588 117.58 117.28 115.428 114.938 114.863 116.465 116.97 118.698 115.388 114.053 114.293 116.52 118.26 118.425 117.708 118.878 114.56 118.763 120.91 113.635 113.468 116.998 116.035 113.693 114.583 114.713 113.168 116.208 114.5 112.728 113.3 117.673 115.405 117.198 114.253 109.773 111.968 113.653 110.918 112.923 112.19 112.745 110.255 110.315 109.008 111.848 112.108 110.553 112.048 107.748 105.685 108.328 107.503 106.693 105.78 104.85 104.18 104.12 104.045 103.978 103.898 103.845 103.78 103.733 103.635 103.565 103.445 103.348 103.273 103.22 103.185 103.09 102.943 102.878 102.815 102.718 102.62 102.533 102.465 102.403 102.353 102.295 102.245 102.225 102.188 102.25 102.153 102.18 102.218 102.155 101.85 101.7 101.655 102.613 103.783 106.638 105.263 103.36 104.91 103.17
123.176 127.858 124.901 125.261 124.206 125.881 124.246 126.298 121.898 123.078 123.896 120.728 120.076 120.703 120.716 120.956 121.016 121.046 121.013 121.991 122.093 121.526 123.248 123.183 122.568 125.588 125.046 127.296 125.041 123.598 123.796 122.926 122.783 122.258 122.411 122.571 122.661 122.823 123.031 123.278 123.556 123.751 123.986 124.223 124.478 124.608 124.721 124.913 125.113 125.183 125.376 125.563 126.026 126.971 127.901 128.781 129.566 130.113 130.748 131.276 131.603 131.663 131.753 131.853 131.973 132.011 132.043 132.211 132.883 134.561 135.393 135.843 138.178 139.126 140.261 140.866 136.633 135.011 135.076 135.528 135.086 135.143 135.728 135.173 135.178 135.193 135.221 136.863 138.593 138.991 138.326 136.561 138.133 136.253 133.893 133.921 133.826 135.053 137.468 139.168 140.903 140.218 138.216 139.201 142.333 142.733 142.053 135.271 133.943 133.771 133.613 133.471 133.438 133.466 133.508 133.541 133.541 133.566 133.571 133.508 133.476 133.486 133.478 133.493 133.453 133.433 133.413 133.396 133.361 133.348 133.261 133.236 133.328 136.763 141.096 142.236 141.921 138.058 133.828 133.001 133.101 133.171 133.183 133.136 133.988 136.038 138.353 137.603 134.411 133.878 132.868 132.868 132.876 132.953 138.253 145.603 146.608 146.771 146.246 145.761 144.393 144.291 141.873 143.926 145.708 145.686 145.231 141.001 138.018 137.968 141.703 145.963 146.773 146.701 145.878 139.618 130.083 129.758 129.778 129.875 130.008 132.21 134.46 136.533 131.333 132.98 130.543 129.343 129.518 130.86 131.145 133.988 129.793 126.638 126.138 128.038 128.853 126.105 126.238 126.303 124.44 126.508 124.398 127.25 126.948 125.995 128.02 127.72 124.048 125.248 124.593 124.968 127.44 126.778 126.163 124.505 123.268 128.64 126.828 129.72 127.005 123.44 125.038 129.305 125.393 123.463 126.358 127.325 131.523 131.8 124.59 122.218 124.833 126.175 125.748 127.235 126.158 126.318 127.463 127.535 123.403 125.553 123.275 131.638 129.763 130.74 130.69 124.903 124.303 122.038 122.57 124.74 121.308 118.085 118.155 118.265 118.87 118.673 118.065 118.17 118.118 117.375 117.33 117.065 116.738 116.428 116.338 116.313 116.318 116.19 116.183 116.273 116.228 115.948 116.225 116.15 115.725 116.558 116.77 117.283 115.668 118.195 121.145 119.843 117.953 115.755 116.343 116.583 119.53 115.668 114.983 116.195 114.583 115.01 113.638 115.003 117.545 117.923 115.283 120.395 119.278 119.068 118.11 118.548 116.445 114.61 112.415 114.053 114.115 117.423 115.6 114.97 119.89 116.745 118.483 112.735 110.758 114.5 113.07 107.74 108.108 108.353 110.565 111.458 114.555 114.798 114.713 111.235 112.958 109.938 110.41 112.435 110.1 110.418 111.695 109.178 108.188 108.415 108.233 107.605 104.505 104.308 104.24 104.163 104.065 103.993 103.955 103.895 103.843 103.758 103.718 103.6 103.51 103.408 103.308 103.198 103.163 103.06 102.945 102.865 102.775 102.693 102.6 102.538 102.478 102.405 102.35 102.33 102.225 102.18 102.145 102.068 102.055 101.96 101.898 101.69 101.618 101.838 102.875 104.773 104.103 103.813 102.133 103.218 100.743
124.101 123.123 123.873 126.818 124.491 126.163 128.298 125.561 123.788 122.573 124.553 123.608 119.766 119.883 120.273 120.501 120.486 120.496 120.423 120.636 121.591 121.386 120.791 122.156 123.203 124.478 126.361 126.593 123.126 122.518 123.558 121.968 122.016 122.118 122.286 122.448 122.653 122.801 122.993 123.266 123.441 123.726 123.913 124.118 124.308 124.518 124.688 124.906 125.088 125.226 125.471 125.763 126.196 127.083 128.006 128.898 129.656 130.216 130.828 131.281 131.566 131.633 131.721 131.858 131.941 132.011 132.148 133.041 134.836 135.911 135.928 135.123 134.943 135.676 136.526 140.593 136.273 135.236 134.991 135.018 135.051 135.066 135.676 135.148 135.171 135.198 135.231 135.966 138.166 138.828 138.551 137.138 135.321 134.993 133.976 133.893 133.868 134.371 138.196 139.413 140.748 139.828 138.018 139.373 143.711 145.368 141.431 137.538 134.688 134.376 137.663 138.671 133.933 133.618 133.548 133.636 133.671 133.636 133.531 133.476 133.403 133.393 133.391 133.393 133.396 133.383 133.391 133.366 133.328 133.318 133.268 133.196 133.241 133.291 138.083 140.073 137.966 133.923 133.106 132.971 133.006 134.038 133.113 133.116 133.658 134.128 138.283 139.166 136.278 134.648 132.833 132.871 133.118 133.393 135.478 144.888 147.163 146.781 146.293 146.083 146.051 146.058 145.268 146.041 146.013 145.976 145.931 145.788 145.838 145.793 143.791 146.058 146.781 147.923 145.468 137.98 129.923 129.758 129.803 130.74 129.975 131.59 133.978 136.21 134.04 134.875 131.633 128.563 134.108 134.525 129.125 131.07 129.23 126.625 127.788 127.328 126.083 126.105 127.228 129.078 127.87 131.568 133.375 132.983 136.915 135.985 135.79 134.498 125.473 127.48 125.773 125.435 125.808 127.215 125.875 127.613 127.245 127.865 123.388 127.255 124.438 123.83 124.718 125.278 127.555 126.805 124.87 126.348 131.3 127.66 128.67 125.523 123.525 124.89 122.368 124.155 129.693 124.915 129.145 126.213 125.188 124.3 123.675 127.053 124.725 128.955 131.783 124.603 125.088 122.715 119.278 118.238 117.66 117.955 118.208 118.325 118.688 118.835 118.253 118.028 117.783 117.335 117.188 116.875 116.623 116.483 116.46 116.663 117.868 116.4 116.21 116.103 116.013 116.08 116.498 116.565 116.465 116.958 116.54 115.873 116.05 118.815 119.2 118.728 116.145 116.08 115.818 117.925 118.585 116.965 116.3 114.038 114.193 113.703 113.623 115.395 116.185 118.698 116.398 120.068 120.033 121.605 116.405 115.093 115.44 117.128 111.88 114.615 112.658 116.023 113.853 109.92 113.965 116.53 117.92 113.82 113.348 114.113 114.195 111.418 112.28 107.265 108.963 114.033 114.753 114.46 113.233 110.673 107.073 111.815 105.578 110.483 113.425 109.698 111.573 112.95 108.563 108.923 109.068 107.57 104.688 104.49 104.38 104.26 104.198 104.135 104.09 104.02 103.955 103.893 103.828 103.765 103.68 103.54 103.355 103.2 103.153 103.105 103.06 102.93 102.823 102.733 102.688 102.618 102.52 102.438 102.405 102.343 102.238 102.18 102.06 102.055 101.968 101.878 101.778 101.685 101.59 101.688 101.44 103.078 105.058 103.46 102.918 101.77 100.693
125.481 124.551 125.248 125.548 124.883 123.906 125.901 123.691 127.278 124.458 124.123 121.046 120.198 119.701 119.716 119.751 119.756 119.878 120.053 120.171 120.121 120.236 120.298 121.853 121.981 121.753 122.753 126.088 122.106 122.096 121.551 121.646 121.856 122.021 122.181 122.363 122.533 122.756 122.911 123.246 123.488 123.806 123.921 124.098 124.178 124.506 124.788 125.008 125.243 125.593 125.773 125.998 126.448 127.271 128.151 129.023 129.728 130.371 130.898 131.293 131.513 131.616 131.733 132.398 133.966 133.606 134.598 135.021 135.208 135.698 136.643 135.216 137.293 137.338 134.658 134.748 135.031 134.871 134.853 134.911 134.981 135.038 135.078 135.103 135.143 135.196 135.193 135.276 137.101 138.303 137.641 136.721 135.773 135.928 133.966 133.946 133.896 133.948 135.358 136.801 138.003 136.286 138.818 139.583 142.703 141.661 141.623 139.356 136.296 134.258 135.306 136.951 136.083 134.186 133.508 133.618 133.653 133.683 133.626 133.533 133.426 133.281 133.273 133.228 133.243 133.293 133.246 133.306 133.301 133.266 133.208 133.168 133.126 133.141 133.798 134.426 134.633 132.926 132.956 132.948 132.963 133.046 133.036 133.021 133.016 136.698 138.043 135.078 135.256 134.648 132.826 132.838 133.478 133.698 134.548 145.326 146.391 146.471 146.483 146.148 146.536 146.536 141.056 145.971 144.473 145.243 146.543 146.566 144.483 146.548 146.556 143.296 146.713 146.593 145.478 135.563 129.795 129.743 129.74 129.7 129.6 131.285 133.128 137.583 134.058 136.898 131.6 130.943 133.745 128.82 129.108 128.695 127.41 126.67 126.813 128.32 126.92 125.895 126.985 135.818 133.348 137.548 137.55 137.698 136.14 137.738 135.943 135.318 127.978 125.635 126.48 125.973 127.053 127.85 125.088 128.305 129.01 126.183 126.395 127.855 123.728 124.6 123.9 123.338 126.15 126.38 128.405 130.118 131.48 129.885 127.328 127.508 127.538 123.565 124.145 124.475 123.403 125.628 124.7 123.513 124.535 125.175 123.595 123.603 126.508 134.318 132.85 123.81 123.163 123.853 120.433 117.735 117.653 117.66 117.905 118.18 118.445 118.323 117.88 117.773 117.618 117.27 117.013 116.925 116.838 116.603 117.68 117.638 116.545 116.53 116.345 116.165 116.19 116.688 116.198 116.893 116.163 116.223 116.328 115.745 115.575 116.48 117.278 117.273 116.403 115.08 115.658 116.113 116.405 117.288 117.098 116.538 115.415 114.575 113.71 113.675 114.785 116.295 113.548 116.698 118.998 122.46 117.933 114.215 115.08 114.368 112.965 114.895 114.438 118.565 113.755 111.445 115.565 113.035 112.145 112.715 113.32 112.918 111.223 111.03 109.268 110.845 112.99 112.195 111.473 114.205 108.675 111.71 107.115 108.833 108.208 110.055 108.995 105.538 111 109.588 107 108.535 106.51 104.985 104.898 104.655 104.533 104.44 104.35 104.32 104.273 104.193 104.11 104.033 103.938 103.905 103.885 103.73 103.473 103.21 103.175 103.1 103.083 103.003 102.875 102.815 102.755 102.68 102.565 102.503 102.478 102.398 102.318 102.185 102.13 102.053 101.978 101.93 101.78 101.68 101.583 101.48 101.41 101.975 102.83 102.89 101.638 100.838 100.66
123.286 123.713 125.113 122.663 123.128 121.978 122.921 124.048 122.938 122.421 121.021 122.113 120.441 119.548 119.448 119.453 119.473 119.541 119.673 119.851 119.963 120.103 120.246 120.401 121.528 120.886 122.383 121.946 121.316 121.401 121.488 121.638 121.803 121.941 122.071 122.386 122.503 122.683 123.066 123.273 123.506 123.753 123.918 124.068 124.271 124.668 124.911 125.131 125.433 125.871 126.048 126.376 126.826 127.556 128.361 129.163 129.878 130.533 130.928 131.288 131.521 131.648 131.783 132.176 135.281 136.156 134.871 135.093 135.983 135.341 135.098 135.271 138.201 135.993 134.578 134.758 134.781 134.736 134.761 134.791 134.848 134.923 134.986 135.061 135.118 135.146 135.188 135.183 135.536 135.728 135.216 134.961 134.423 134.143 133.988 133.971 133.968 133.981 134.451 136.391 135.328 137.441 138.146 140.596 139.211 138.586 137.713 136.303 137.191 134.313 134.453 134.906 134.236 134.031 133.578 133.601 133.668 133.663 133.601 133.511 133.446 133.328 133.271 133.188 133.136 133.191 133.221 133.231 133.266 133.211 133.206 133.156 133.118 133.021 132.998 132.983 132.923 132.931 132.903 132.918 132.913 132.901 132.873 132.871 132.861 132.811 133.671 132.753 132.728 132.686 132.733 133.223 133.431 133.338 133.881 144.031 144.116 144.563 142.466 144.063 143.481 144.558 144.641 144.923 144.218 145.541 145.656 143.438 145.471 145.633 145.671 141.461 145.668 145.926 145.441 135.465 129.72 129.703 129.715 129.713 129.785 131.348 130.875 129.988 133.598 130.118 128.79 131.605 131.665 128.358 129.665 129.863 128.178 127.123 128.123 127.97 127.068 126.118 129.388 137.52 135.123 137.148 137.17 137.853 137.045 136.155 135.29 135.47 128.6 125.518 126.208 125.978 125.133 125.793 126.09 126.1 126.965 128.973 128.488 127.815 126.053 127.34 124.72 126.085 125.143 127.93 124.325 127.665 127.383 131.498 129.383 129.243 129.765 125.81 123.028 124.82 123.553 122.488 122.123 120.855 121.018 121.26 127.545 127.375 128.38 126.578 120.44 123.103 123.995 124.095 123.455 117.875 117.865 117.74 117.69 117.905 118.09 118.03 117.84 117.593 117.41 117.283 117.198 117.12 117.005 116.77 116.8 117.105 116.768 116.653 116.395 116.25 116.358 116.3 116.905 117.528 117.103 116.248 116.085 115.905 116.13 115.855 116.618 116.753 116.408 115.595 116.148 115.73 116.018 117.415 117.07 116.09 114.97 113.958 113.825 114.125 114.073 114.335 114.925 114.793 113.963 117.363 114.645 111.995 114.975 114.465 114.04 116.778 115.538 116.325 119.273 118.63 117.635 117.225 116.62 112.14 110.075 110.143 110.825 111.053 110.473 113.208 113.933 115.35 112.515 112.718 111.46 114.778 107.033 111.075 106.973 109.888 112.098 109.048 106.84 108.045 107.195 108.2 107.095 104.978 105.053 104.878 104.663 104.595 104.55 104.513 104.458 104.35 104.248 104.138 104.078 104.06 103.973 103.893 103.695 103.328 103.253 103.128 103.053 102.998 102.945 102.895 102.828 102.733 102.613 102.575 102.51 102.41 102.323 102.21 102.095 102.038 101.973 101.95 101.865 101.723 101.573 101.458 101.315 101.21 101.16 101.008 100.87 100.758 100.625
122.231 122.791 120.801 120.306 121.471 122.303 125.423 124.648 123.268 124.238 121.806 120.026 119.526 119.336 119.366 119.413 119.438 119.483 119.523 119.731 119.916 120.123 120.268 120.463 120.683 120.871 121.136 121.186 121.296 121.318 121.466 121.636 121.823 121.913 122.123 122.381 122.438 122.758 123.033 123.278 123.626 123.783 123.961 124.263 124.548 124.903 125.138 125.446 125.731 126.046 126.371 126.686 127.108 127.778 128.566 129.281 130.008 130.666 131.058 131.318 131.596 131.746 132.403 135.606 135.331 137.231 134.768 135.278 134.776 135.101 134.776 135.786 138.118 135.298 134.841 134.768 134.776 134.896 134.948 134.958 134.968 134.988 135.001 135.001 135.031 135.096 135.153 135.158 135.101 135.011 134.891 134.691 134.406 134.181 134.021 134.016 134.018 134.013 136.731 138.088 137.413 137.741 138.196 140.768 139.621 137.198 135.608 136.228 136.321 134.641 135.926 135.506 134.646 134.108 133.736 133.588 133.748 133.646 133.686 133.503 133.418 134.183 134.173 133.356 133.171 133.046 133.118 133.161 133.231 133.246 133.196 133.123 133.078 133.023 132.966 132.918 132.928 132.888 132.863 132.883 132.888 132.876 132.851 132.853 132.821 132.816 132.723 132.676 132.666 132.593 132.513 132.488 132.453 132.576 132.711 137.106 139.293 135.716 135.958 133.586 132.486 135.691 135.571 134.443 132.213 132.756 134.323 134.181 134.936 135.746 135.401 135.891 137.896 143.311 142.791 133.77 129.755 129.64 129.688 129.668 129.615 133.555 133.9 131.155 132.535 132.94 129.72 131.77 128.665 129.245 129.335 129.405 129.793 127.748 128.365 128.543 127.285 126.2 127.043 135.963 135.978 136.168 136.965 137.99 137.263 136.36 136.873 136.605 131.01 125.57 125.818 126.265 124.375 124.228 125.353 126.683 126.143 127.103 127.095 129.993 129.608 127.748 123.63 126.265 126.445 127.573 125.195 130.598 128.41 129.248 126.955 124.235 124.59 122.35 123.353 121.538 120.993 120.978 120.725 121.148 120.528 120.34 120.728 120.263 120.49 126.345 121.145 120.22 119.933 122.755 118.943 118.183 117.975 117.94 117.86 117.758 117.88 118.038 117.958 117.783 117.59 117.475 117.358 117.29 117.248 117.04 117.035 117.075 117.66 117.24 117.05 116.545 116.443 116.895 117.05 116.813 116.683 116.523 116.28 116.188 115.943 115.79 116.43 116.33 116.345 116.838 116.143 115.88 115.813 116.045 115.145 115.19 114.265 114.308 114.058 113.988 114.048 113.923 113.975 113.543 113.11 113.148 112.418 112.115 113.953 113.585 114.683 112.165 117.078 111.935 118.218 120.178 121.308 120.275 116.66 113.11 110.46 109.775 111.128 108.808 113.27 109.183 114.853 114.628 113.618 113.313 113.133 112.648 112.973 107.938 111.838 110.39 109.36 109.383 110.733 107.793 109.528 108.155 106.495 105.058 105.08 105.135 104.903 104.785 104.77 104.695 104.608 104.488 104.395 104.313 104.22 104.1 104.038 103.915 103.778 103.508 103.288 103.093 103.058 103.025 102.933 102.91 102.835 102.76 102.653 102.575 102.5 102.425 102.348 102.273 102.078 101.94 101.9 101.873 101.918 101.773 101.655 101.62 101.373 101.263 101.125 100.995 100.838 100.745 100.595
123.281 121.488 121.366 120.048 120.046 123.393 120.843 121.683 122.751 122.836 120.446 120.031 119.326 119.318 119.363 119.361 119.403 119.456 119.528 119.711 119.908 120.118 120.308 120.573 120.803 120.906 121.021 121.148 121.253 121.348 121.556 121.768 121.946 121.981 122.183 122.553 122.621 122.781 123.071 123.411 123.748 123.998 124.103 124.288 124.818 125.086 125.438 125.738 126.058 126.231 126.503 126.921 127.346 128.041 128.756 129.436 130.091 130.736 131.176 131.483 131.728 131.816 132.203 134.921 134.801 136.143 136.656 135.848 135.406 135.026 134.711 134.653 136.528 135.293 134.831 134.778 134.963 135.053 135.113 135.108 135.348 135.128 135.123 135.148 135.151 135.178 135.168 135.153 135.111 134.981 134.916 135.068 136.556 134.978 134.138 134.061 134.031 134.011 135.596 138.268 138.113 135.458 135.333 140.731 138.048 135.061 134.573 134.516 134.506 134.393 136.696 140.018 138.751 134.011 133.593 133.561 133.663 133.618 133.548 133.468 134.458 135.941 135.881 134.323 133.506 133.118 135.321 133.066 133.133 133.173 133.153 133.141 133.083 133.026 132.951 132.883 132.883 132.831 132.846 132.833 132.803 132.828 132.808 132.806 132.798 132.761 132.723 132.673 132.656 132.558 132.503 132.423 132.326 132.311 132.251 132.188 132.143 132.173 131.806 131.931 131.616 132.548 132.748 132.251 130.678 130.328 129.726 130.136 129.936 130.686 129.711 129.713 129.758 131.616 130.048 129.848 129.758 129.648 129.66 129.655 129.618 132.783 135.205 135.388 134.385 132.283 129.803 129.998 132.74 130.44 130.683 127.168 129.24 128.978 128.47 128.465 127.323 126.15 126.325 134.94 136.218 136.555 137.055 138.695 138.27 137.328 138.453 137.18 133.08 125.128 125.358 126.758 124.503 124.395 124.323 124.165 127.2 124.465 127.608 127.54 129.288 129.528 124.833 125.313 126.155 129.36 125.708 127.985 129.813 128.113 123.69 123.115 122.03 121.38 121.255 121.108 120.98 120.838 120.715 120.58 120.453 120.308 120.155 120.02 119.88 121.01 119.623 121.768 119.555 119.448 119.29 118.77 118.308 118.165 118.095 117.985 117.908 117.93 118.068 118.043 117.835 117.648 117.533 117.42 117.358 117.19 117.245 117.288 117.53 117.545 117.443 116.863 116.813 116.855 116.773 116.895 116.668 116.593 116.448 116.25 116.045 115.888 115.948 115.763 115.495 115.333 115.263 115.148 115.13 115.733 114.59 114.43 114.283 114.16 113.998 113.868 113.85 113.735 113.563 113.403 113.435 113.27 112.74 112.29 112.645 114.088 115.34 111.368 116.48 115.495 114.09 118.215 121.185 115.39 117.545 113.06 113.46 109.285 107.998 108.008 110.303 109.688 113.17 115.343 115.503 112.62 113.578 113.445 113.24 110.01 111.795 108.375 111.28 109.823 110.473 109.158 109.835 107.528 106.948 105.26 105.133 105.265 105.205 105.103 105.03 104.91 104.82 104.695 104.588 104.49 104.333 104.228 104.105 104 103.843 103.595 103.448 103.188 103.08 103.068 102.943 102.873 102.883 102.778 102.68 102.62 102.475 102.42 102.298 102.21 102.098 101.968 101.9 101.833 101.913 101.793 101.65 101.543 101.305 101.203 101.103 100.928 100.81 100.675 100.533
120.991 119.933 119.631 119.516 119.458 121.441 120.383 120.543 119.788 120.748 121.523 119.268 119.268 119.348 119.338 119.361 119.426 119.443 119.546 119.736 119.908 120.181 120.393 120.623 120.806 120.873 120.971 121.038 121.168 121.316 121.591 121.706 121.828 121.868 122.173 122.526 122.698 122.881 123.203 123.516 123.786 124.131 124.371 124.438 124.908 125.268 125.653 125.951 126.141 126.331 126.618 127.118 127.748 128.446 129.131 129.866 130.426 130.906 131.298 131.641 131.766 131.923 132.528 135.278 135.898 136.106 135.666 134.803 134.306 134.488 135.076 135.021 134.733 134.716 134.731 135.081 135.361 135.531 135.216 135.306 136.761 140.026 135.456 135.223 135.256 135.278 135.258 135.198 135.133 135.086 135.073 135.766 136.766 135.598 134.271 134.116 134.038 134.056 135.383 138.791 138.103 135.886 134.578 136.513 136.293 135.421 134.818 135.166 134.663 135.363 140.431 141.616 142.068 136.958 133.573 133.593 133.656 133.613 133.543 133.478 134.991 135.293 136.478 135.386 133.933 133.191 133.041 132.956 133.051 133.113 133.108 133.141 132.996 132.963 132.883 132.863 132.841 132.781 132.821 132.781 132.761 132.766 132.751 132.758 132.698 132.671 132.651 132.593 132.566 132.471 132.443 132.418 132.336 132.283 132.208 132.116 132.048 131.938 131.836 131.786 131.706 131.623 131.588 131.526 131.393 131.026 131.218 130.853 131.136 130.856 129.731 129.723 129.691 129.741 129.733 129.74 129.838 129.57 129.588 129.623 129.548 130.748 132.02 134.805 134.165 131.723 129.753 128.98 129.27 130.948 129.565 131.568 130.565 128.113 128.495 127.953 127.743 126.12 125.695 134.208 136.013 138.358 137.503 134.248 136.848 133.09 132.348 130.12 128.468 124.8 125.773 127.163 124.493 124.315 124.13 123.903 123.705 123.765 124.83 125.11 123.99 123.725 122.82 122.695 124.415 128.683 130.288 129.043 126.13 127.56 125.283 124.838 121.513 121.34 121.233 121.1 120.94 120.835 120.7 120.525 120.398 120.263 120.185 119.993 119.878 119.688 119.578 119.42 119.313 119.183 119.033 118.833 118.508 118.378 118.248 118.13 118.053 117.92 117.968 118.083 118.08 117.915 117.835 117.69 117.563 117.438 117.45 117.435 117.41 117.37 117.243 117.058 116.985 116.863 116.665 116.588 116.42 116.333 116.203 116.043 115.893 115.765 115.578 115.473 115.34 115.183 115.035 114.9 114.738 114.6 114.455 114.23 114.085 113.968 113.833 113.73 113.585 113.48 113.41 113.295 113.26 113.203 112.98 112.723 113.423 115.068 115.865 115.863 118.39 119.07 114.165 115.125 116.825 116.763 111.933 113.658 113.59 111.685 109.875 108.678 109.275 108.518 110.365 113.928 113.608 114.815 112.285 112.998 109.753 110.728 109.155 112.433 113.68 114.1 115.31 112.868 110.515 108.03 106.578 105.883 105.293 105.315 105.46 105.348 105.223 105.143 104.993 104.895 104.8 104.68 104.53 104.343 104.19 104.79 105.065 103.75 103.635 103.47 103.208 103.05 102.968 102.843 102.803 102.803 102.673 102.62 102.503 102.405 102.298 102.215 102.095 101.985 101.915 101.788 101.778 101.735 101.575 101.405 101.34 101.213 101.055 100.928 100.745 100.613 100.408
121.991 120.781 119.448 119.238 119.373 119.231 121.718 120.198 119.501 119.618 119.153 119.251 119.278 119.276 119.286 119.348 119.426 119.483 119.628 119.826 120.063 120.376 120.523 120.611 120.793 120.846 120.896 120.978 121.128 121.246 121.521 121.563 121.648 121.843 122.196 122.446 122.641 122.918 123.251 123.581 123.833 124.121 124.433 124.486 124.961 125.416 125.786 126.066 126.176 126.673 127.193 127.523 128.213 128.923 129.598 130.276 130.681 131.103 131.453 131.758 131.768 132.113 132.401 134.041 134.956 135.503 135.441 134.853 134.583 134.768 134.871 135.113 134.766 134.738 134.923 135.186 135.366 135.363 135.363 136.468 144.366 149.066 139.358 135.208 135.236 135.258 135.231 135.183 135.283 136.463 136.346 135.268 135.093 135.416 134.318 134.116 134.081 134.058 136.336 138.756 137.948 138.683 138.516 136.063 135.701 135.708 136.268 138.486 136.051 135.576 138.831 143.611 140.991 135.631 133.613 133.803 133.671 133.631 133.548 133.531 135.231 135.908 134.608 134.013 134.346 134.191 133.098 132.996 132.988 133.016 133.048 133.091 132.956 132.871 132.936 132.928 132.886 132.883 132.901 132.886 132.878 132.878 132.898 132.888 132.858 132.831 132.796 132.711 132.753 132.553 132.446 132.393 132.276 132.231 132.163 132.111 132.046 131.916 131.866 131.748 131.653 131.531 131.376 131.323 131.203 131.116 131.056 131.156 131.521 130.361 130.751 130.488 130.366 130.036 129.781 130.193 130.145 129.453 129.54 129.515 129.518 129.853 131.123 131.44 130.493 129.635 129.333 130.555 131.013 131.175 132.8 131.68 132.798 132.553 127.44 126.743 126.813 126.165 126.348 131.25 133.145 131.748 133.288 130.555 126.71 126.51 125.38 124.26 125.058 125.655 124.788 125.023 124.128 124.03 123.91 123.755 123.598 123.538 123.385 123.243 123.14 122.998 122.82 122.678 122.568 124.895 122.27 128.328 124.785 125.28 123.943 122.753 121.59 121.975 122.038 121.275 121.163 121.24 120.783 120.67 120.598 120.583 120.233 120.02 119.86 119.728 119.58 119.448 119.323 119.18 119.048 118.85 118.7 118.553 118.41 118.29 118.163 118.075 118.005 117.963 117.958 118.005 117.965 117.86 117.695 117.575 117.433 117.363 117.225 117.103 116.97 116.838 116.665 116.588 116.495 116.403 116.285 116.145 116.06 115.98 115.84 115.703 115.605 115.488 115.32 115.213 116.08 116.358 114.775 114.578 114.4 114.243 114.093 113.953 113.79 113.625 113.523 113.35 113.285 113.178 113.063 112.983 112.968 112.9 112.805 119.088 120.633 120.638 120.053 120.368 115.395 116.075 115.915 113.728 110.37 111.273 111.588 113.01 108.47 110.965 111.178 108.083 107.983 111.665 111.863 110.978 108.693 109.228 110.47 108.505 109.37 112.015 115.063 111.745 110.085 113.065 110.188 108.955 109.435 106.705 105.505 105.4 105.565 105.553 105.375 105.295 105.16 104.993 104.913 104.83 104.673 105.123 106.498 106.013 107.848 106.953 103.748 103.66 103.415 103.103 102.975 102.878 102.745 102.725 102.658 102.6 102.49 102.408 102.283 102.205 102.085 101.98 101.915 101.828 101.773 101.728 101.54 101.428 101.353 101.188 101.005 100.833 100.71 100.533 100.278
122.363 120.351 119.911 119.361 119.216 119.111 119.081 119.458 119.098 119.141 119.141 119.181 119.241 119.256 119.296 119.373 119.403 119.501 119.761 119.993 120.321 120.506 120.563 120.576 120.793 120.926 120.993 121.106 121.171 121.213 121.401 121.666 121.706 121.951 122.198 122.408 122.691 122.918 123.316 123.731 123.838 124.071 124.448 124.796 125.241 125.438 125.868 126.196 126.553 127.023 127.528 127.886 128.631 129.398 130.016 130.491 130.931 131.313 131.596 131.761 131.888 132.206 132.913 134.328 134.616 134.676 135.416 134.753 134.818 134.916 134.923 134.868 134.843 134.916 135.048 135.096 136.008 135.986 138.548 143.498 148.551 150.853 140.328 135.153 135.151 135.138 135.143 135.091 135.708 139.766 141.048 139.773 138.278 135.358 134.491 134.183 134.068 134.076 135.351 138.286 137.133 139.396 139.356 136.758 134.058 134.691 137.146 139.063 138.248 134.863 138.328 140.138 138.513 134.836 133.656 133.648 133.661 133.753 133.583 133.581 134.893 137.193 136.683 135.748 134.556 133.641 133.208 133.011 132.881 132.921 132.998 133.081 133.021 132.833 132.878 132.868 132.901 132.878 132.883 132.826 132.858 132.868 134.111 133.646 133.191 132.868 133.041 133.213 133.301 133.438 133.308 132.608 132.723 132.268 132.163 132.051 131.981 131.906 131.863 131.773 131.663 131.588 131.423 131.308 131.188 131.018 130.881 130.743 130.611 130.496 130.403 130.248 130.296 130.088 130.168 129.943 129.808 129.36 130.003 129.88 129.85 130.57 130.873 131.298 133.145 131.54 130.723 131.715 132.353 131.748 133.333 132.055 136.968 132.75 128.92 126.74 126.64 126.115 126.26 126.055 125.39 125.49 125.375 126.153 125.3 125.083 124.99 124.838 124.653 124.52 124.388 124.225 124.14 124.035 123.908 123.763 123.645 123.53 123.36 123.27 123.08 123.02 122.893 122.753 122.678 122.528 122.91 123.18 123.223 123.325 122.443 122.505 121.713 123.353 124.325 122.015 121.428 120.948 120.635 121.278 122.73 122.658 121.853 121.375 120.273 119.835 119.66 119.535 119.378 119.2 119.048 118.928 118.79 118.668 118.508 118.418 118.3 118.183 118.123 117.973 117.88 117.903 117.775 117.69 117.57 117.518 117.41 117.338 117.255 117.09 116.933 116.798 116.71 116.628 116.538 116.44 116.348 116.22 116.158 116.083 115.913 115.823 115.65 115.518 115.39 115.408 117.533 116.788 117.47 118.978 118.383 116.34 115.64 114.873 113.67 113.523 113.418 113.268 113.158 113.023 112.943 112.833 112.73 112.695 113.143 118.163 117.473 121.65 120.563 116.285 115.698 111.393 111.563 111.265 112.158 111.665 112.358 113.048 114.75 112.04 113.293 111.058 108.105 111.863 110.595 112.94 108.07 108.138 108.1 111.21 109.223 108.615 110.745 111.055 111.483 110.395 113.605 108.643 107.618 107.218 105.9 105.538 105.593 105.723 105.558 105.418 105.308 105.203 105.078 105.465 105.345 108.845 106.545 104.735 107.253 109.505 104.35 103.683 103.563 103.34 103.08 102.888 102.78 102.718 102.665 102.57 102.488 102.405 102.273 102.188 102.13 101.998 101.918 101.813 101.705 101.683 101.548 101.435 101.308 101.208 100.985 100.733 100.608 100.463 100.2
123.388 120.748 119.721 119.428 119.211 119.071 119.073 119.078 119.073 119.093 119.118 119.153 119.196 119.251 119.306 119.351 119.368 119.671 119.998 120.323 120.736 120.766 120.736 120.843 121.081 121.171 121.161 121.151 121.198 121.343 121.511 121.683 121.858 122.163 122.361 122.621 122.728 122.891 123.323 123.773 124.016 124.218 124.768 125.056 125.201 125.673 126.193 126.513 126.838 127.208 127.778 128.361 129.148 129.873 130.413 130.881 131.236 131.486 131.768 131.798 132.141 132.373 133.461 135.261 134.828 134.721 134.806 134.861 134.926 134.973 134.958 134.911 134.918 134.883 134.893 134.951 136.788 137.426 146.396 148.536 148.871 146.723 142.086 135.098 135.041 135.023 135.021 135.056 136.208 140.481 142.493 142.331 139.341 134.423 135.246 134.226 134.111 134.043 134.336 136.331 134.713 134.938 135.356 134.251 132.831 133.431 136.061 138.493 135.653 136.518 137.676 139.268 135.656 133.513 133.578 133.578 133.606 133.591 133.513 133.471 134.786 136.866 137.596 134.276 134.966 133.811 133.306 133.021 132.836 132.826 132.863 132.871 132.901 132.781 132.681 132.728 132.788 132.818 132.808 132.796 132.761 132.798 133.898 132.948 133.518 136.753 137.758 137.603 137.206 136.078 134.936 134.326 133.066 136.291 133.963 132.506 131.986 131.881 131.811 131.753 131.668 131.551 131.458 131.338 131.201 131.093 130.956 130.796 130.626 130.488 130.346 130.188 129.993 129.898 129.758 129.605 129.435 129.293 129.443 130.288 132.458 131.575 131.01 129.635 132.34 133.038 134.233 135.21 132.883 128.463 132.373 129.515 133.918 132.77 126.935 126.748 126.498 126.155 126.193 126.238 125.778 125.65 125.475 125.335 125.205 125.07 124.893 124.758 124.658 124.503 124.43 124.268 124.135 124.025 123.88 123.805 123.65 123.5 123.48 123.353 123.38 123.828 124.21 124.838 124.563 124.393 125.043 125.208 125.868 125.245 122.518 124.715 122.163 127.415 128.705 123.968 121.925 120.78 120.373 121.298 123.095 121.978 124.553 121.585 120.77 120.323 120.143 119.998 119.068 119.318 119.173 119.018 118.878 118.703 118.563 118.435 118.38 118.293 118.17 118.09 117.965 117.888 117.753 117.658 117.635 117.57 117.505 117.44 117.353 117.185 117.013 116.903 116.838 116.743 116.615 116.56 116.415 116.313 116.17 116.095 115.948 115.815 115.698 115.585 116.188 118.3 120.923 120.808 118.153 120.133 122.715 119.45 118.695 117.77 116.983 116.81 116.595 114.158 114.293 114.21 112.85 112.788 112.698 112.608 112.603 112.525 117.388 118.53 121.428 117.438 115.043 113.953 112.408 109.95 111.435 112.753 113.408 111.36 113.365 115.51 114.938 114.185 111.525 109.273 110.915 114.53 109.23 107.57 107.848 108.693 109.405 110.78 113.188 111.833 109.473 111.3 109.47 110.595 109.605 106.868 106.155 105.745 105.703 105.825 105.788 105.598 105.468 107.17 105.323 107.163 108.688 107.363 106.618 107.805 109.053 106.7 106.388 103.748 103.588 103.53 103.295 103.01 102.808 102.72 102.67 102.56 102.453 102.375 102.253 102.195 102.058 102.025 101.978 101.813 101.703 101.638 101.583 101.42 101.288 101.125 100.945 100.655 100.49 100.278 100.045
121.836 119.431 119.308 119.196 119.053 119.028 119.031 119.043 119.028 119.078 119.103 119.153 119.156 119.208 119.271 119.291 119.526 119.888 120.293 120.636 120.831 120.933 120.901 120.998 121.123 121.231 121.248 121.226 121.266 121.446 121.636 121.811 122.028 122.206 122.341 122.656 122.873 123.076 123.406 123.816 124.253 124.501 125.101 125.473 125.606 125.976 126.503 126.781 127.193 127.626 128.138 128.823 129.478 130.198 130.688 131.126 131.328 131.656 131.968 132.598 132.426 133.266 133.976 135.636 135.931 134.881 134.896 134.923 134.968 135.036 135.121 136.468 135.543 135.003 137.216 139.571 142.411 145.488 147.116 146.893 148.458 148.498 147.291 140.438 135.251 136.343 137.608 138.381 140.058 140.136 142.998 142.501 142.848 134.596 134.638 134.243 134.151 134.073 134.593 134.986 135.713 133.778 133.616 134.123 133.161 133.776 136.928 138.533 137.388 135.228 135.498 135.511 133.976 133.566 133.598 133.568 133.536 133.481 133.456 133.453 134.321 137.326 137.238 138.881 134.741 133.671 133.988 133.206 132.851 132.721 132.793 132.793 132.801 132.706 132.601 132.648 132.706 132.713 132.728 132.703 132.716 132.748 133.818 132.963 135.161 138.806 140.111 140.263 140.013 138.856 137.651 138.486 136.098 138.636 139.311 137.616 134.933 132.626 131.816 131.701 131.618 131.541 131.423 131.333 131.211 131.106 130.963 130.786 130.646 130.526 130.363 130.241 130.078 129.888 129.751 129.598 129.44 129.35 129.148 129.08 129.423 129.463 129.543 128.758 131.443 133.138 131.993 130.718 130.833 130.168 131.408 129.218 128.968 127.195 126.69 126.56 126.39 126.233 126.068 125.94 125.798 125.678 125.505 125.413 125.253 125.14 125.003 124.8 124.715 124.603 124.453 124.313 124.225 124.295 124.303 124.645 125.03 125.018 125.143 125.79 126.383 126.303 126.725 127.568 126.473 128.733 130.935 128.623 125.238 124.868 124.52 133.078 132.74 132.82 134.088 125.148 121.928 120.618 120.083 130.055 132.105 128.848 131.583 126.81 120.913 120.608 120.275 119.725 118.155 118.558 118.945 119.99 119.65 119.603 119.12 118.51 118.343 118.318 118.895 118.518 117.99 117.9 117.79 117.705 117.61 117.57 117.543 117.478 117.33 117.208 117.038 116.93 116.87 116.748 116.633 116.565 116.485 116.44 116.383 116.358 116.335 116.328 116.32 116.915 116.59 120.81 124.473 122.77 122.483 123.618 123.83 121.413 119.33 118.94 119.728 119.255 119.223 115.348 117.668 117.443 115.083 113.763 112.543 113.073 112.425 112.783 120.905 120.078 115.68 118.045 115.35 112.22 110.87 111.258 113.07 115.838 113.848 111.645 114.255 115.675 116.43 118.31 110.093 113.688 114.838 110.87 107.775 108.618 109.568 110.038 112.095 112.33 111.82 113.863 110.585 111.295 110.403 111.178 111.115 106.498 106.343 106.038 105.768 105.805 105.945 105.763 105.613 108.21 105.505 107.398 108.755 109.148 108.97 104.875 108.018 109.008 108.235 103.725 103.653 103.5 103.425 103.17 102.918 102.72 102.663 102.583 102.505 102.363 102.223 102.148 101.998 102.003 101.915 101.805 101.718 101.593 101.518 101.323 101.14 100.94 100.798 100.605 100.398 100.2 99.983
119.611 119.486 119.158 119.078 119.033 119.018 119.053 119.053 119.063 119.073 119.116 119.151 119.166 119.218 119.228 119.336 119.746 120.141 120.473 120.681 120.836 120.823 121.081 121.203 121.151 121.191 121.298 121.368 121.401 121.558 121.736 122.003 122.168 122.298 122.423 122.663 123.078 123.336 123.493 124.053 124.521 124.913 125.393 125.563 125.951 126.271 126.838 127.101 127.391 127.976 128.613 129.308 129.883 130.391 130.823 131.191 131.533 131.783 134.498 132.731 134.288 133.066 135.241 135.456 135.671 134.871 134.916 134.963 135.071 135.458 135.461 144.296 144.798 140.048 140.986 146.108 145.381 145.606 144.586 148.011 149.091 150.068 148.151 142.986 138.831 141.876 142.438 141.193 143.431 145.013 145.203 145.798 143.408 135.446 134.411 134.256 134.168 134.123 134.996 135.526 135.636 133.211 133.078 133.076 134.448 136.298 137.576 137.336 134.963 134.698 133.681 133.623 133.611 133.631 133.588 133.568 133.578 133.478 133.363 133.381 136.286 137.533 139.216 139.728 136.953 133.806 134.971 134.971 132.818 132.661 132.741 132.726 132.753 132.748 132.598 132.531 132.601 132.618 132.666 132.648 132.648 132.666 134.458 133.631 133.883 138.056 140.343 141.481 140.571 139.083 138.676 138.641 138.763 139.911 140.716 140.006 139.168 133.683 132.383 131.738 131.606 131.448 131.398 131.313 131.211 131.158 131.041 130.908 130.768 130.581 130.358 130.178 130.036 129.943 129.776 129.635 129.478 129.338 129.2 129.048 128.903 128.743 128.65 128.458 128.318 132.363 130.958 131.175 130.833 128.038 129.04 127.193 129.04 128.623 126.728 126.635 126.5 126.318 126.178 126.013 125.893 125.728 125.578 125.468 125.27 125.168 125.033 125.028 124.828 124.7 124.585 124.483 124.498 125.99 126.803 127.048 127.135 126.423 127.068 128.093 130.955 131.57 131.215 132.408 133.64 134.13 134.88 133.8 126.498 123.845 127.39 133.42 134.503 134.688 133.988 124.768 122.038 121.395 120.495 131.263 133.983 133.388 133.088 130.693 121.123 120.313 120.3 121.905 123.128 126.035 121.215 120.16 120.113 119.78 119.663 119.818 119.143 118.39 119.113 119.595 118.008 117.915 117.833 117.703 117.64 117.548 117.548 117.428 117.305 117.208 117.07 116.97 116.915 117.533 119.073 117.555 117.048 117.085 117.12 117.245 118.828 120.12 121.113 122.22 122.423 122.088 127.425 127.53 123.81 124.255 124.22 123.273 119.728 118.888 120.098 120.185 120.193 118.325 118.418 117.93 121.165 118.765 118.143 113.933 113.093 112.573 112.58 118.803 116.908 114.393 112.815 112.458 111.368 111.665 112.943 113.835 114.688 112.115 111.918 110.913 112.098 115.2 114.07 108.243 111.283 108.613 109.29 107.688 109.253 108.96 110.55 113.388 112.04 110.325 110.32 112.128 110.925 110.638 109.815 107.248 106.475 106.463 105.94 105.873 106.023 105.988 107.455 108.673 107.538 106.333 107.785 106.825 105.138 108.873 108.733 109.353 109.108 104.36 103.61 103.463 103.43 103.24 103.02 102.858 102.698 102.588 102.553 102.448 102.308 102.185 102.225 101.903 101.843 101.78 101.695 101.56 101.335 101.123 100.945 100.803 100.678 100.5 100.34 100.14 99.993
121.068 119.926 119.106 119.036 119.001 119.031 119.041 119.023 119.026 119.093 119.111 119.141 119.188 119.193 119.221 119.586 119.991 120.338 120.551 120.628 120.696 120.911 121.183 121.196 121.258 121.378 121.533 121.643 121.711 121.798 121.908 122.176 122.343 122.511 122.713 123.006 123.263 123.463 123.758 124.276 124.791 125.166 125.393 125.828 126.151 126.331 126.801 127.276 127.713 128.398 129.031 129.658 130.263 130.718 131.048 131.438 131.806 132.506 132.028 135.988 133.316 133.926 135.041 135.053 134.843 134.888 134.933 134.971 135.101 135.561 135.643 144.506 146.406 144.583 145.088 148.008 148.001 145.618 145.453 147.493 149.796 148.716 148.583 146.796 145.503 143.903 145.043 144.046 144.968 145.563 145.503 145.568 144.048 134.796 135.348 134.286 134.156 134.188 135.001 136.543 137.418 134.803 133.171 134.121 137.298 140.551 139.303 137.266 136.753 135.556 134.178 133.648 133.636 133.643 133.526 133.516 133.486 133.438 133.318 135.038 136.906 135.413 136.233 136.528 135.251 134.348 134.341 135.723 133.968 132.631 132.981 133.188 132.666 132.628 132.556 132.466 132.506 132.553 132.591 132.573 132.601 132.931 134.108 135.016 135.288 136.503 139.991 141.423 140.896 139.313 138.743 138.751 139.206 140.656 141.631 140.451 138.206 133.121 134.313 135.161 132.951 131.588 131.398 131.296 131.156 131.163 131.081 131.013 130.996 130.986 130.788 130.481 130.206 129.983 129.763 129.605 129.463 129.325 129.186 129.058 128.938 128.795 128.67 128.508 128.36 128.198 128.833 128.455 127.76 127.575 129.228 127.63 130.265 127.213 127.815 126.628 126.533 126.373 126.3 128.198 129.575 127.91 127.14 126.87 127.54 126.343 125.665 126.405 127.098 126.423 126.488 128.213 129.48 130.193 127.203 127.72 130.85 133.613 134.515 134.173 135.605 134.565 134.498 134.865 135.188 135.27 136.035 135.14 128.083 124.423 125.535 134.315 136.258 134.895 132.598 126.033 121.928 122.363 122.12 130.863 134.418 134.27 132.408 131.683 124.443 121.258 123.5 126.398 130.993 131.84 129.443 120.243 120.145 119.58 118.76 119.278 119.438 120.8 120.033 118.34 117.98 117.888 117.825 117.698 117.56 117.48 117.463 117.395 117.7 117.82 117.498 117.745 118.033 119.478 119.515 119.508 118.248 117.843 117.553 118.12 119.748 123.375 123.383 123.068 123.808 121.468 122.955 123.108 122.665 123.958 123.815 123.27 121.955 119.67 119.935 119.918 119.958 118.99 117.508 118.313 123.628 122.775 123.853 122.043 118.365 113.125 114.788 113.78 112.755 111.883 111.805 111.77 111.688 112.033 113.988 116.705 115.623 112.073 111.035 109.733 110.628 111.09 109.03 109.565 109.423 109.4 110.593 107.978 107.59 108.245 108.658 110.478 107.94 110.118 112.308 111.138 111.508 112.69 112.105 110.163 106.808 108.525 107.208 105.943 106.02 106.12 105.963 109.35 110.138 106.77 107.975 106.798 106.88 110.118 109.158 108.543 107.973 105.77 103.583 103.54 103.478 103.34 103.16 103.018 103.183 104.025 104.383 104.725 102.715 103.93 102.713 101.96 101.788 101.61 101.585 101.43 101.143 100.965 100.825 100.71 100.583 100.408 100.255 100.138 99.955
120.046 120.501 119.043 119.011 119.011 119.003 119.016 119.006 119.021 119.076 119.116 119.136 119.178 119.201 119.368 119.811 120.158 120.431 120.633 120.733 120.921 121.138 121.318 121.428 121.618 121.796 121.866 121.921 121.933 122.063 122.161 122.313 122.473 122.603 122.921 123.178 123.498 123.918 124.288 124.833 125.053 125.416 125.703 126.148 126.313 126.606 127.043 127.581 128.156 128.863 129.391 130.048 130.588 131.013 131.443 131.793 131.838 131.953 134.098 136.031 136.858 134.681 134.981 134.791 134.868 134.898 135.106 135.356 135.353 137.733 142.751 144.458 145.303 145.318 145.583 147.233 146.506 146.788 146.511 145.408 148.403 147.891 148.231 147.371 146.871 147.788 147.551 147.398 146.291 145.328 145.353 145.416 143.568 134.913 135.566 134.306 134.146 134.176 134.841 135.648 137.871 137.688 133.683 133.436 136.628 138.748 138.651 134.841 134.701 134.438 133.776 133.641 133.796 134.163 135.391 135.421 133.458 135.181 135.281 140.033 138.276 135.793 136.653 135.851 134.543 133.676 137.303 138.363 135.021 132.643 132.473 133.196 132.563 132.541 132.438 132.348 132.443 132.458 132.506 132.503 132.503 133.553 134.281 136.918 138.076 136.461 139.608 141.523 141.516 139.598 138.871 138.941 139.938 141.441 141.161 139.663 134.231 133.056 134.713 136.126 134.778 134.518 131.963 131.293 131.168 131.091 131.053 131.026 130.941 130.888 130.856 130.796 130.646 130.396 130.481 133.758 130.753 129.463 129.253 129.085 128.895 128.78 128.613 128.5 128.343 128.228 128.073 127.953 127.808 130.13 131.595 131.373 131.453 129.08 132.543 128.465 127.04 127.943 128.333 130.088 130.83 130.11 129.868 129.05 129.855 126.83 125.693 130.585 132.975 133.805 135.025 133.145 132.268 132.103 127.585 126.938 132.095 135.883 136.07 136.053 136.103 136.068 135.065 133.933 133.63 133.758 131.813 132.36 130.165 125.245 123.663 132.858 136.233 135.303 132.9 123.42 121.828 121.975 122.323 128.805 134.305 134.46 132.265 129.383 125.578 121.07 130.69 130.623 130.968 132.003 130.393 120.61 120.148 119.855 118.613 118.9 119.585 120.995 121.135 119.995 117.965 117.838 117.788 117.688 117.568 117.538 119.093 121.158 122.77 122.258 119.863 117.793 118.315 118.605 117.598 118.975 117.61 116.588 120.44 124.218 126.308 123.143 123.685 123.025 123.57 123.595 120.608 118.543 122.863 122.475 122.093 122.643 122.515 120.713 119.86 119.888 119.973 120.033 119.963 121.053 124.533 124.303 123.74 122.948 121.008 115.263 113.09 112.225 111.843 111.795 111.735 111.613 111.523 112.693 115.218 114.718 113.05 111.078 111.193 110.028 109.895 109.818 109.09 110.42 110.178 110.808 108.558 107.87 107.768 107.758 107.67 111.773 112.343 111.033 109.023 114.125 111.353 111.98 112.348 110.273 109.628 108.35 109.115 107.328 106.068 106.203 107.715 107.25 108.505 109.513 108.555 109.22 109.593 109.373 108.195 111.713 106.138 105.563 104.81 103.6 103.578 103.39 103.233 103.1 103.295 105.215 106.828 107.06 103.975 102.483 102.58 102.143 102.02 101.77 101.395 101.143 100.973 100.81 100.75 100.633 100.51 100.368 100.21 100.04 99.898
120.623 119.273 119.053 119.003 119.001 119.003 118.973 119.038 119.098 119.091 119.078 119.161 119.196 119.223 119.531 119.943 120.341 120.666 120.888 121.083 121.258 121.431 121.653 121.903 121.996 122.173 122.208 122.331 122.271 122.353 122.431 122.566 122.733 122.896 123.133 123.476 123.873 124.511 124.883 125.028 125.311 125.748 126.011 126.388 126.668 127.113 127.471 127.881 128.571 129.226 129.751 130.298 130.763 131.281 131.831 131.891 131.903 132.611 134.773 136.206 136.233 135.561 135.331 135.203 134.841 134.861 135.311 135.408 135.406 142.321 144.713 145.421 145.541 145.321 145.306 146.053 148.121 147.658 146.148 145.946 145.763 145.926 146.921 146.576 147.606 148.051 148.053 147.926 147.263 145.398 144.786 144.236 142.546 137.206 134.881 134.268 134.171 134.146 134.766 137.148 139.696 139.438 135.773 134.623 134.296 136.226 134.153 134.663 134.088 133.701 133.653 133.998 134.401 134.688 136.211 136.223 135.201 133.926 136.403 135.448 136.598 136.446 137.966 137.021 136.411 134.251 138.926 141.831 136.348 133.991 134.063 132.463 132.478 132.401 132.371 132.316 132.326 132.366 132.398 132.436 132.418 134.111 136.951 137.506 138.138 137.183 139.308 141.373 141.828 139.971 139.521 139.386 140.666 141.988 140.431 138.688 132.268 133.798 134.381 135.646 137.506 137.716 132.651 131.411 131.283 131.156 131.073 130.993 130.948 130.873 130.818 130.731 130.681 130.853 132.393 131.88 132.338 129.84 129.593 129.385 129.133 128.97 128.823 128.615 128.365 128.253 128.165 128.025 131.675 132.893 133.735 132.683 131.573 132.293 133.055 131.515 128.958 128.91 128.783 129.43 128.77 128.745 128.785 128.78 130.85 126.42 125.738 129.368 135.588 135.118 135.903 134.488 132.56 133.65 128.168 126.855 132.103 135.973 136.103 136.183 136.328 135.035 130.618 129.588 128.698 127.643 127.708 128.99 129.153 127.715 125.458 132.465 136.22 135.683 133.293 122.803 121.673 121.183 120.715 128.255 134.16 134.393 132.49 129.053 127.59 121.33 132.078 131.863 131.915 132.003 130.375 123.31 119.278 119.258 119.08 119.508 120.663 120.543 121.208 121.423 118 117.788 117.743 117.645 117.548 117.55 120.898 123.255 123.588 122.848 122.153 119.898 120.515 118.21 117.285 121.153 120.943 124.355 127.215 128.463 128.075 119.518 123.428 123.633 123.73 123.54 122.305 117.915 118.123 121.755 122.758 122.45 122.063 119.065 119.918 120.213 120.643 120.68 120.085 122.423 127.55 126.698 122.763 124.89 120.888 117.535 115.38 114.33 116.905 112.658 111.673 111.55 111.425 111.79 112.178 111.24 111.193 111.005 110.528 110.055 111.448 111.668 110.083 110.935 112.723 113.385 111.633 111.555 108.475 107.835 108.383 109.355 110.643 110.265 111.963 111.258 113.093 112.57 110.555 110.11 110.07 107.963 108.143 107.92 106.11 106.218 108.638 109.37 107.82 112.608 108.813 110.483 110.535 110.95 108.058 106.715 104.613 106.183 105.923 105.16 105.303 103.345 103.178 103.238 103.335 105.988 105.863 103.96 103.605 103.64 103.085 102.118 102.535 102.003 101.67 101.465 101.068 100.81 100.613 100.515 100.415 100.325 100.17 100.023 99.89
120.686 120.006 119.146 119.071 119.018 118.953 118.978 119.128 119.203 119.186 119.161 119.161 119.201 119.356 119.696 120.151 120.586 120.876 121.001 121.233 121.443 121.901 121.818 121.941 122.401 122.421 122.438 122.646 122.851 122.718 122.793 122.858 123.126 123.351 123.586 124.001 124.458 124.903 125.096 125.363 125.673 126.121 126.231 126.691 127.161 127.453 127.771 128.243 128.931 129.563 130.046 130.541 131.001 131.613 131.988 132.026 132.056 134.546 135.006 137.511 136.366 139.878 139.503 136.693 136.143 134.886 135.123 136.146 135.393 142.093 145.691 146.696 145.773 145.433 145.783 147.318 148.296 148.143 146.698 145.928 146.678 145.481 145.688 145.963 148.426 148.516 148.356 148.141 147.161 145.563 143.773 142.551 140.436 136.503 135.341 134.263 134.133 134.113 134.908 137.158 140.833 141.851 139.388 136.116 133.873 133.673 133.696 133.788 133.671 133.783 134.211 134.596 135.513 141.576 143.686 137.213 138.768 135.388 135.171 133.181 134.283 136.276 139.976 139.181 136.841 136.458 136.876 138.128 135.848 134.998 134.703 132.963 132.386 132.366 132.323 132.271 132.233 132.283 132.303 132.338 132.361 134.403 136.111 136.666 135.896 135.121 138.571 140.558 141.693 140.868 140.793 140.486 141.413 141.031 139.686 136.651 132.508 134.151 133.446 133.531 133.731 134.076 131.656 131.408 132.178 132.401 131.758 131.008 130.883 130.851 130.818 130.743 130.676 132.643 134.016 133.205 130.393 130.175 129.928 129.77 129.53 129.273 129.11 128.808 128.55 128.485 128.423 128.325 128.62 130.258 135.133 136.555 133.89 133.765 131.68 133.05 130.46 131.098 132.498 132.243 130.76 131.45 132.418 128.77 129.813 127.608 125.918 126.323 135.138 135.368 134.735 133.353 132.433 130.943 128.615 127.47 132.658 136.918 137.123 137.273 137.41 136.735 130.42 128.093 127.705 127.385 127.41 127.413 127.75 127.428 128.09 130.838 135.728 136.073 133.685 125.51 121.598 121.203 119.793 128.078 134.27 134.688 133.55 133.29 133.423 127.813 132.135 130.753 131.673 131.895 130.275 125.18 118.598 118.003 118.485 119.155 119.48 119.52 119.548 118.13 118.22 118.223 117.7 117.613 117.54 117.53 118.753 123.45 124.023 123.085 122.698 121.053 120.943 119.838 123.485 127.08 127.99 129.515 127.633 129.408 128.538 124.833 121.62 123.44 122.943 122.228 122.17 119.315 118.918 120.95 122.538 121.245 120.713 117.875 120.188 120.725 120.445 120.493 121.045 127.15 123.553 123.738 120.093 122.165 120.59 115.898 115.395 115.348 118.575 116.633 112.525 111.535 111.388 111.325 111.178 111.058 111.06 111.065 110.998 110.775 110.068 110.95 110.04 111.245 115.105 116.225 111.673 111.898 110.458 110.405 109.698 112.133 111.843 114.163 111.078 112.32 112.558 111.343 110.72 110.355 111.213 109.003 108.635 107.75 106.908 106.5 110.145 107.445 109.795 110.96 109.625 107.66 109.355 106.935 104.8 104.448 106.94 106.818 108.06 107.043 104.075 104.493 103.278 103.32 102.99 104.485 103.018 103.723 105.993 104.805 103.98 102.37 102.25 101.7 101.63 101.463 101.273 100.945 100.685 100.445 100.3 100.15 100.058 99.95 99.838
120.848 120.866 119.858 119.268 118.996 118.953 119.051 119.188 119.196 119.178 119.203 119.131 119.263 119.583 119.966 120.373 120.703 120.886 121.041 121.426 121.636 121.986 122.166 122.331 122.513 122.681 122.776 123.001 123.173 123.176 123.281 123.483 123.711 123.773 124.126 124.493 124.838 125.161 125.513 125.873 126.138 126.241 126.706 127.186 127.451 127.793 128.156 128.653 129.293 129.836 130.331 130.791 131.228 131.816 132.058 132.276 132.596 135.631 135.656 136.963 139.001 140.481 139.116 136.013 136.086 136.246 134.926 134.836 134.868 143.046 145.371 146.098 146.323 146.081 145.821 147.948 148.241 147.481 146.123 145.338 146.453 146.151 147.386 145.831 147.433 148.411 147.751 147.861 146.136 145.468 145.991 143.236 140.211 135.951 134.741 134.238 134.136 134.116 134.488 137.603 141.093 140.121 138.403 135.156 133.736 133.726 133.751 133.676 134.061 134.663 134.803 135.056 135.858 142.876 145.993 138.571 138.598 137.036 138.428 135.166 134.961 135.281 136.396 135.213 134.723 136.336 136.126 135.681 134.721 138.196 136.653 133.108 132.271 132.261 132.258 132.206 132.123 132.198 132.253 132.293 132.273 132.431 135.318 137.128 133.518 135.988 137.171 140.206 141.653 141.368 142.083 141.986 141.728 140.418 139.388 135.846 132.181 135.218 133.396 133.466 133.698 132.456 131.466 132.506 133.011 132.323 132.488 132.443 131.686 131.113 130.741 130.751 132.831 134.291 132.176 130.428 130.36 130.285 130.165 130.123 129.853 129.548 129.39 129.025 128.778 128.778 130.618 130.52 131.253 133.313 132.695 133.15 135.265 134.238 135.218 133.918 135.333 136.05 136.48 136.155 133.938 134.45 134.898 129.99 131.385 130.378 127.23 126.19 130.028 130.673 130.78 130.628 130.568 128.075 127.48 127.483 131.385 137.388 138.068 138.133 138.028 137.248 131.078 129.25 128.685 127.56 127.435 127.888 128.213 128.223 128.458 130.563 128.195 127.763 126.165 124.368 121.59 121.59 119.875 126.24 131.61 131.488 132.305 132.97 133.305 128.658 129.973 131.803 131.895 132.018 130.973 129.135 120.043 118.4 118.598 118.548 120.528 120.673 123.72 122.015 118.24 118.37 117.933 117.508 117.46 117.65 117.793 121.303 124.253 124.153 123.035 121.423 120.548 120.698 123.875 128.048 129.208 129.71 130.043 128.925 128.51 128.27 119.035 122.88 122.643 120.55 121.155 121.52 120.603 120.94 120.065 118.593 117.86 118.428 119.965 120.47 120.743 120.608 122.463 124.625 127.363 123.748 119.363 122.565 118.173 116.25 115.193 115.073 116.023 118.335 117.213 114.34 111.605 111.308 111.16 111.053 110.923 110.845 110.778 110.818 110.75 110.735 111.693 112.19 113.968 115.05 113.443 112.813 109.643 109.54 110.308 112.608 115.018 114.57 115.443 114.033 113.733 112.278 113.758 112.495 113.698 110.048 109.485 109.125 107.473 106.4 109.308 109.358 108.813 108.545 107.395 109.02 105.533 105.635 106.07 105.418 106.445 107.298 106.89 107.528 104.073 105.45 103.758 103.015 102.803 102.808 102.753 104.348 106.835 103.87 104.433 103.868 102.673 102.01 101.548 101.395 101.215 101.008 101.143 100.655 100.388 100.128 99.893 99.775 99.71
122.923 121.098 120.078 119.423 119.046 119.088 119.161 119.143 119.223 119.266 119.148 119.216 119.476 119.856 120.251 120.488 120.728 121.003 121.318 121.678 122.046 122.273 122.453 122.796 122.871 123.201 123.306 123.546 123.683 123.798 123.938 124.081 124.231 124.383 124.646 124.906 125.011 125.323 125.893 126.201 126.466 126.751 127.221 127.491 127.753 128.051 128.501 129.096 129.628 130.153 130.603 131.046 131.558 131.966 132.258 132.451 134.316 135.211 133.993 137.371 141.158 138.136 135.513 135.046 134.953 135.288 135.313 135.118 134.883 135.031 144.366 145.361 145.953 145.931 146.088 146.438 147.398 146.061 144.311 142.148 145.443 145.298 145.543 145.308 148.308 148.453 146.616 145.933 145.413 145.341 145.388 143.261 142.468 136.123 134.336 134.176 134.091 134.303 134.676 137.536 138.593 136.286 134.361 133.828 133.808 133.781 133.846 134.228 135.216 139.756 137.548 135.508 137.078 145.171 145.366 139.921 138.471 138.153 140.861 138.571 136.821 138.668 137.111 136.313 137.731 136.586 137.461 135.633 138.791 137.798 135.851 132.393 132.181 132.193 132.186 132.161 132.041 132.076 132.153 132.163 132.181 132.471 134.941 136.991 136.098 134.661 136.588 139.836 140.941 140.996 142.431 143.313 141.981 140.373 139.151 135.041 132.561 134.118 137.041 137.063 133.286 131.926 131.498 133.591 135.793 135.301 133.996 132.946 135.526 134.986 134.298 134.138 134.778 130.581 130.533 130.435 130.313 130.235 130.133 130.065 129.97 129.87 129.658 129.253 129.003 129 129.173 130.42 133.468 133.18 137.13 132.358 133.158 134.525 133.94 133.31 136.465 137.64 137.275 137.78 136.735 136.743 135.59 133.873 132.128 132.79 129.233 127.723 128.143 130.11 130.423 130.658 130.68 127.96 127.48 129.51 133.178 137.125 137.393 137.885 137.288 136.7 130.113 128.843 129.8 128.35 128.378 128.405 128.883 127.863 128.408 127.848 123.51 122.528 121.898 121.685 121.605 121.58 120.463 119.693 120.848 119.375 122.995 125.693 127.393 125.133 129.41 131.135 131.103 132.01 131.08 128.17 118.188 118.623 118.253 118.133 118.155 122.363 124.493 124.498 120.52 118.268 118.135 117.42 117.385 117.995 118.493 118.418 122.828 124.29 123.245 122.063 121.755 120.835 120.643 128.03 128.945 128.763 128.933 123.485 121.225 117.653 118.14 120.115 122.905 121.315 119.29 121.878 121.478 119.92 117.478 118.445 117.913 119.17 119.58 120.143 120.195 119.97 121.153 122.385 123.963 121.78 122.053 124.48 116.4 116.988 115.318 115.88 115.44 118.168 117.095 117.5 116.358 113.858 111.445 111.01 110.883 110.81 110.675 110.598 110.533 110.66 111.12 110.66 113.353 112.075 114.21 109.738 109.985 109.458 109.618 112.633 114.755 116.595 115.19 115.418 117.905 111.61 113.42 111.37 114.218 112.998 111.743 110.375 111.633 106.513 107.588 109.59 110.238 108.208 107.46 108.348 107.235 106.425 109.233 108.258 105.688 106.595 106.335 106.055 103.783 104.618 103.523 103.283 103.038 102.565 103.793 104.215 106.99 105.773 107.128 104.493 104.633 101.728 101.46 101.323 101.138 102.145 102.433 101.908 100.415 100.323 100.028 99.715 99.533
120.743 120.293 120.336 121.303 119.468 119.336 119.253 119.233 119.318 119.171 119.198 119.408 119.686 120.086 120.473 120.618 120.868 121.133 121.398 121.893 122.356 122.613 122.991 123.381 123.533 123.763 123.846 124.113 124.263 124.381 124.563 124.901 124.856 124.848 125.016 125.393 125.353 125.636 126.121 126.463 126.951 127.248 127.493 127.743 128.143 128.441 128.876 129.476 130.033 130.478 130.951 131.418 131.803 132.093 132.378 132.796 133.216 134.993 134.258 135.261 139.618 137.783 134.801 134.878 134.866 134.843 134.978 135.193 135.068 139.818 144.796 145.391 146.838 148.188 147.316 145.898 145.758 143.988 137.918 138.021 138.436 143.098 145.046 145.783 148.418 148.253 146.213 145.601 145.378 145.373 144.463 142.288 142.453 136.013 134.586 134.126 134.041 134.478 134.338 135.143 135.513 134.448 133.811 133.826 133.808 133.908 134.348 134.726 137.986 146.566 143.263 135.891 136.441 143.898 145.461 139.353 138.123 136.668 137.823 137.233 134.903 138.066 137.651 137.011 136.796 137.948 135.361 138.226 136.211 135.481 136.556 132.148 132.048 132.118 132.091 132.088 132.006 131.998 132.056 132.101 132.113 132.161 133.278 133.231 136.308 134.461 137.468 139.338 139.548 140.423 142.071 143.426 142.338 140.661 139.096 134.078 133.013 135.676 139.691 138.666 134.748 131.538 131.656 134.846 137.116 137.456 136.558 134.511 136.936 138.386 141.706 140.676 136.653 130.518 130.368 130.39 130.348 130.29 130.165 130.048 130.013 130.06 129.948 129.53 129.193 129.195 129.385 129.765 131.988 133.833 135.49 133.663 131.47 136.823 133.813 132.11 136.068 137.665 137.9 137.045 137.258 136.27 135.545 133.133 129.055 132.088 128.89 126.445 127.973 130.055 130.338 130.683 130.63 128.638 127.675 129.333 135.825 136.023 135.258 135.233 135.165 135.06 132.225 127.733 128.28 128.283 127.688 127.668 127.585 127.373 127.708 127.858 123.113 122.685 122.76 122.293 121.693 121.643 120.205 119.76 119.765 119.758 121.573 126.12 126.145 125.913 128.388 127.38 125.5 127.79 125.388 121.255 118.233 117.96 118.68 118.308 120.915 124.395 124.533 124.468 124.46 118.433 119.33 118.005 117.37 117.425 118.158 117.85 120.755 124.083 123.788 122.8 122.845 121.443 121.043 125.413 127.54 123.503 120.648 116.708 115.41 115.485 117.235 119.128 121.803 121.303 122.188 122.888 122.443 118.22 117.53 117.515 118.195 119.245 119.645 119.998 119.968 119.118 117.23 122.71 119.33 129.77 119.865 124.778 116.81 115.97 115.405 115.488 115.69 114.808 119.63 118.755 117.86 115.943 112.75 113.02 111.04 110.79 110.653 110.575 110.45 110.3 110.25 110.26 111.138 111.283 112.288 110.09 109.815 110.34 111.233 113.185 113.723 113.9 115.278 109.878 111.383 110.175 114.703 113.52 115.613 113.633 112.878 107.848 110.585 106.858 106.43 106.2 107.553 107.91 107.71 106.42 105.498 106.973 109.54 107.32 107.838 106.478 105.908 107.823 104.6 103.71 103.073 103.298 105.083 104.983 102.63 102.233 103.765 104.923 103.395 104.19 102.793 101.998 101.343 101.188 101.068 101.393 103.228 104.525 102.315 100.283 100.155 99.95 99.56
120.253 120.416 120.116 120.521 120.566 119.456 119.401 119.383 119.311 119.193 119.381 119.603 119.916 120.253 120.586 120.853 121.186 121.388 121.586 122.123 122.743 123.181 123.448 123.831 124.171 124.276 124.426 124.633 124.793 124.856 124.968 125.293 125.301 125.391 125.498 125.763 125.941 126.461 126.731 127.026 127.368 127.683 127.868 128.078 128.463 128.846 129.278 129.831 130.431 130.848 131.238 131.706 131.951 132.253 132.511 132.666 132.851 133.941 133.643 134.156 138.576 137.463 134.811 134.843 134.871 134.861 134.853 135.001 134.936 143.156 144.276 145.421 147.878 148.411 147.708 146.178 145.706 141.596 136.076 136.106 135.963 136.641 142.403 145.333 146.943 145.483 144.328 145.361 145.343 145.373 143.216 142.253 139.888 135.101 134.413 134.096 134.048 134.363 134.246 134.048 133.813 133.833 133.858 133.953 137.888 138.106 134.888 135.293 136.051 140.048 137.971 136.088 136.091 136.331 138.806 137.963 138.673 135.321 134.526 135.451 134.741 133.203 135.776 133.786 135.288 137.451 136.301 137.058 136.888 136.148 134.931 132.138 132.008 132.018 132.018 132.023 131.938 131.891 131.963 132.018 132.178 132.068 132.083 132.106 133.956 135.573 139.281 135.011 138.946 140.646 141.713 143.276 142.688 141.073 139.558 135.276 135.051 135.913 139.606 136.788 132.741 131.516 131.841 134.223 137.376 138.073 138.926 135.801 136.133 133.791 139.048 137.191 138.583 133.008 131.406 130.313 130.15 130.203 130.218 130.093 129.958 129.895 129.905 129.76 129.438 129.383 129.528 129.523 131.178 134.135 134.62 131.858 131.95 133.175 134.84 132.97 135.755 137.238 137.893 136.673 136.263 134.913 134.45 132.368 128.811 129.61 128.65 126.628 127.955 130.02 130.308 130.57 130.62 130.095 129.005 131.77 135.308 135.455 135.098 135.098 135.083 135.055 134.82 127.67 127.633 127.598 127.535 127.478 127.44 127.403 128.335 128.533 122.885 122.765 122.808 122.383 121.798 121.683 120.6 119.755 119.768 120.605 122.198 125.005 125.81 125.963 122.148 121.018 119.32 119.2 119.56 118.86 117.91 117.955 118.268 120.025 122.943 124.768 126.288 126.33 124.418 122.86 118.733 118.68 117.613 117.45 117.79 118.278 117.813 123.245 124.17 123.713 122.49 121.155 120.375 121.645 120.94 117.955 115.65 116.595 116.685 116.35 116.585 119.44 120.305 121.468 122.465 123.515 123.41 120.28 117.62 117.55 118.338 121.548 120.87 121.013 118.203 117.358 117.608 121.845 120.683 124.058 119.365 121.088 119.975 118.843 115.508 114.993 114.538 115.563 119.843 118.71 116.923 114.388 112.9 113.178 112.525 111.57 110.655 110.538 110.47 110.35 110.158 110.045 109.96 110.775 111 112.165 109.818 112.62 112.345 111.335 111.43 112.72 113.71 111.415 113.238 108.828 110.755 113.608 111.868 113.2 110.553 107.65 110.395 107.968 106.57 106.68 106.21 106.613 107.705 106.365 106.17 107.033 108.08 108.243 108.015 108.813 108.145 106.52 105.62 104.983 103.088 104.628 104.463 103.595 103.24 102.44 102.83 104.355 104.183 102.11 102.07 102.363 101.36 101.13 101.003 100.733 104.99 104.815 103.655 100.305 99.978 99.87 99.618
119.953 120.931 121.626 121.243 119.946 119.653 119.528 119.511 119.408 119.388 119.593 119.898 120.168 120.403 120.743 121.153 121.486 121.738 121.923 122.233 122.986 123.393 123.843 123.968 124.373 124.711 124.963 125.126 125.423 125.408 125.438 125.781 125.833 125.861 126.006 126.243 126.556 126.926 127.278 127.526 127.743 128.043 128.293 128.551 128.831 129.171 129.641 130.188 130.753 131.131 131.543 131.851 132.081 132.371 132.608 133.028 133.931 133.323 133.428 134.048 137.436 137.898 134.938 134.826 134.846 134.828 134.926 136.953 138.848 143.318 146.018 145.391 145.908 147.331 146.156 146.496 145.903 139.173 135.888 135.918 135.861 135.933 136.088 142.081 143.058 142.238 142.551 145.316 145.323 145.453 142.521 142.226 139.021 135.573 134.208 134.081 134.018 133.938 133.901 133.841 133.883 133.856 134.051 134.971 141.466 141.926 137.173 137.308 140.378 136.406 136.296 136.391 136.338 136.073 136.611 137.666 140.023 137.131 136.658 135.598 133.288 135.648 135.981 134.353 133.781 135.033 134.711 136.288 134.563 134.661 133.496 132.183 131.938 131.921 131.951 131.971 131.906 131.781 131.838 131.921 131.983 131.991 132.003 132.271 134.828 136.071 138.296 134.833 136.573 139.821 141.383 143.486 143.571 141.388 140.213 136.163 133.428 134.698 133.933 131.726 131.531 131.513 131.721 132.971 135.038 136.433 138.618 135.988 137.221 137.506 135.788 140.488 136.628 138.391 135.096 132.273 130.811 130.088 130.07 130.118 130.045 129.983 129.818 129.673 129.505 129.495 129.588 129.6 130.225 131.648 131.548 133.82 135.728 130.73 133.783 131.465 134.523 136.575 136.425 136.015 135.09 132.765 131.968 129.88 128.768 130.635 128.883 127.448 127 129.598 130.263 130.545 130.635 130.73 131.555 134.1 134.686 135.293 135.103 135.093 135.08 135.083 135.035 127.715 127.638 129.11 127.555 127.463 127.41 127.393 127.735 127.235 123.475 122.753 122.143 122.203 122.165 121.713 121.195 119.765 119.76 123.573 122.688 124.39 124.54 125.223 122.305 121.355 119.368 119.28 119.753 117.743 117.7 117.808 119.438 119.923 121.235 123.898 126.59 126.935 125.493 124.58 122.663 118.428 118.11 117.483 117.505 117.89 117.72 119.615 124.108 124.308 123.128 121.798 120.198 119.375 119 117.973 116.813 117.63 118.91 118.068 117.43 119.753 121.85 121.683 122.69 123.048 123.728 123 117.843 117.598 118.213 125.003 125.905 126.575 118.375 117.785 117.85 117.67 117.793 119.935 116.16 117.863 120.728 119.188 116.18 115.278 114.835 116.8 116.455 118.103 115.815 113.623 113.805 113.595 114.398 113.573 110.685 110.553 110.465 110.283 110.128 110.008 109.865 109.715 110.778 109.543 109.735 110.06 112.295 113.653 112.913 112.935 111.603 110.96 109.715 108.648 109.91 111.045 110.055 111.875 109.86 108.598 109.725 109.963 109.325 107.32 106.165 112.408 110.075 108.235 105.27 106.788 107.93 111.225 106.938 108.015 108.94 105.568 105.04 103.295 103.66 105.645 106.448 105.123 104.313 105.65 103.568 103.533 104.335 103.593 102.155 101.248 101.228 101.115 100.968 102.423 104.575 106.765 101.745 100.163 100.035 99.843 99.59
119.996 121.001 122.613 120.798 121.486 119.936 119.756 119.618 119.546 119.583 119.891 120.138 120.331 120.588 121.046 121.446 121.808 121.971 122.161 122.521 123.258 123.858 124.306 124.526 124.758 125.121 125.203 125.486 125.781 125.783 125.828 126.101 126.276 126.393 126.623 126.763 127.101 127.363 127.636 127.906 128.141 128.431 128.668 128.943 129.258 129.581 130.043 130.548 131.086 131.416 131.733 131.961 132.221 132.453 132.651 133.196 133.893 133.356 133.523 134.141 135.193 136.563 135.093 134.778 135.073 135.298 137.303 139.021 141.038 143.706 145.641 145.293 145.288 145.591 145.993 146.278 143.151 137.488 135.936 136.448 137.288 137.041 137.998 138.836 138.903 137.513 139.611 145.571 145.678 144.031 141.211 141.861 135.413 134.608 134.093 134.068 133.998 133.948 133.916 133.923 134.251 135.566 137.251 137.356 138.251 138.341 136.298 138.323 138.501 136.763 136.718 136.713 136.711 136.451 136.238 136.013 135.196 134.211 133.251 134.068 133.001 135.791 135.813 135.981 134.996 133.141 134.531 134.901 133.633 133.241 132.886 132.198 131.921 131.821 131.858 131.888 131.863 131.808 131.751 131.826 131.901 131.936 131.946 131.936 134.206 134.761 136.716 136.198 136.063 139.646 141.046 142.621 143.316 141.746 140.496 137.761 131.623 131.691 133.506 134.921 131.501 131.613 132.376 132.411 131.823 132.943 137.088 136.776 138.506 138.906 138.213 139.613 140.916 140.498 139.961 139.113 136.395 133.08 130.303 130.043 130.023 129.933 129.9 129.795 129.645 129.558 129.535 129.535 129.498 131.518 131.368 131.07 134.925 132.073 130.143 129.4 132.865 134.258 133.55 132.903 132.053 132.033 132.065 130.715 129.28 130.015 130.663 127.085 127 129.15 129.283 131.928 131.97 132.978 135.428 136.495 136.933 138.25 137.493 133.365 130.258 130.158 129.15 128.27 131.775 130.603 127.578 127.45 127.388 127.385 127.623 128.39 125.585 123.318 122.485 122.505 121.808 121.72 121.393 119.77 119.763 121.523 120.56 122.64 124.53 124.008 122.27 121.898 119.258 117.668 117.67 117.665 117.598 117.548 118.915 118.925 121.093 121.905 124.938 125.54 124.49 124.703 124.493 120.205 118.323 117.535 117.52 117.723 118.395 117.825 122.193 124.205 123.23 122.465 121.06 118.873 119.955 118.173 117.668 117.573 119.343 120.175 120.225 122.12 123.078 123.508 122.903 122.775 123.463 123.47 121.163 117.643 121.32 123.795 125.26 124.868 119.068 117.715 117.655 117.485 117.48 118.023 118.148 122.885 124.093 117.545 119.68 115.823 115.895 117.43 118.44 118.08 117.308 114.673 115.625 114.088 116.48 113.573 112.173 110.57 110.405 110.293 110.098 109.978 109.845 109.615 109.508 109.355 109.235 110.03 110.583 112.858 111.148 110.968 112.208 113.895 111.32 111.07 109.08 111.798 111.388 110.328 112.515 109.985 108.155 111.263 111.193 108.48 105.935 108.89 109.368 109.808 107.648 108.1 108.023 108.148 108.96 106.845 105.965 104.253 105.738 103.71 104.78 105.963 105.628 104.488 105.608 104.94 102.185 102.773 105.58 103.758 102.988 101.18 101.085 100.97 100.758 101.44 101.615 103.023 101.788 101.278 100.025 99.87 99.595
119.981 120.233 120.773 120.468 120.951 120.061 119.883 119.731 119.696 119.911 120.178 120.358 120.566 120.963 121.261 121.671 122.133 122.336 122.621 123.131 123.773 124.371 124.616 124.888 125.136 125.498 125.591 125.773 126.016 126.116 126.273 126.496 126.843 127.146 127.168 127.308 127.708 127.821 127.956 128.243 128.538 128.863 129.146 129.528 129.898 130.261 130.686 131.028 131.283 131.501 131.813 132.051 132.308 132.488 132.763 133.591 134.266 137.491 133.813 134.821 134.398 135.596 136.496 135.211 135.263 138.286 139.093 139.071 142.123 145.031 145.321 145.328 145.491 145.928 146.268 145.441 142.406 138.881 137.656 138.581 138.158 136.476 138.473 138.908 138.923 136.648 135.493 136.403 137.456 139.061 136.098 135.568 135.426 134.203 134.081 134.091 134.021 133.998 133.936 133.941 134.981 137.906 139.448 138.546 135.753 135.976 136.211 136.786 136.798 136.761 136.763 136.756 136.738 136.671 136.118 135.876 135.753 134.136 133.001 133.023 132.946 135.568 136.333 135.823 134.213 133.543 133.653 133.923 134.153 133.703 133.126 132.436 131.906 131.746 131.763 131.751 131.763 131.741 131.643 131.741 131.821 131.841 131.846 133.243 136.868 135.968 138.106 138.826 134.023 139.518 140.801 142.256 143.448 142.113 140.538 138.156 131.983 131.528 131.491 131.441 131.503 131.618 132.206 132.103 131.836 131.761 134.021 139.236 139.891 137.948 138.858 139.143 141.026 141.458 141.441 140.71 139.908 139.2 136.91 133.425 130.85 129.838 129.79 129.768 129.748 129.705 129.588 129.578 129.553 130.048 130.653 129.973 132.235 130.985 129.555 129.578 129.1 131.883 132.245 131.89 132.105 131.808 130.918 130.665 130.418 130.755 130.65 127.093 127.22 127.373 128.18 133.763 136.385 137.383 138.33 138.468 138.485 138.9 138.275 130 127.828 127.695 127.685 132.44 132.835 132.05 128.74 127.443 127.385 127.378 127.808 129.123 126.303 123.773 122.388 121.978 121.973 121.758 121.62 120.253 120.115 120.095 120.305 120.515 121.01 124.485 121.838 122.665 120.278 117.815 117.62 118.023 118.485 119.015 119.903 119.413 120.08 119.423 122.745 124.483 125.235 126.628 124.838 123.983 118.995 119.273 117.52 117.538 117.953 117.598 119.655 123.71 123.945 122.82 121.99 120.708 120.535 119.53 117.74 117.888 118.585 121.005 122.955 123.535 123.73 123.413 121.915 122.858 122.933 123.66 123.095 118.098 121.59 126.913 124.53 121.728 117.8 117.613 117.328 117.283 117.42 117.55 120.683 122.388 124.568 119.555 118.073 115.903 116.558 117.95 119.65 118 117.985 115.575 115.203 117.318 117.633 116.918 114.655 110.608 110.485 111.008 111.17 110.63 109.798 109.618 109.475 109.283 109.168 108.985 108.945 109.685 110.373 110.803 113.55 111.3 112.07 109.668 109.195 110.675 109.988 110.125 110.28 111.305 109.885 108.265 111.593 111.145 107.44 113.15 114.875 110.263 112.033 109.61 107.188 105.768 108.808 105.07 103.963 107.293 105.535 103.285 104.205 106.178 105.073 103.55 105.585 104.688 102.24 103.485 104.968 105.71 105.585 101.108 101.028 100.945 100.818 101.853 103.115 101.585 101.34 100.043 100 99.863 99.695
119.983 120.003 120.663 120.618 120.401 120.316 120.038 119.946 120.008 120.203 120.456 120.611 120.971 121.281 121.463 121.883 122.478 122.883 123.316 123.841 124.361 124.718 124.628 124.751 125.193 125.663 125.851 126.158 126.243 126.381 126.831 126.963 127.246 127.536 127.798 128.046 128.218 128.373 128.501 128.848 129.188 129.601 129.968 130.343 130.708 131.013 131.281 131.381 131.488 131.726 131.931 132.173 132.406 134.068 136.016 133.783 134.093 137.306 140.391 136.358 134.548 135.036 137.718 136.311 135.321 138.276 139.286 139.088 140.398 144.368 145.298 145.543 145.648 146.098 145.668 144.558 144.193 138.913 138.928 138.941 138.488 136.886 137.893 137.586 136.108 135.223 134.563 134.816 134.751 135.068 135.086 134.496 134.623 134.143 134.131 134.088 134.026 133.961 133.953 134.313 137.536 144.558 139.101 137.918 136.006 136.246 136.673 136.656 136.731 136.738 136.761 136.786 136.768 136.731 136.301 135.898 135.208 133.958 132.958 132.993 133.096 133.206 135.226 135.793 134.241 133.673 133.551 132.978 133.381 134.668 134.923 135.188 132.413 131.723 131.641 131.681 131.701 131.681 131.608 131.633 131.723 131.771 131.771 131.796 133.511 134.493 134.303 133.626 132.236 137.923 140.368 141.898 143.418 142.463 140.903 139.336 132.441 131.518 131.448 131.433 131.468 131.538 131.748 132.008 131.766 131.726 136.058 135.803 134.516 133.058 137.921 137.803 139.636 140.366 141.116 141.588 141.423 140.643 139.92 138.58 136.005 131.928 129.948 129.635 129.673 129.728 129.725 129.69 129.635 130.74 131.01 129.568 130.145 129.44 129.208 130.695 130.85 130.125 131.768 131.345 131.913 129.668 129.165 128.758 128.528 129.833 130.595 127.418 127.343 127.89 128.365 129.415 138.518 139.385 138.858 139.855 139.958 139.655 138.448 129.41 127.87 127.735 128.585 128.885 130.268 130.285 128.928 127.418 127.38 127.353 127.39 128.33 125.243 122.748 122.328 122.37 122.938 123.455 121.118 120.088 119.833 118.523 117.533 119.36 121.233 121.923 122.08 124.575 124.27 121.798 121.28 120.823 120.163 120.195 120.065 120.11 119.89 118.62 118.47 124.213 125.038 126.42 124.84 121.918 121.14 121.488 119.163 117.54 117.633 118.538 117.953 121.71 124.403 123.413 123.038 121.505 120.843 119.983 118.833 120.235 122.213 122.983 123.16 123.03 121.093 119.108 117.85 119.238 122.693 123.195 123 119.525 121.683 125.835 119.16 117.438 117.523 117.448 117.36 117.313 117.325 117.41 121.398 122.805 124.668 121.733 122.435 116.098 116.335 117.873 121.135 117.525 116.583 116.32 116.883 117.065 115.868 116.823 111.71 110.643 111.115 112.255 111.928 110.968 111.825 111.715 110.278 109.31 109.16 108.955 108.833 108.72 108.545 108.848 109.195 111.318 109.67 108.913 108.438 107.713 110.81 112.535 113.003 110.098 108.745 107.388 108.22 107.785 107.653 112.815 113.843 110.283 112.36 109.675 105.285 105.89 105.163 108.78 105.365 105.82 105.693 103.568 104.595 104.413 106.248 104.248 107.048 105.293 102.225 103.83 104.933 105.273 104.308 101.293 101.03 100.79 100.743 100.703 100.575 100.35 100.273 100.065 99.885 99.903 99.573
120.036 120.053 120.211 120.686 120.521 120.463 120.311 120.263 120.333 120.481 120.683 120.906 121.276 121.451 121.738 122.111 122.791 123.338 123.838 124.301 124.701 124.841 124.828 124.956 125.256 125.643 125.986 126.333 126.306 126.471 126.916 127.248 127.476 127.793 128.151 128.448 128.736 129.051 129.258 129.518 129.968 130.338 130.626 130.911 131.028 131.241 131.393 131.531 131.688 131.908 132.036 132.288 132.976 134.918 137.553 135.716 134.563 138.558 144.528 137.486 137.363 134.471 136.046 135.843 135.541 138.776 139.248 139.096 140.193 142.843 143.671 144.986 145.183 144.818 142.733 142.698 139.893 138.926 137.516 136.066 138.381 137.666 135.328 134.588 134.576 134.551 134.511 134.463 134.403 134.593 134.531 134.838 134.358 134.106 134.058 134.051 134.018 133.948 134.463 136.091 141.873 143.493 140.021 136.423 136.586 136.768 136.738 136.673 136.778 136.748 136.793 136.796 136.783 136.738 136.423 135.928 135.366 134.236 132.933 132.926 133.861 134.486 136.363 136.131 135.693 133.376 132.898 132.858 133.931 137.706 138.261 140.088 137.003 132.951 131.548 131.563 131.608 131.601 131.521 131.538 131.633 131.671 131.708 131.721 131.738 132.748 132.983 134.601 131.628 138.221 139.913 141.568 143.063 142.783 141.186 139.938 135.291 132.001 131.733 131.446 131.481 131.571 131.643 131.703 131.716 131.641 131.648 131.708 131.708 131.676 134.056 131.601 134.556 138.868 139.656 140.415 141.168 141.663 141.353 140.72 139.818 139.118 137.588 132.168 129.758 129.708 129.758 129.71 129.6 130 129.748 129.53 129.495 130.5 130.548 129.975 130.595 129.65 130.658 130.063 129.445 128.355 128.305 128.733 130.513 130.525 130.583 128.545 127.433 127.938 128.335 128.663 137.215 139.685 140.435 139.898 140.548 139.878 138.615 131.62 127.763 127.798 127.673 127.638 130.3 129.62 127.495 127.438 127.383 127.375 127.295 127.99 128.36 122.75 122.413 122.053 121.998 125.095 124.72 122.098 119.663 118.118 116 119.625 120.85 121.1 121.103 123.045 124.273 123.48 123.248 122.73 120.24 120.2 120.055 119.9 118.773 118.573 118.508 120.695 123.313 120.53 119.895 121.315 121.243 121.283 119.85 118.29 117.573 118.143 117.813 119.813 123.993 123.993 123.083 122.813 120.595 118.568 121.075 122.905 123.378 123.685 123.463 121.815 117.67 118.868 117.9 117.663 117.81 119.848 118.288 118.775 121.613 123.335 117.503 117.495 117.443 117.423 117.393 117.36 117.29 118.143 119.055 122.765 120.643 119 117.71 116.535 119.318 118.123 120.15 115.89 114.948 115.608 116.89 115.955 115.365 113.538 110.813 111.095 110.335 109.95 109.895 112.32 112.393 111.798 111.703 113.15 111.515 110.8 109.085 108.63 108.49 108.335 108.308 108.183 108.77 109.218 108.305 107.805 108.343 109.453 110.985 109.848 109.643 113.408 109.595 110.003 107.423 108.405 107.695 110.345 114.388 109.53 106.443 106.97 108.325 105.64 104.993 104.538 104.608 103.86 104.483 106.078 106.835 105.835 104.905 103.48 102.895 104.533 102.738 103.598 102.308 100.938 101.063 100.828 100.69 100.648 100.38 100.245 100.365 100.675 99.873 100.828 101.175
120.058 120.103 120.103 120.358 120.678 122.828 121.073 120.538 120.678 120.756 120.993 121.198 121.526 121.786 122.093 122.516 123.116 123.596 123.978 124.246 124.671 124.763 124.858 125.076 125.331 125.558 125.898 126.213 126.356 126.583 126.888 127.268 127.711 128.011 128.483 128.928 129.261 129.421 129.711 129.993 130.258 130.576 130.838 131.023 131.161 131.318 131.513 131.631 131.846 132.003 132.188 132.601 134.396 134.558 137.198 142.573 135.673 138.771 141.266 139.121 138.996 138.353 140.331 135.946 136.001 135.766 136.328 139.071 137.688 141.903 142.656 144.501 143.648 141.813 141.238 139.816 139.213 137.488 133.941 133.746 133.973 134.846 134.548 134.468 134.483 134.503 134.471 134.391 134.331 134.321 134.481 134.123 134.066 134.083 134.076 134.023 134.083 137.823 138.556 136.476 138.393 137.713 136.501 136.778 136.858 136.793 136.686 136.721 136.776 136.758 136.778 136.813 136.808 136.743 136.451 136.148 137.626 140.878 136.306 132.873 133.583 134.796 137.303 137.531 137.753 133.756 132.903 132.846 134.426 138.251 141.683 141.616 140.023 136.011 131.503 131.491 131.518 131.506 131.506 131.456 131.513 131.596 131.686 131.683 131.683 131.876 134.733 131.571 131.606 135.966 139.601 141.221 142.836 143.146 141.516 139.993 134.888 131.573 131.476 131.463 131.511 131.558 131.641 131.701 131.706 131.631 131.621 131.693 131.731 131.693 131.653 131.633 131.636 133.173 134.401 138.483 139.715 140.693 142.12 142.073 141.355 140.778 141.363 137.555 131.485 129.715 129.7 129.655 130.125 129.82 130.57 130.225 130.06 129.865 130.463 130.123 131.758 138.311 130.778 128.755 128.85 128.378 128.308 128.738 130.495 130.523 130.565 129.093 127.54 127.615 127.815 128.34 135.368 140.02 139.878 140.563 140.365 139.705 138.768 136.205 127.72 127.673 127.583 127.53 127.99 127.428 127.395 127.345 127.405 127.43 127.8 128.64 129.103 126.663 122.478 122.133 124.28 123.705 123.405 121.753 122.605 120.455 118.605 119.725 121.648 122.338 120.243 120.733 123.308 123.543 123.343 122.918 120.523 119.958 119.988 117.543 117.953 119.885 119.493 118.883 118.385 118.073 118.35 120.733 119.718 118.978 118.71 118.41 117.855 117.555 117.698 117.765 121.095 124.285 123.543 123.85 122.065 120.533 120.468 123.04 123.523 123.15 121.29 117.558 118.805 119.698 117.528 118.053 117.703 117.698 119.063 117.778 118.193 117.833 118.22 117.513 117.458 117.413 117.425 117.415 117.36 117.295 117.388 120.943 119.48 117.638 117.1 117.505 121.668 118.428 118.733 117.44 114.848 116.498 120.15 116.713 113.078 111.303 110.838 110.748 110.108 110.423 109.77 109.828 109.298 109.17 109.22 113.478 115.318 113.533 111.175 111.133 110.125 108.29 108.15 108.018 107.878 108.19 108.318 108.288 109.55 110.378 112.11 109.228 111.303 112.3 109.233 111.198 109.93 107.478 107.563 106.185 111.32 107.1 104.99 107.665 104.593 105.26 104.815 104.45 103.463 104.198 104.908 104.698 108.51 108.128 106.74 106.44 105.965 101.835 101.523 101.085 103.433 102.623 102.763 100.86 100.828 100.838 100.475 100.235 100.23 102.54 100.198 102.643 103.605
