ncols 387
nrows 31
xllcorner    526162
yllcorner    187504
cellsize     2
NODATA_value -9999
95.286 95.283 95.308 95.488 96.163 96.786 97.241 96.766 99.996 104.456 97.531 96.678 96.766 96.943 96.946 98.418 100.433 101.298 101.538 100.443 99.446 98.451 104.708 104.358 110.133 99.288 101.871 98.501 108.763 105.751 101.483 99.918 98.876 101.753 108.688 113.666 112.083 99.436 96.888 96.791 99.316 97.658 98.506 99.663 109.806 102.426 97.488 102.691 99.058 96.983 101.481 97.923 104.293 106.283 103.698 97.918 98.881 104.818 106.513 100.451 101.051 102.591 101.316 102.076 96.811 97.051 100.478 102.151 102.518 101.119 101.844 100.194 98.989 99.426 100.426 101.206 102.136 100.714 97.876 100.066 98.541 103.731 109.274 101.724 94.261 94.274 94.364 99.674 97.631 102.031 100.641 107.569 105.596 104.114 104.074 104.844 99.531 99.076 101.254 97.581 97.489 98.019 103.411 105.449 103.941 99.366 98.031 98.546 100.379 103.179 101.901 98.886 98.484 98.634 97.254 97.409 98.176 98.646 99.049 102.156 105.461 105.301 106.271 106.114 101.216 105.971 103.464 101.254 102.089 103.474 100.701 99.901 103.331 100.744 100.154 99.426 99.496 99.569 99.616 104.894 110.161 112.746 103.551 100.066 100.074 100.084 100.036 100.074 100.236 102.476 101.206 100.289 100.206 100.281 100.506 103.281 103.644 103.364 103.546 102.696 102.431 102.109 103.936 104.261 103.231 102.979 102.879 102.876 102.901 103.206 103.991 103.479 103.294 103.259 103.329 103.519 104.516 104.976 104.469 104.264 104.359 104.519 104.819 105.616 106.109 107.784 108.971 109.136 105.774 105.941 105.686 105.686 105.736 105.616 105.656 105.624 105.654 105.921 105.839 108.206 110.004 106.831 105.756 105.599 105.241 105.206 105.179 105.249 105.264 108.016 113.916 116.329 115.849 115.929 109.779 107.034 107.089 107.124 107.176 107.241 107.301 108.264 113.524 112.154 111.321 113.581 112.264 111.426 112.844 107.471 107.586 107.519 107.601 107.819 109.109 107.876 107.806 107.591 107.449 107.486 108.169 109.151 108.336 108.864 108.734 107.941 108.559 109.371 110.704 112.046 112.699 112.741 113.044 112.904 109.961 109.526 109.264 109.209 110.091 108.661 108.416 108.351 108.306 108.309 108.321 108.311 108.321 108.299 108.264 108.263 108.279 108.276 108.299 108.271 108.306 110.924 115.231 116.766 111.896 111.938 109.819 116.148 109.383 113.561 111.828 111.991 113.608 115.481 113.233 114.984 112.854 114.864 117.763 113.449 111.028 111.803 109.839 109.894 109.971 110.071 110.188 110.376 110.666 111.429 112.063 112.071 112.093 112.108 112.104 112.561 113.121 114.011 113.741 113.221 113.233 113.309 113.379 113.406 113.464 113.546 113.616 113.693 113.853 114.073 114.363 114.438 114.298 117.491 115.546 114.496 114.581 114.661 114.756 115.538 115.038 114.626 115.061 117.156 115.756 114.698 115.181 115.623 121.656 123.223 121.036 120.803 120.003 118.663 117.226 116.638 116.666 116.678 116.721 116.751 116.761 116.771 116.793 116.776 116.808 118.093 123.788 120.913 122.963 128.548 131.828 128.883 121.313 117.313 122.326 121.468 121.036 122.931 119.598 119.788 122.528 121.901 128.376 124.033 121.033 121.073 121.511 121.228 117.973 117.443 119.213 120.341 118.696
95.293 95.271 95.271 95.306 95.918 96.338 96.736 98.066 97.711 98.238 97.433 97.071 97.063 97.118 97.371 99.733 100.593 101.163 98.451 98.978 99.491 99.906 102.076 105.158 108.138 110.886 106.206 107.046 107.741 100.141 103.818 101.966 105.106 98.481 101.903 103.561 99.318 101.943 98.911 99.808 99.511 106.683 99.446 102.591 101.411 99.886 100.311 107.228 100.128 97.973 98.588 99.428 99.783 101.658 99.838 97.661 97.946 97.111 109.111 107.056 98.406 98.441 103.153 106.506 104.248 103.406 98.653 98.648 104.883 102.766 103.299 102.104 98.919 101.369 101.234 103.149 102.256 101.081 97.409 108.926 102.674 102.401 111.659 96.629 100.234 96.686 98.394 98.321 101.009 98.216 103.511 101.286 103.704 101.109 99.549 99.649 98.001 100.646 98.316 97.354 100.521 102.386 106.151 101.549 106.454 98.589 97.946 98.006 99.201 100.634 101.891 102.329 100.681 100.071 97.021 97.634 98.859 98.579 101.246 103.681 101.449 102.154 102.021 100.771 103.554 104.534 101.351 102.069 105.144 103.064 105.371 100.606 100.284 99.399 99.459 99.529 99.604 99.674 101.604 103.124 105.661 112.024 106.849 100.116 100.104 100.181 100.171 100.711 101.316 102.971 103.721 101.111 100.509 100.801 100.569 100.524 102.484 102.239 101.814 102.689 104.866 107.581 106.631 104.329 102.916 103.611 102.909 102.909 102.916 102.984 103.736 103.761 103.421 103.286 103.401 103.646 104.919 104.914 104.354 107.451 108.079 107.274 105.951 106.796 107.446 107.881 107.916 109.544 106.859 105.994 105.784 105.654 105.691 105.669 105.669 105.726 106.634 107.869 106.851 106.921 109.446 107.261 105.259 105.274 105.274 105.279 105.309 105.226 105.269 105.749 109.566 114.674 116.749 117.431 114.099 107.256 107.074 107.161 107.204 107.279 107.331 107.359 110.616 113.726 109.244 113.526 112.314 111.106 112.046 107.606 107.674 107.659 107.669 107.821 108.411 107.884 107.816 107.694 108.039 109.216 109.776 109.764 109.124 109.111 109.524 109.961 111.904 112.526 112.726 112.651 112.661 112.691 113.544 113.114 110.461 109.534 109.406 109.214 108.009 106.809 107.504 108.421 108.269 108.301 108.321 108.314 108.306 108.306 108.284 108.289 108.281 108.289 108.284 108.291 109.243 112.074 117.046 115.526 110.201 109.888 109.656 113.203 110.721 111.706 115.596 113.936 111.676 110.608 114.341 111.523 114.391 116.996 122.638 116.184 112.616 114.644 109.871 111.976 112.194 110.396 110.289 110.539 110.711 110.959 111.551 112.006 112.096 112.093 112.118 112.666 113.086 113.436 113.316 113.196 113.226 113.301 113.358 113.431 113.486 113.596 113.673 113.741 113.871 114.061 116.833 117.633 114.768 114.413 114.473 114.581 114.733 114.768 114.888 115.051 115.143 114.836 121.106 116.908 115.918 121.941 117.276 116.266 118.458 122.331 120.061 119.666 119.858 116.576 116.613 116.618 116.731 116.718 116.726 116.761 116.778 116.798 116.781 116.816 117.816 122.108 118.886 119.741 127.368 130.456 124.103 124.746 120.951 121.403 120.576 125.823 122.736 124.188 118.808 120.141 120.363 118.026 118.466 118.571 124.006 121.688 124.426 118.623 120.103 120.088 123.253 119.576 120.826
95.138 95.256 95.288 95.241 95.488 95.513 96.273 99.446 100.221 98.896 97.506 97.426 97.483 97.478 98.386 100.701 100.441 98.941 99.678 98.121 98.976 98.366 98.473 101.431 100.378 107.761 106.281 104.068 101.786 108.033 104.606 99.876 99.483 101.013 98.273 97.506 97.341 98.106 100.436 99.213 96.888 101.673 98.163 100.883 98.826 100.816 100.191 99.201 101.468 103.011 102.856 100.788 100.708 105.931 98.236 102.136 106.016 103.536 100.308 106.061 101.748 102.038 104.861 108.291 107.278 107.551 101.556 100.141 105.143 100.836 100.139 101.154 102.311 104.704 103.074 102.849 102.809 102.794 101.681 97.926 104.761 105.316 105.476 109.074 102.899 96.594 98.031 99.071 97.781 98.026 97.241 101.781 105.576 102.769 105.641 99.341 105.281 102.909 98.436 98.031 103.359 104.739 100.609 104.191 103.431 98.046 98.601 99.821 99.079 99.844 104.439 106.669 100.891 104.551 100.326 98.496 101.476 102.624 100.161 100.941 99.694 103.844 104.644 100.711 102.679 104.201 99.881 102.336 103.754 102.196 102.379 100.454 99.439 99.499 99.534 99.626 99.676 99.731 99.974 102.099 103.181 106.644 102.994 100.161 100.126 100.219 100.224 100.474 101.001 100.939 100.976 100.601 101.766 102.624 100.839 100.886 101.106 101.704 103.426 107.144 107.876 108.421 109.076 105.979 103.176 103.251 103.006 102.926 102.911 102.934 103.304 103.721 103.511 103.536 104.601 106.389 106.566 105.871 105.599 108.796 107.714 107.546 107.839 107.836 107.341 107.111 107.156 109.411 107.254 106.516 108.149 108.711 107.456 106.161 105.889 106.236 106.471 107.241 108.944 113.021 114.091 109.276 105.669 105.286 105.274 105.276 105.296 105.314 106.684 107.164 106.584 109.199 117.131 118.204 117.089 107.669 107.384 107.369 107.274 107.251 107.069 107.044 107.619 110.914 109.844 113.911 112.869 112.196 108.064 107.769 107.806 107.809 107.764 107.866 107.981 107.946 107.941 107.944 109.129 109.369 110.256 111.204 110.454 109.776 109.306 112.231 112.674 112.679 112.706 113.254 114.829 116.284 117.026 115.404 109.681 109.409 109.309 109.199 109.206 106.811 108.156 108.506 108.234 108.274 108.326 108.309 108.331 108.331 108.299 108.291 108.284 108.266 108.266 108.286 108.879 112.606 112.593 112.621 109.931 114.203 113.474 111.316 113.114 116.606 111.456 111.926 115.699 110.416 118.379 114.261 114.056 118.031 121.646 119.146 115.241 113.249 109.904 116.026 116.561 114.666 111.854 110.604 110.794 111.036 111.529 112.014 112.118 112.118 112.156 113.349 114.441 115.133 113.311 113.209 113.264 113.284 113.386 113.441 113.504 115.036 116.146 113.778 116.431 114.466 121.713 122.781 117.921 119.908 119.556 114.888 114.993 114.926 115.023 115.206 115.281 117.976 122.188 121.241 118.488 119.423 117.973 116.496 116.488 116.498 117.401 116.526 116.558 116.596 116.661 116.653 116.736 116.746 116.808 116.828 116.816 116.796 116.783 116.753 117.863 120.816 124.041 124.066 127.408 122.148 124.611 124.536 127.501 120.488 120.896 126.686 123.221 119.268 121.126 119.831 121.961 127.066 122.608 122.128 120.126 119.271 123.841 117.746 119.386 126.221 120.571 124.668 120.831
95.096 95.198 95.253 95.381 95.416 95.201 96.131 98.116 97.888 97.633 97.653 97.708 97.721 97.791 98.681 99.281 101.103 98.206 98.246 97.881 97.986 98.016 98.273 98.083 101.338 103.733 102.988 100.936 105.211 106.206 101.123 103.536 100.751 98.941 97.673 99.498 103.258 106.161 99.201 100.156 98.836 97.021 103.891 103.436 101.983 100.988 99.548 103.701 98.878 104.128 101.941 105.896 103.796 97.641 100.781 102.321 106.236 101.658 97.456 107.661 104.366 100.976 110.241 103.416 112.048 107.181 105.093 99.856 97.493 97.454 97.111 99.029 101.664 97.556 98.624 98.341 101.241 100.139 99.164 99.321 100.121 97.206 100.774 97.166 98.821 98.221 100.871 100.651 99.409 97.921 96.691 98.176 107.456 102.999 97.441 100.481 101.306 101.376 100.626 97.754 102.759 100.671 108.464 107.884 100.406 98.556 98.351 98.916 99.386 100.276 107.516 104.471 100.606 102.584 102.954 100.499 101.401 100.019 99.246 99.456 99.496 100.304 103.066 100.476 99.234 99.234 99.271 99.584 101.304 100.459 99.379 99.451 99.539 99.584 99.654 99.726 99.736 100.736 101.976 100.084 100.546 100.249 100.349 100.236 100.154 100.256 100.336 100.309 100.401 100.324 100.414 100.819 102.784 102.889 101.666 102.021 101.719 104.006 104.581 106.799 109.096 110.529 110.481 107.534 105.251 102.839 103.169 102.914 102.939 103.111 103.111 103.939 104.976 106.389 106.584 107.134 108.289 109.231 106.776 106.569 106.799 107.299 107.004 107.041 107.076 107.094 107.071 108.339 108.744 110.024 111.004 110.944 108.806 106.119 106.016 106.324 106.901 106.709 109.959 115.404 118.356 113.484 105.924 105.301 105.289 105.321 105.309 106.166 107.646 108.901 107.876 107.744 113.604 116.899 113.509 107.116 107.404 107.384 107.539 107.346 108.156 108.136 109.299 109.811 108.366 109.896 112.346 110.499 108.344 108.221 107.916 107.934 107.856 107.884 108.054 108.674 109.531 110.289 111.916 110.786 110.951 110.084 109.386 109.184 109.206 112.006 113.306 114.704 116.174 117.154 117.994 118.361 118.636 117.239 111.709 109.369 109.224 109.196 109.196 108.626 109.551 108.424 108.364 108.314 108.331 108.329 108.334 108.326 108.311 108.299 108.299 108.288 109.373 113.034 116.781 114.508 112.154 112.141 109.528 109.299 111.389 113.534 111.409 110.278 115.578 113.938 110.996 113.788 117.919 114.301 113.891 112.649 116.398 118.961 118.859 112.726 116.481 111.849 114.601 117.743 116.126 110.633 110.811 111.023 111.531 111.959 113.849 112.364 112.174 116.711 116.861 118.451 114.091 116.791 113.271 113.341 113.404 113.468 113.534 114.256 114.628 117.338 119.656 114.981 121.306 122.771 121.056 122.416 117.868 114.853 115.076 115.058 115.168 115.348 115.493 123.336 124.078 120.416 122.251 119.003 116.383 116.366 116.391 116.491 116.533 116.583 116.616 116.668 116.681 116.721 116.751 116.763 116.766 116.796 116.781 116.758 116.761 116.838 117.558 117.881 118.286 121.991 119.916 120.441 125.268 119.393 120.063 118.431 119.433 124.551 125.303 124.758 121.496 119.761 122.163 121.921 122.056 122.268 121.446 122.876 124.413 118.356 121.401 122.096 124.956 122.688 118.616
95.081 95.223 95.631 97.086 97.811 97.781 97.713 98.466 97.983 97.821 97.891 97.933 97.926 97.978 97.978 98.501 99.533 97.966 97.688 97.851 97.991 97.896 98.193 97.898 97.876 100.453 103.563 102.588 99.823 104.843 106.441 101.203 103.906 103.673 100.456 103.023 104.468 102.573 101.118 104.466 100.331 101.796 104.223 101.048 100.241 98.411 104.868 109.706 107.526 100.231 100.131 106.591 105.811 99.096 110.511 103.463 100.313 105.921 108.286 107.278 103.691 105.656 104.608 105.216 111.946 104.698 103.563 99.858 103.418 97.739 98.176 108.069 97.074 97.331 97.396 97.216 97.519 100.091 102.156 101.486 97.324 98.534 98.171 105.069 99.474 95.494 99.556 97.324 102.521 100.439 98.686 99.591 104.816 105.711 96.679 101.596 102.834 98.889 98.564 98.756 99.494 103.294 104.544 101.161 99.824 99.389 99.171 101.274 100.691 99.226 107.796 104.544 101.726 101.176 102.491 100.289 99.954 99.889 99.339 99.099 99.126 99.194 99.519 99.519 99.291 99.321 99.361 99.414 99.429 99.421 99.466 99.564 99.609 99.681 99.734 99.739 99.711 100.511 103.981 103.144 104.869 101.149 100.309 100.569 100.311 100.291 100.379 100.389 100.364 100.406 100.994 103.946 102.029 102.014 102.194 102.034 101.964 103.259 108.286 110.714 111.144 111.331 110.326 108.649 105.584 103.484 103.659 102.961 103.201 103.369 103.114 104.136 105.071 106.486 109.426 111.694 111.799 110.111 105.974 106.704 107.836 107.731 107.269 107.616 107.094 106.999 106.956 107.594 108.461 109.961 110.569 109.671 106.759 106.026 106.009 106.171 106.159 106.034 106.949 111.094 115.039 111.194 106.591 105.321 105.354 105.341 105.329 106.309 107.099 109.511 108.241 105.756 107.884 115.979 114.121 107.141 107.144 107.486 108.466 110.621 112.241 115.524 115.936 111.424 109.016 108.509 111.606 111.706 108.471 108.496 108.049 108.101 108.046 108.034 108.231 109.426 111.161 109.561 110.666 112.031 110.889 109.119 109.171 109.281 109.434 111.936 116.546 117.709 118.464 118.576 118.696 118.824 118.629 117.691 111.904 109.344 109.409 109.504 109.261 109.819 109.049 108.454 108.416 108.381 108.356 108.331 108.336 108.319 108.464 108.326 112.526 115.296 119.144 119.681 120.501 118.961 118.016 120.123 117.519 109.699 112.623 115.663 111.309 112.254 116.151 110.966 117.273 120.451 117.618 113.919 112.099 111.364 110.091 112.181 114.651 116.174 116.376 112.251 119.794 120.049 114.229 110.654 110.806 111.023 111.479 112.453 112.761 112.114 117.031 115.914 115.444 125.306 118.639 119.008 118.431 113.346 113.413 113.426 113.493 119.461 118.606 114.993 114.661 117.781 122.046 122.073 116.043 122.603 121.928 115.343 115.203 115.198 115.256 115.476 115.638 122.011 124.498 119.936 119.098 116.216 116.301 116.338 116.401 116.501 116.636 116.778 116.641 116.678 116.703 116.751 116.768 116.741 116.746 117.751 116.798 116.846 118.068 118.328 122.498 119.766 119.181 120.921 122.828 122.376 127.566 122.886 120.638 119.426 120.526 125.693 123.446 125.848 120.813 118.351 123.826 119.163 123.108 121.083 121.093 120.731 120.808 120.558 123.881 122.436 121.131 123.956 125.531
95.023 95.276 96.673 97.668 97.928 97.926 98.466 99.733 99.403 97.991 98.063 98.088 98.098 98.116 98.976 98.703 100.368 98.403 97.883 97.951 98.593 98.008 97.918 97.901 97.963 97.941 98.593 105.423 104.616 101.753 102.686 102.391 104.338 100.981 104.386 104.938 103.253 108.353 103.868 111.198 103.706 104.631 102.238 106.463 105.388 102.153 101.156 102.073 107.283 103.786 101.156 104.508 106.981 104.548 104.331 100.618 104.523 102.358 108.193 111.568 104.223 97.406 99.061 106.581 108.808 109.023 106.803 99.113 97.993 97.831 99.241 107.254 97.224 97.399 97.571 100.941 105.844 103.414 100.516 103.949 103.081 108.271 103.374 96.824 99.109 96.281 103.481 100.434 96.194 98.939 102.166 106.916 100.374 102.314 103.939 100.949 97.316 98.231 99.459 112.436 110.091 99.659 97.904 97.991 98.759 98.701 99.386 100.804 99.406 100.801 110.046 106.956 102.871 106.426 108.114 102.576 99.471 99.336 99.169 99.156 99.196 99.254 99.304 99.326 99.394 99.446 99.501 100.864 99.761 100.199 99.574 99.664 99.701 99.751 99.756 99.819 101.594 103.461 106.896 103.024 104.286 102.241 101.991 100.636 100.961 100.414 100.409 100.489 100.471 100.469 100.674 102.011 101.851 101.859 101.406 102.024 102.064 103.806 109.356 111.264 112.221 111.934 110.034 107.036 105.524 104.601 102.474 102.884 103.006 103.181 105.406 105.574 105.266 111.696 115.676 116.054 108.389 108.514 105.626 106.564 107.856 108.241 107.549 107.961 107.074 106.969 106.896 106.944 109.761 111.836 111.656 108.396 106.074 106.066 106.054 106.089 106.109 106.074 106.009 106.264 107.084 109.314 105.906 105.369 105.356 105.336 105.354 105.376 105.434 105.749 105.906 105.969 106.791 112.494 115.836 108.189 107.604 107.579 108.791 113.571 116.714 117.706 117.564 115.161 109.826 108.546 109.996 111.714 108.964 108.969 108.161 108.191 108.199 108.119 108.326 108.594 108.841 108.984 108.849 110.511 109.031 109.126 109.369 110.309 109.876 109.839 115.774 118.376 118.566 118.801 119.336 119.099 118.704 118.364 114.254 109.396 109.421 109.264 109.189 109.226 109.099 108.326 108.279 108.404 108.376 108.329 108.316 109.041 114.659 118.319 119.998 121.244 120.483 120.014 119.904 117.571 119.001 122.031 120.809 115.606 114.196 112.614 110.771 111.741 113.184 112.746 124.089 116.276 114.413 115.216 111.813 110.121 109.979 113.861 114.731 121.881 120.681 114.346 119.266 120.136 114.854 110.711 111.574 115.349 114.936 117.606 120.691 121.078 115.176 114.784 119.906 124.284 119.014 117.151 121.466 114.014 113.321 115.199 113.456 118.411 116.893 117.858 116.151 114.613 118.126 124.076 118.171 118.011 118.076 115.078 115.293 115.341 115.426 117.681 123.596 124.981 125.176 119.853 117.936 116.198 116.301 116.463 116.563 116.631 116.691 116.708 116.636 116.758 117.361 116.773 116.896 118.851 118.988 120.391 121.228 119.068 119.928 122.481 123.803 120.918 118.416 123.341 123.233 125.758 122.508 122.111 119.813 120.373 120.418 118.546 124.058 120.766 118.913 118.356 119.371 122.406 123.271 120.396 120.591 122.226 122.468 118.956 121.746 127.123 128.166 125.938 119.931
95.001 95.481 97.383 98.278 100.421 98.543 98.548 98.628 98.251 98.188 98.208 98.236 98.261 100.201 100.651 101.528 103.188 98.748 98.083 97.986 97.973 97.926 97.903 97.906 98.016 98.093 103.823 107.911 104.856 104.168 106.708 101.756 101.956 102.686 112.453 110.803 108.333 106.476 105.176 114.198 108.261 104.501 105.876 108.354 106.678 104.551 102.873 104.001 104.686 102.346 103.098 107.958 101.563 107.681 108.898 103.966 98.156 98.728 101.331 102.801 108.023 101.896 99.018 107.421 104.146 111.941 107.231 101.416 103.881 102.056 104.179 104.506 102.599 108.054 100.549 103.944 106.991 100.466 102.994 101.131 101.401 99.709 103.004 103.016 106.756 102.306 103.724 104.479 98.864 97.616 100.536 106.419 100.756 107.801 98.859 103.386 100.036 99.381 101.151 108.371 99.819 101.389 98.776 99.269 99.256 99.641 101.364 98.551 99.484 99.316 99.339 107.846 103.871 108.276 112.159 105.949 102.661 99.221 99.401 99.604 99.634 99.489 99.439 99.494 99.511 103.086 101.064 106.656 104.561 100.789 99.804 99.741 99.761 99.801 99.866 101.246 104.214 108.106 108.434 105.574 104.214 103.234 101.796 100.829 101.139 100.634 100.471 100.531 100.581 100.589 100.621 101.839 101.359 101.256 101.471 101.614 101.706 102.779 106.579 110.739 112.011 112.141 111.269 108.551 102.956 102.359 102.541 103.349 103.784 108.669 111.079 107.964 105.399 111.119 115.331 114.281 108.791 105.976 109.371 110.874 108.944 107.479 107.066 107.161 107.084 106.979 106.906 106.894 109.944 111.571 110.781 109.346 106.101 106.171 106.076 106.081 106.094 106.114 106.074 106.234 107.369 112.136 108.539 105.756 105.511 105.356 105.354 105.339 105.364 105.386 105.621 106.221 106.451 107.839 112.659 107.829 108.066 108.289 109.106 111.599 116.466 117.639 117.949 115.926 113.484 109.091 109.776 113.244 110.706 108.444 108.276 108.274 108.314 108.281 108.301 108.509 108.559 108.664 108.804 108.934 109.064 109.126 109.204 109.334 109.524 110.309 115.526 118.374 118.796 118.814 118.674 118.896 118.706 118.741 117.201 109.611 109.246 109.224 109.206 109.189 109.069 108.604 110.971 108.459 108.489 109.759 112.769 117.531 120.849 121.468 121.388 121.341 119.611 118.864 115.796 111.536 117.084 119.836 121.063 115.319 109.061 112.358 112.979 109.618 112.883 115.051 112.941 113.483 116.776 110.746 109.949 109.998 110.321 118.126 115.059 115.429 120.249 118.011 116.513 118.024 115.519 110.799 119.309 115.809 111.781 123.266 117.724 117.716 116.724 118.413 118.246 121.504 120.361 117.444 114.641 113.391 113.574 114.371 119.431 115.281 116.051 119.313 121.793 118.866 118.416 124.058 121.143 117.431 115.016 115.148 115.328 115.478 115.538 116.401 121.683 120.688 120.111 120.843 118.081 116.341 116.423 116.588 116.606 116.601 117.223 119.051 118.746 119.078 121.566 119.821 121.906 122.141 120.841 117.363 119.778 119.441 124.528 123.993 126.938 120.261 118.533 126.821 125.893 121.011 121.303 119.983 124.381 125.446 128.038 121.193 120.293 120.081 122.568 123.916 121.291 123.038 119.301 121.183 122.221 121.368 126.438 123.361 120.791 125.033 128.046 126.768 122.781
95.053 95.506 97.943 103.858 107.981 100.513 99.426 98.873 100.683 99.128 98.391 98.393 98.396 102.138 101.461 102.923 102.146 99.923 98.268 98.063 97.993 97.936 97.921 97.966 98.128 98.283 105.418 107.903 101.348 104.576 108.868 108.206 100.963 105.608 103.153 108.736 104.666 101.143 106.876 106.758 108.671 107.506 109.361 108.078 105.021 104.816 105.848 110.883 110.816 101.643 104.736 106.551 102.491 113.638 104.988 104.261 101.263 109.943 104.656 103.748 110.758 101.393 102.013 101.941 102.371 105.996 99.681 111.896 104.588 98.299 105.941 103.399 110.226 108.354 105.119 99.601 104.214 104.866 106.231 104.079 106.694 98.639 100.496 105.556 103.894 106.571 103.319 103.259 102.979 102.946 99.136 107.021 107.531 101.154 104.871 102.359 105.961 112.609 102.766 100.979 102.924 107.621 106.061 104.096 101.441 99.586 100.281 98.799 99.774 102.561 102.351 112.334 107.404 103.774 104.296 106.984 105.506 100.126 100.001 100.219 100.256 100.169 100.014 100.031 99.781 102.341 101.271 103.776 101.489 101.514 99.799 99.806 99.836 99.914 99.949 104.239 107.796 105.759 104.101 105.001 105.411 101.766 103.104 100.646 100.829 101.121 100.624 100.589 100.666 100.679 100.681 100.801 101.014 101.264 101.486 101.654 101.781 101.899 103.224 109.859 111.431 112.199 111.941 110.414 104.729 102.504 102.494 104.659 107.574 109.876 109.521 106.206 105.771 109.901 112.786 112.404 106.244 107.804 111.076 110.189 108.106 107.101 107.074 107.089 107.084 107.051 106.901 106.886 108.064 110.276 107.224 107.019 106.111 106.129 106.109 106.119 106.114 106.116 106.104 106.149 110.804 118.904 114.816 106.821 105.759 105.391 105.426 105.469 105.639 105.404 105.581 106.556 108.016 110.501 115.624 112.554 107.876 108.404 109.181 110.299 115.926 117.861 117.984 117.136 113.479 108.986 109.241 112.919 111.484 108.326 108.256 108.351 108.471 108.461 108.381 108.586 109.934 109.886 109.094 109.029 109.054 109.114 109.306 110.331 110.326 110.036 114.966 117.339 118.776 118.954 118.689 118.676 118.636 118.671 117.881 114.291 109.316 109.216 109.301 109.279 111.479 115.776 118.731 117.919 116.624 118.109 119.941 121.019 122.314 121.358 119.784 118.616 115.056 112.919 109.471 109.451 114.546 119.354 119.269 114.651 109.936 110.711 110.334 111.401 111.549 111.279 112.543 115.611 114.618 109.989 110.026 110.066 110.111 112.813 117.141 115.336 114.629 114.114 117.444 115.304 116.166 114.361 121.346 124.774 114.424 123.301 121.626 121.796 120.139 119.796 123.821 122.678 120.929 117.069 114.554 113.561 113.604 114.236 114.934 114.726 118.383 120.396 122.211 120.071 122.653 125.996 123.713 116.656 115.158 115.301 115.401 115.596 115.698 115.786 117.198 120.193 119.776 120.258 116.291 116.413 116.503 116.518 116.543 119.718 123.281 120.748 119.838 119.356 125.838 126.173 118.226 125.126 124.478 118.191 119.508 120.751 122.173 124.923 123.286 121.263 126.288 131.053 134.331 131.071 121.663 119.681 120.576 120.721 123.346 123.316 118.958 122.031 121.426 125.913 126.381 122.476 119.961 121.523 126.071 124.866 124.668 121.678 120.598 123.111 127.711 130.703 125.933
95.088 96.316 97.771 103.843 106.756 106.981 106.298 102.676 102.191 100.648 98.661 98.568 98.428 98.998 100.221 106.823 103.946 101.103 98.481 98.098 97.986 97.963 97.921 98.006 98.283 98.523 99.498 103.766 107.398 104.633 109.006 103.023 103.606 106.971 101.573 103.316 106.078 111.293 105.658 102.591 104.021 102.281 108.841 108.206 107.468 106.661 104.963 106.411 107.483 99.026 104.791 110.033 99.496 108.138 101.446 101.223 110.143 109.458 108.276 107.821 112.491 108.076 106.726 100.781 100.393 101.708 99.271 108.418 102.983 101.464 110.411 112.016 109.914 106.926 109.184 102.771 106.371 106.061 103.891 106.861 105.021 97.311 99.709 105.326 111.974 108.391 100.249 103.794 102.074 95.679 107.841 105.754 104.386 101.729 105.706 98.601 100.981 107.944 101.176 102.446 105.614 105.649 109.701 106.244 103.241 104.004 104.269 99.564 99.041 102.086 104.104 105.911 100.821 102.746 107.159 103.979 105.399 100.191 100.306 100.339 100.384 100.414 100.389 100.376 100.116 102.041 103.141 104.444 102.854 103.829 100.171 99.896 99.929 100.056 100.249 103.674 107.459 104.039 106.159 104.196 103.961 101.624 100.631 101.199 100.586 101.329 100.824 100.696 100.754 100.796 100.819 100.841 101.286 102.064 101.614 101.834 102.291 101.974 102.271 107.301 110.781 111.976 112.206 111.291 108.521 102.826 102.369 107.501 110.241 109.786 110.099 110.964 108.446 106.656 106.749 105.501 107.141 114.809 112.914 111.559 113.989 107.119 107.089 107.094 107.111 107.094 106.929 106.891 107.371 109.836 106.919 106.904 106.146 106.134 106.129 106.146 106.154 106.159 106.154 106.401 108.531 117.029 112.906 106.299 106.341 106.401 105.659 105.529 105.669 105.709 107.619 108.444 109.581 110.944 116.674 115.366 108.979 108.554 109.086 109.449 115.094 117.521 117.379 117.261 113.929 109.084 108.959 110.514 111.774 108.484 108.396 108.474 108.576 108.564 108.541 108.684 110.061 109.879 110.714 109.626 109.156 109.134 109.166 109.211 109.199 109.921 113.601 116.711 118.459 118.821 118.646 118.659 118.571 118.646 118.489 116.389 111.151 109.551 109.616 115.149 120.009 123.211 123.849 123.599 122.679 120.731 121.044 120.394 120.749 118.108 114.474 110.516 109.491 109.479 109.474 109.479 111.328 117.986 118.361 116.361 110.426 110.946 116.276 113.476 110.071 112.364 112.659 117.961 114.426 110.074 110.089 110.146 110.176 110.224 110.676 113.731 114.096 119.019 118.944 120.674 115.364 116.383 121.343 116.146 121.226 122.679 118.956 115.888 114.674 124.031 122.834 121.333 123.449 117.549 113.441 113.424 113.438 113.468 115.826 120.563 114.486 118.771 116.496 116.073 122.211 127.726 123.513 118.558 115.276 115.396 115.551 115.778 115.811 115.891 116.011 116.806 116.266 116.306 116.361 116.416 116.486 116.526 116.561 118.088 121.796 122.551 122.576 118.703 122.443 120.211 126.473 125.673 128.438 126.376 122.383 124.151 122.341 120.736 124.033 122.756 122.143 128.433 131.013 125.911 122.738 119.583 119.233 121.708 120.956 126.706 119.458 119.898 119.778 123.428 123.711 124.656 122.056 125.586 126.598 126.041 120.568 120.871 120.488 126.956 127.011 124.743 125.656
95.021 95.336 96.991 99.093 101.731 101.648 105.616 103.853 105.546 102.501 100.841 98.611 98.603 100.303 101.173 103.693 106.823 100.806 98.723 98.306 98.168 98.158 98.123 98.138 98.456 98.753 99.173 100.438 99.386 104.138 100.471 98.933 100.061 101.401 98.643 105.381 103.191 105.071 104.578 102.218 99.513 103.158 107.293 108.473 107.578 106.528 105.151 103.718 104.221 101.176 104.933 107.483 102.088 110.156 98.561 103.408 118.266 109.878 98.071 112.851 105.983 104.491 104.871 101.776 102.573 100.436 107.523 110.288 101.311 105.379 101.276 103.629 103.091 104.086 103.754 103.784 99.224 99.554 100.434 107.606 107.049 106.749 102.059 107.671 111.901 105.236 97.874 104.636 99.289 98.444 102.244 96.124 98.179 103.851 106.224 101.299 99.379 97.561 98.001 100.849 105.281 101.916 107.704 107.846 108.434 107.909 101.389 99.389 99.976 102.761 107.676 106.801 102.066 107.341 105.589 103.579 100.269 100.344 100.381 100.441 100.489 100.531 100.519 100.531 100.374 100.021 100.891 102.771 100.576 100.136 99.964 100.024 100.169 100.509 100.836 101.621 103.719 103.599 101.871 102.374 100.866 100.806 100.706 100.666 100.694 101.079 101.384 100.804 100.814 100.941 100.951 100.936 101.096 102.011 101.789 101.849 102.416 101.966 101.986 103.864 109.321 111.479 112.119 111.956 110.594 104.836 102.999 106.446 109.286 107.736 111.769 109.081 107.739 107.121 105.261 105.334 105.454 109.369 109.589 108.149 108.699 107.184 107.101 107.114 107.109 107.094 107.004 106.896 107.066 109.401 108.189 106.894 106.764 106.146 106.131 106.141 106.154 106.176 106.179 106.239 106.456 108.161 110.216 107.454 106.944 107.231 107.044 107.164 108.406 108.821 108.986 109.236 109.586 109.754 113.584 115.791 110.569 108.449 109.076 111.261 114.056 117.296 117.226 117.651 115.206 109.521 109.066 109.329 112.026 109.954 108.526 108.566 108.686 108.711 108.676 108.804 109.651 110.611 110.216 109.336 109.219 109.131 109.141 109.531 110.014 109.654 112.251 115.959 118.366 118.644 118.546 118.549 118.251 118.116 116.956 114.904 109.764 109.251 112.401 119.726 122.619 124.606 123.966 123.879 122.696 119.259 117.331 116.204 113.004 109.718 109.514 109.516 109.501 109.508 109.509 109.521 110.116 113.341 120.061 118.019 117.041 113.831 114.343 113.779 109.949 110.019 110.069 110.351 110.101 110.144 110.174 110.216 110.251 110.304 110.354 115.054 114.691 115.806 118.174 114.224 114.159 111.986 113.438 122.946 122.664 117.434 124.641 121.366 116.736 119.699 120.991 121.911 119.709 113.429 113.279 113.534 113.559 113.278 117.861 120.563 115.478 117.628 119.411 117.398 122.668 125.241 123.688 122.613 115.403 115.498 115.633 115.731 115.831 115.956 116.051 116.188 116.281 116.341 116.418 116.443 116.471 116.493 116.933 122.901 120.493 121.478 121.753 117.926 118.751 122.868 128.896 131.031 128.568 126.973 123.253 128.818 121.926 124.708 129.948 127.556 122.866 124.183 129.078 123.533 123.023 122.141 122.081 121.886 120.288 119.668 122.063 121.016 122.086 121.118 122.646 123.631 123.791 122.076 121.903 121.606 119.863 120.813 127.033 125.676 126.573 123.833 120.021
97.456 97.463 98.443 102.671 103.748 102.918 108.413 109.143 105.981 102.806 101.951 99.838 100.328 100.856 103.901 106.031 105.938 101.621 99.028 98.641 98.773 98.723 98.666 98.636 98.878 98.946 98.958 98.933 98.966 98.958 102.488 105.716 100.518 101.178 106.136 111.793 105.888 106.416 109.846 102.373 100.881 100.878 101.228 105.196 107.023 103.896 100.106 99.126 103.378 100.078 101.483 101.606 101.966 107.821 99.798 102.953 110.268 106.706 111.526 110.541 103.731 104.936 104.388 107.036 107.343 104.851 106.211 107.286 102.923 100.451 98.324 99.814 101.581 100.724 106.066 100.709 100.581 97.609 98.534 107.379 99.434 102.199 103.986 104.611 111.596 102.256 101.129 98.919 101.059 96.364 99.849 96.446 100.464 101.189 101.226 99.304 102.606 97.934 98.771 101.064 108.154 106.101 100.191 109.854 109.021 105.946 103.874 101.486 100.006 101.899 106.879 106.516 100.714 106.974 102.624 102.944 100.379 100.429 100.481 100.536 100.586 100.591 100.586 100.606 100.521 100.236 100.091 99.981 99.996 100.029 100.156 100.359 100.921 101.561 102.864 107.011 109.416 106.839 100.814 100.936 100.996 100.909 100.851 100.806 100.841 100.849 101.559 101.106 100.914 100.996 101.069 101.104 101.151 101.564 102.324 101.879 101.941 102.149 102.054 102.254 106.531 110.534 111.851 111.354 110.484 108.776 105.856 111.844 109.591 109.136 111.996 110.819 109.549 106.101 105.261 105.359 105.459 105.729 110.516 108.804 108.304 109.099 107.119 107.119 107.119 107.096 107.079 107.021 107.149 108.819 108.484 106.766 106.589 106.141 106.154 106.159 106.154 106.191 106.211 106.911 108.166 109.936 111.976 110.679 108.609 108.834 108.929 109.214 108.959 108.806 109.849 109.801 109.989 107.964 113.269 116.034 110.606 108.534 108.644 111.934 113.969 116.376 117.446 117.769 115.939 113.124 111.321 109.399 112.164 110.561 108.786 108.669 108.786 108.886 108.831 108.854 109.264 111.044 109.704 109.279 109.306 109.154 109.146 109.306 109.184 109.194 109.976 112.269 117.069 118.411 118.109 117.354 116.006 113.876 116.126 115.601 114.089 109.819 111.981 119.491 121.906 123.444 122.259 120.459 117.819 112.299 109.521 109.539 109.516 109.529 109.556 109.559 109.554 109.551 109.556 109.563 109.559 112.711 118.294 118.761 118.089 115.121 118.576 115.004 110.056 110.071 110.133 110.176 110.179 110.214 110.241 110.294 110.336 110.386 110.414 110.471 111.496 111.201 115.039 113.934 114.394 115.291 116.904 118.294 115.186 116.389 116.476 118.346 114.024 119.846 118.688 113.321 113.406 113.611 113.371 113.429 113.529 113.356 113.508 117.346 119.803 121.588 117.993 116.293 120.593 126.666 116.758 117.978 115.496 115.611 115.718 115.848 115.948 116.013 116.136 116.228 116.326 116.366 116.438 116.453 116.411 116.493 116.608 117.323 121.981 121.536 123.018 123.363 121.203 124.693 124.018 125.928 123.618 126.531 125.896 129.526 122.936 122.481 128.916 127.771 120.283 126.136 129.308 122.978 120.708 125.703 124.833 123.888 120.091 120.021 121.631 122.518 126.046 120.646 122.641 127.376 127.216 121.833 125.278 123.001 124.931 128.346 122.448 124.386 123.796 120.316 121.781
102.401 98.251 100.481 104.551 104.318 102.971 105.148 106.381 108.686 107.126 103.676 102.498 100.456 100.523 100.913 104.446 105.538 102.171 99.383 99.318 99.251 99.076 99.113 99.233 99.266 99.178 99.148 99.138 99.113 99.106 99.131 99.723 100.483 106.346 110.568 113.926 104.193 113.793 114.596 112.541 107.146 104.368 100.063 105.871 104.026 100.606 98.778 100.986 100.758 101.446 100.576 102.881 98.126 98.231 98.233 106.428 109.303 100.718 108.343 106.433 102.946 99.971 103.171 106.628 112.388 110.823 105.146 100.506 101.291 101.294 99.819 111.584 107.076 102.811 106.239 98.031 97.879 97.696 97.536 99.576 99.014 108.426 107.581 108.324 108.309 106.546 98.626 101.549 101.361 100.051 96.581 95.676 100.036 102.166 102.816 100.226 97.589 101.114 99.324 104.084 107.746 102.869 106.684 112.589 109.144 104.934 108.974 104.929 101.594 101.249 105.056 108.971 103.414 106.996 109.214 105.824 102.439 100.556 100.591 100.604 100.629 100.624 100.621 100.639 100.621 100.446 100.276 100.114 100.209 100.409 100.991 101.096 104.349 107.249 109.816 110.329 110.616 109.111 106.096 101.476 101.086 101.051 100.989 100.921 100.929 100.941 101.204 101.531 101.049 101.059 101.174 101.216 101.241 101.386 102.256 102.259 102.004 102.231 102.884 102.059 104.416 109.414 110.444 109.366 107.459 105.166 108.026 111.321 113.949 109.669 109.269 111.256 108.621 105.349 105.246 105.354 105.469 109.064 112.639 109.361 111.249 110.361 108.831 107.136 107.126 107.114 107.234 107.121 107.096 107.684 109.751 106.686 106.429 106.194 106.264 106.179 106.186 106.206 107.851 112.359 113.949 109.434 110.761 110.304 107.946 108.929 109.044 108.921 109.984 111.959 114.181 115.486 111.939 106.719 110.936 114.626 112.311 110.394 114.661 116.334 116.864 117.436 117.994 118.016 116.984 113.351 109.976 109.154 110.509 111.221 108.999 108.859 108.921 109.009 109.026 108.981 109.139 110.606 110.006 109.586 109.316 109.189 109.141 109.179 109.681 109.221 109.254 109.904 115.436 115.091 113.221 110.654 109.529 113.309 112.424 112.899 113.936 111.614 110.091 113.051 117.746 117.469 114.139 110.549 109.674 109.579 109.574 109.586 109.561 109.578 109.608 109.601 109.591 109.586 109.576 109.604 109.596 109.986 114.259 116.054 112.731 113.638 116.789 110.836 110.099 110.146 110.169 110.201 110.243 110.269 110.309 110.341 110.383 110.429 110.474 110.516 110.551 110.671 111.526 111.924 118.856 119.556 125.106 122.496 113.513 115.711 118.346 117.209 117.951 127.394 123.239 114.464 113.409 113.226 113.411 113.459 113.668 113.391 113.304 114.443 123.431 117.163 120.221 127.778 124.283 121.508 120.131 116.121 115.593 115.723 115.803 115.921 115.966 116.108 116.203 116.326 116.338 116.361 116.383 116.463 116.523 116.783 117.366 117.056 118.111 123.251 122.368 120.018 124.131 126.361 125.671 124.858 121.851 126.618 128.341 127.816 123.448 129.136 129.246 129.903 122.078 121.973 123.551 124.726 124.193 126.518 125.356 122.746 122.263 120.466 124.323 121.886 121.028 126.018 122.241 124.166 130.228 131.028 129.626 129.708 130.446 131.566 126.698 125.063 120.811 121.823 122.933
105.503 100.521 101.628 103.048 101.411 101.913 105.321 106.578 101.808 105.948 102.751 100.453 100.521 100.726 100.408 103.388 104.261 101.228 99.848 99.871 99.836 99.748 99.838 99.743 99.736 99.576 99.331 99.291 99.266 99.251 99.251 108.191 104.973 111.143 110.886 111.451 111.281 114.648 109.978 113.498 109.416 111.083 100.776 103.786 101.143 102.116 100.306 103.378 97.766 100.978 107.491 101.723 98.231 98.338 98.851 103.656 100.743 99.566 104.086 109.411 108.616 99.761 107.483 107.418 104.656 104.258 104.946 103.516 100.391 100.731 100.156 112.451 113.299 108.899 102.711 99.309 98.054 99.334 100.931 103.014 102.594 106.256 104.459 104.419 97.809 101.926 99.536 99.071 97.409 100.131 97.601 101.064 98.111 100.939 107.616 99.209 99.731 104.164 102.609 108.221 107.829 101.971 104.381 107.219 105.324 106.104 105.466 103.326 105.781 106.516 107.469 106.759 105.196 108.019 102.541 103.064 102.869 100.611 100.649 100.641 100.659 100.646 100.661 100.669 100.636 100.589 100.481 100.426 100.606 100.714 101.109 101.111 106.454 109.499 110.691 110.646 110.689 110.141 108.044 105.514 101.421 101.094 101.039 101.064 101.041 101.049 101.094 101.834 101.234 101.134 101.251 101.376 101.394 101.464 101.721 102.431 102.096 102.026 102.464 102.079 102.584 106.236 107.851 105.121 105.164 105.189 110.809 108.284 109.874 112.606 114.591 109.871 108.794 105.154 105.249 105.341 105.479 110.421 114.714 114.029 112.714 110.691 107.099 107.146 107.139 107.139 107.311 107.154 107.111 107.436 109.614 107.391 106.289 106.204 106.211 106.191 106.221 106.259 110.654 115.814 116.199 109.564 109.686 112.041 109.171 112.676 113.749 114.966 115.806 116.214 116.601 116.349 113.196 106.866 108.946 114.031 112.906 112.541 115.141 116.351 115.984 116.986 117.944 118.024 117.329 112.859 109.421 109.254 109.981 110.379 109.261 109.251 109.024 109.099 109.164 109.114 109.211 110.289 110.774 111.069 109.539 109.194 109.174 110.491 114.891 111.964 110.306 109.281 111.711 109.936 109.431 109.969 110.074 111.264 115.499 117.574 117.106 114.316 111.421 110.569 109.901 109.681 109.616 109.616 109.629 109.614 109.639 109.621 109.614 109.614 109.618 109.636 109.649 109.629 109.611 109.608 110.126 112.726 111.781 111.938 112.394 111.993 111.581 111.459 110.231 110.179 110.211 110.249 110.294 110.328 110.383 110.398 110.431 110.468 110.536 110.554 110.724 111.771 112.369 113.264 118.729 118.151 123.539 120.651 116.754 118.841 114.449 121.468 120.414 123.321 120.221 114.424 113.361 113.961 113.461 113.591 113.511 113.321 114.071 117.466 118.846 118.143 121.611 121.693 123.783 118.921 115.653 115.641 115.666 115.786 115.893 115.966 116.066 116.163 116.221 116.253 116.323 116.366 116.476 116.546 117.123 117.953 117.483 117.586 121.768 122.368 120.048 125.313 129.253 128.796 123.461 123.218 120.103 125.723 125.923 126.396 127.406 128.166 126.933 128.328 122.058 123.778 133.118 125.863 127.876 131.178 124.681 122.793 120.771 125.953 124.443 127.281 123.256 123.246 126.911 125.863 126.986 129.703 127.446 129.196 128.836 127.476 123.848 122.726 124.693 121.558 124.788
105.606 104.313 108.781 105.606 105.123 101.021 106.648 103.986 104.696 107.913 103.763 103.638 102.886 103.403 103.376 104.016 102.703 101.023 100.961 100.756 100.816 100.613 100.978 100.561 100.638 100.296 99.571 99.463 99.431 99.433 99.808 108.008 105.073 113.536 108.486 107.333 106.283 111.061 113.093 100.583 100.166 103.683 100.741 105.821 100.688 100.373 100.896 102.583 97.868 99.263 107.738 98.378 98.201 98.231 102.603 106.296 103.111 105.346 100.788 104.883 101.903 100.551 106.196 108.921 101.923 107.171 101.493 99.083 106.178 102.671 102.324 112.009 107.324 106.201 103.864 101.546 99.384 101.881 104.269 109.791 100.826 103.826 104.501 102.829 99.231 97.244 107.214 99.944 101.354 99.146 99.461 100.331 102.324 103.131 103.524 98.159 100.256 97.681 100.849 107.754 106.409 103.984 108.941 107.766 104.429 105.716 102.636 108.161 107.209 105.746 106.056 109.326 108.296 113.609 106.084 101.696 105.261 103.416 100.676 100.674 100.684 100.666 100.666 100.661 100.666 100.651 100.621 100.649 100.744 100.756 101.026 101.106 104.156 108.439 110.409 110.654 110.686 110.659 109.194 106.959 101.406 101.106 101.086 101.074 101.161 101.181 101.199 101.861 102.416 101.286 101.321 101.501 101.539 101.549 101.691 102.474 102.301 102.096 102.086 102.056 102.059 102.074 103.866 105.176 105.206 104.466 106.711 108.421 108.044 109.714 109.106 105.161 108.014 105.154 105.239 105.341 105.471 111.879 113.961 113.131 110.451 108.729 107.119 107.146 107.144 107.154 107.119 107.101 107.261 107.216 109.061 108.149 106.651 106.614 106.411 106.411 106.469 106.559 108.814 112.034 115.466 110.989 108.594 111.761 110.936 115.674 116.454 116.921 117.284 117.646 117.896 116.821 114.251 107.461 108.789 113.556 111.339 109.761 111.949 115.629 117.094 117.671 118.391 117.326 116.671 114.301 109.714 109.369 109.801 109.869 109.466 109.221 109.121 109.174 109.291 109.289 109.454 109.536 110.769 109.739 109.366 109.279 110.511 112.964 113.721 116.059 114.034 110.756 112.011 111.249 110.876 112.846 116.031 117.441 118.531 118.819 118.019 114.991 112.181 110.506 110.384 110.029 111.914 109.861 109.641 109.644 109.666 109.671 109.636 109.646 109.631 109.644 109.654 109.631 109.633 109.843 111.681 113.241 111.623 110.069 110.066 110.263 111.194 113.069 111.369 110.203 110.266 110.316 110.341 110.396 110.444 110.464 110.501 110.519 110.559 110.638 111.384 111.934 112.496 112.426 113.631 115.701 115.089 118.328 117.231 119.599 115.941 119.663 120.709 122.516 113.989 113.471 113.531 113.406 113.388 113.324 113.451 113.781 113.718 113.928 117.606 116.971 120.958 125.536 121.518 118.278 115.646 115.658 115.741 115.836 115.983 116.051 116.168 116.201 116.218 116.243 116.328 116.448 116.906 116.841 118.376 118.606 119.126 119.736 121.656 124.383 128.356 125.356 124.263 124.826 121.458 125.621 124.091 130.163 122.801 127.048 128.983 126.556 126.631 131.338 127.198 131.553 128.726 126.471 128.158 124.863 122.788 129.231 126.153 121.173 128.301 128.278 125.326 124.513 128.033 123.128 124.853 126.966 128.948 127.456 129.098 128.918 125.416 124.448 122.603 125.321 124.606
102.301 108.173 110.401 105.836 105.168 103.103 102.043 103.971 102.873 103.766 105.993 107.423 106.911 105.731 103.163 103.481 101.331 100.718 101.016 100.873 100.726 100.736 100.748 100.758 100.941 100.531 99.713 99.623 99.561 99.538 100.843 102.088 107.663 108.471 101.788 104.043 103.631 102.408 101.948 102.786 101.548 100.703 100.503 109.953 111.356 100.488 101.751 99.818 103.871 101.566 99.023 103.256 103.178 101.801 104.423 100.158 102.056 100.591 105.523 102.288 100.613 100.381 103.951 101.371 99.031 109.218 102.026 100.563 101.176 101.906 107.784 109.221 114.266 104.904 109.269 102.119 101.434 103.524 104.584 106.924 106.359 103.084 102.099 100.584 98.364 100.599 99.994 101.109 100.931 98.696 96.971 100.201 99.324 105.019 102.414 98.106 103.161 98.179 100.969 104.909 110.644 109.689 110.381 103.049 107.411 107.119 113.384 104.724 108.754 102.761 109.521 105.721 104.679 110.269 105.971 101.209 104.894 101.396 101.106 100.669 100.694 100.676 100.684 100.689 100.716 100.704 100.714 100.706 100.776 100.799 100.929 101.111 101.234 106.199 109.624 110.606 110.669 110.674 110.221 107.834 102.996 101.106 101.131 101.156 101.171 101.229 101.286 104.976 105.056 102.851 105.804 101.586 101.691 101.709 101.766 101.986 102.846 102.234 102.151 102.099 102.059 102.049 102.736 105.164 104.769 107.891 110.626 109.994 110.534 108.019 110.239 105.924 106.199 105.134 105.239 105.344 105.479 108.409 112.761 112.326 109.229 108.364 107.184 107.126 107.119 107.151 107.116 107.084 107.281 107.589 107.969 109.339 107.296 107.551 106.974 106.771 106.626 106.854 110.196 111.906 112.036 111.834 108.229 109.656 108.666 114.964 116.776 117.896 117.844 117.614 117.259 116.794 115.671 107.776 107.049 108.531 110.999 109.039 109.631 114.881 116.584 115.934 114.589 113.839 114.266 110.021 109.441 109.419 109.669 112.059 110.006 109.376 109.264 109.344 109.436 109.406 109.626 111.054 110.249 110.524 109.521 109.421 110.009 112.396 109.711 113.916 116.101 112.974 112.009 113.734 116.461 117.846 117.871 117.206 117.926 117.559 116.879 113.481 111.364 110.519 110.441 109.971 110.989 109.774 109.804 109.734 109.691 109.669 109.651 109.659 109.616 109.623 109.634 109.633 110.104 111.519 112.816 111.531 110.129 109.854 109.824 109.871 111.021 112.118 112.076 111.529 110.366 110.356 110.388 110.438 110.468 110.501 110.534 110.586 110.778 110.993 111.554 112.301 112.489 112.526 112.561 113.341 113.409 115.429 114.996 124.864 115.891 114.188 121.111 119.688 115.216 113.551 113.519 113.526 113.688 113.361 114.711 115.161 118.266 115.448 121.321 123.713 122.728 121.668 118.366 117.636 115.616 115.761 115.828 115.933 116.023 116.111 116.196 116.228 116.213 116.286 116.431 116.638 117.198 118.816 119.541 118.503 122.106 120.233 123.536 128.073 125.926 125.131 128.456 121.788 126.771 130.536 135.081 125.001 126.598 128.366 127.731 130.283 124.463 126.613 123.016 123.248 129.331 131.176 130.876 127.161 126.501 124.521 126.686 126.061 130.548 121.781 124.843 125.776 127.961 129.548 127.633 122.788 124.681 122.931 124.571 123.193 126.958 124.701 126.408 128.718 125.661
103.696 108.298 109.973 109.108 108.988 106.566 104.348 100.851 100.511 103.046 107.873 110.303 109.393 106.721 103.711 103.598 101.773 101.818 104.198 103.401 102.676 103.058 101.581 100.748 100.728 100.558 99.896 99.773 99.693 99.666 99.548 99.523 103.586 104.638 105.788 107.251 107.826 104.576 106.631 101.838 105.723 107.408 112.323 105.938 104.691 103.596 101.386 100.521 101.256 98.128 104.523 106.486 108.631 103.546 105.511 104.196 108.711 110.046 109.858 105.668 106.933 101.813 100.631 102.413 107.926 111.293 100.726 105.396 104.218 111.296 108.514 112.131 109.651 110.384 107.031 103.889 109.171 106.551 99.566 103.456 106.636 102.174 103.569 104.396 100.981 104.926 106.516 104.966 104.891 101.014 96.711 101.891 98.414 104.804 106.241 105.306 108.744 102.186 102.211 104.769 110.636 109.786 103.881 102.199 103.816 109.391 109.876 100.346 100.256 104.169 103.726 106.881 107.239 103.866 109.926 102.366 104.066 101.901 101.404 100.694 100.711 100.706 100.714 100.706 100.731 100.734 100.741 100.751 100.781 100.799 100.821 101.051 101.109 102.309 108.446 110.399 110.654 110.666 111.036 109.016 102.866 101.074 101.126 101.219 101.234 101.289 101.406 102.501 103.839 104.269 103.679 101.686 101.811 101.866 101.904 101.996 102.531 102.519 103.216 102.149 102.661 104.126 103.429 104.439 105.551 106.939 107.884 108.106 107.564 105.041 104.916 104.959 105.031 105.189 105.231 105.359 105.514 106.091 112.364 112.691 109.656 107.384 107.111 107.129 107.114 107.126 107.076 107.091 107.196 107.444 107.524 108.986 107.081 107.139 107.484 108.156 116.249 113.469 110.759 110.829 112.819 114.609 114.006 111.091 107.831 114.219 116.356 116.939 116.556 116.169 115.829 115.386 113.279 109.026 107.276 107.734 110.074 109.551 109.254 111.244 111.816 110.546 109.444 109.414 109.431 109.394 109.456 109.536 110.821 113.114 110.146 109.511 109.411 109.449 109.501 109.546 109.484 109.504 109.646 109.629 109.574 109.624 110.371 111.754 112.444 114.436 114.696 113.601 110.181 112.791 117.464 118.111 118.219 117.641 118.074 118.899 117.149 110.744 110.594 110.524 110.741 109.909 109.806 109.901 109.769 109.804 109.704 109.639 109.611 109.626 109.616 109.608 109.604 110.374 111.271 110.851 110.938 109.864 109.843 109.864 109.888 109.914 109.976 110.796 111.389 111.436 111.349 111.044 110.441 110.456 110.509 110.554 110.599 110.846 111.894 111.938 112.428 112.536 112.506 112.493 113.609 116.724 116.984 114.638 115.096 121.216 117.873 116.069 119.196 121.324 120.288 116.951 113.606 113.831 115.661 116.186 115.953 118.379 117.764 122.426 124.256 124.868 120.911 118.661 115.728 115.611 115.706 115.781 115.881 115.988 117.948 118.581 121.201 118.088 118.278 116.871 119.371 118.271 118.263 117.868 118.228 121.338 119.788 120.026 119.386 124.946 125.428 130.238 124.528 125.308 121.381 127.651 129.403 133.101 128.161 127.713 124.821 128.078 126.081 129.386 122.523 125.346 129.316 124.381 125.656 126.663 125.593 125.658 127.861 124.943 124.311 124.213 124.333 128.111 123.471 123.348 126.313 130.823 126.551 123.028 128.628 129.248 129.151 126.968 126.338 130.706 125.273
103.416 108.556 109.606 109.873 109.356 106.598 103.436 100.698 101.096 104.726 107.543 110.186 109.391 106.671 104.348 104.098 104.561 108.001 107.886 108.528 107.798 108.361 102.968 100.796 100.758 100.581 100.013 99.901 99.831 99.768 99.741 100.603 108.953 108.216 108.416 109.096 109.673 111.413 104.711 108.316 106.056 109.723 107.753 107.146 106.603 108.578 106.278 107.876 101.243 99.193 102.946 109.363 106.843 107.958 106.826 104.881 107.693 106.681 109.341 109.906 104.021 99.636 100.791 108.303 109.038 108.333 99.623 103.263 107.898 112.296 106.869 109.559 110.966 113.824 103.554 103.861 109.109 106.601 104.011 103.171 102.461 102.181 103.906 104.706 110.966 102.456 99.471 101.361 106.086 105.596 100.699 100.761 99.656 100.769 102.404 108.111 108.274 101.449 98.921 105.311 110.244 110.296 101.814 102.859 104.176 104.371 103.736 101.699 108.044 112.161 108.591 105.091 100.511 99.976 105.799 104.504 102.446 103.136 104.974 103.531 100.721 100.721 100.736 100.734 100.756 100.779 100.766 100.779 100.774 100.806 100.821 100.891 101.156 101.101 105.931 109.546 111.461 110.666 110.576 109.609 106.649 101.129 101.169 101.234 101.256 101.296 101.781 107.579 107.064 107.191 104.219 101.844 101.901 102.036 102.081 102.069 102.246 103.181 105.786 107.349 107.364 107.371 106.274 104.374 105.279 107.134 108.719 112.006 112.189 105.639 104.981 104.914 105.089 105.209 105.166 105.344 105.496 109.369 115.486 116.426 112.006 107.951 107.211 107.106 107.084 107.096 107.086 107.081 108.149 109.436 109.764 109.144 109.034 110.806 110.526 108.964 116.064 115.879 114.499 115.554 116.289 117.054 117.031 113.826 108.291 111.449 115.646 115.476 115.201 114.994 114.621 109.701 108.119 107.644 107.504 110.049 114.571 109.676 110.199 113.054 113.256 109.681 109.471 109.491 109.734 109.614 110.026 112.791 113.939 112.804 110.194 109.614 109.581 109.574 109.629 109.661 109.649 109.551 109.666 110.741 111.214 111.844 112.889 112.466 112.154 114.236 111.004 110.541 110.249 111.721 117.071 118.404 118.726 119.436 119.949 120.009 118.909 113.006 110.544 110.726 110.449 109.861 109.799 109.881 109.896 109.761 109.674 109.644 109.661 109.641 109.648 109.681 111.456 111.886 111.743 111.216 110.843 110.039 109.914 109.946 109.953 109.981 110.013 110.164 111.159 112.411 114.618 112.896 111.056 111.256 110.998 110.956 111.233 112.496 112.629 112.483 112.459 112.766 112.574 112.514 114.714 120.773 122.093 119.246 113.514 118.996 123.026 118.618 123.209 122.639 115.858 114.354 113.669 114.161 115.813 115.901 119.184 121.386 122.438 123.783 123.698 122.468 117.206 115.526 115.623 115.636 115.726 115.878 116.116 117.468 117.348 121.871 122.853 121.753 118.393 116.931 119.423 119.596 117.868 118.486 123.518 120.906 124.811 125.811 126.853 121.778 131.581 127.128 125.773 125.951 122.478 123.441 128.581 122.671 129.376 132.283 132.971 128.713 122.631 124.661 124.461 125.378 122.301 127.761 127.661 125.468 124.618 125.273 126.563 125.588 126.716 124.043 123.113 122.703 125.733 128.506 125.726 129.063 125.333 129.708 126.276 126.321 129.601 130.091 126.821 126.178 125.966
101.806 108.121 109.508 110.173 108.191 107.868 104.453 100.956 105.396 107.786 108.276 110.368 108.831 107.841 107.693 104.441 104.941 108.206 108.236 108.683 107.951 108.498 104.288 100.808 100.771 100.636 100.101 99.996 99.956 99.943 100.071 101.163 107.243 108.786 103.648 106.996 110.361 107.371 105.258 105.863 109.896 107.376 106.081 106.061 110.361 108.898 108.491 106.028 105.828 103.086 98.591 102.313 103.056 107.601 110.733 106.073 107.276 111.018 112.256 103.883 111.103 109.123 110.446 102.831 104.968 103.713 102.643 103.186 111.241 104.921 105.116 108.101 102.564 102.381 103.316 99.779 103.611 100.064 102.339 106.369 106.029 106.786 100.191 103.346 105.716 97.804 97.471 102.791 105.299 103.884 102.914 99.014 97.504 98.394 98.901 106.524 104.216 100.674 104.879 110.541 112.166 110.541 102.836 102.281 100.601 107.401 102.196 110.674 103.509 106.869 105.876 109.406 107.806 111.424 108.116 104.504 103.129 105.909 106.314 105.644 101.994 100.754 100.759 100.779 100.781 100.789 100.791 100.791 100.791 100.811 100.826 100.866 100.971 102.234 106.669 109.421 110.469 110.046 109.031 107.001 104.779 101.564 101.149 101.281 101.486 102.989 107.011 108.196 106.841 107.536 103.874 102.491 102.026 102.131 102.231 102.194 102.296 102.924 108.154 111.891 112.669 108.081 104.981 103.841 103.879 105.704 109.229 112.866 113.264 111.491 105.294 104.981 104.951 104.971 105.001 105.361 106.944 110.819 114.651 113.741 114.374 112.536 108.809 107.089 107.064 107.196 107.264 107.056 109.544 110.771 110.799 109.596 108.466 110.821 110.841 114.091 116.226 117.586 117.129 117.321 117.146 117.236 115.984 114.816 110.884 111.489 113.476 111.194 110.531 112.234 109.709 108.516 108.069 107.959 108.181 109.804 110.086 110.604 110.464 113.654 113.326 109.921 110.616 112.539 112.566 112.736 113.689 114.141 114.029 110.936 109.711 109.709 109.626 109.601 109.764 109.774 109.784 109.729 109.776 111.551 113.144 111.861 111.376 110.846 110.809 111.336 111.111 110.766 110.874 110.986 115.881 119.279 120.046 120.039 120.011 119.966 119.524 115.341 110.559 110.509 110.479 109.996 109.821 109.799 109.789 109.739 109.679 109.674 109.694 109.676 110.751 112.506 111.373 111.634 111.574 110.419 110.093 109.999 110.008 110.021 110.026 110.044 110.063 110.108 110.209 113.438 120.074 120.174 115.188 111.674 112.239 112.556 112.106 113.004 112.491 112.536 112.608 112.496 112.629 113.513 120.331 123.399 123.504 123.523 119.584 116.169 119.514 119.211 121.631 121.951 117.799 116.894 117.218 116.669 117.316 117.531 117.979 119.209 124.216 124.826 119.013 117.811 115.678 115.543 115.666 115.726 115.901 116.821 116.006 117.558 123.828 117.463 119.598 120.436 121.858 123.386 121.151 122.031 118.138 118.343 126.278 123.116 123.776 130.346 121.398 122.026 122.853 126.941 128.191 129.738 125.726 125.868 130.993 125.028 126.988 128.931 131.056 126.383 130.431 125.688 124.988 123.563 124.318 126.436 125.603 123.928 123.191 123.861 126.996 126.521 125.251 124.953 125.698 125.038 129.093 133.848 129.238 131.131 125.101 130.838 123.266 123.861 130.386 130.576 126.693 130.483 130.411
103.556 110.486 110.651 110.776 110.483 110.418 107.188 101.011 105.698 110.263 110.296 110.823 110.401 110.258 110.253 104.113 105.533 110.071 110.111 111.233 110.026 109.986 106.728 101.106 100.771 100.676 100.153 100.061 100.093 100.151 100.211 100.433 102.248 101.773 103.436 103.688 106.928 103.458 105.041 106.271 111.118 108.448 107.946 105.933 107.363 105.443 109.278 101.488 98.863 98.906 99.221 101.811 110.021 111.168 105.656 108.858 114.293 106.461 108.788 102.563 103.366 104.163 103.663 101.833 103.133 104.321 106.373 104.353 105.713 104.311 111.991 108.904 102.689 102.511 103.339 102.779 106.876 101.739 101.841 100.051 101.551 101.946 99.194 101.371 101.106 103.619 98.719 101.374 98.896 99.664 108.771 100.926 98.044 100.736 101.736 105.154 101.464 101.564 106.894 110.519 109.461 107.859 109.501 104.804 101.816 100.049 102.809 104.009 103.621 103.741 110.986 103.176 110.436 106.351 108.074 102.071 103.189 103.944 106.486 105.394 103.891 100.756 100.786 100.824 100.831 100.821 100.811 100.794 100.804 100.821 100.851 100.874 100.919 102.691 108.004 109.686 109.276 106.746 104.479 103.611 103.589 102.979 101.131 102.311 104.679 106.281 108.089 105.874 103.931 103.539 103.569 102.724 102.364 102.299 102.391 102.371 102.429 103.439 106.386 111.099 110.336 107.219 103.904 103.864 103.941 104.924 110.036 112.879 113.769 112.866 108.859 105.054 105.176 104.916 105.219 107.134 115.901 119.586 112.094 111.464 111.719 109.529 108.739 107.064 107.379 108.409 107.091 107.056 109.704 110.321 110.156 110.824 107.539 110.521 110.731 114.594 116.776 116.976 116.436 115.949 115.144 112.994 111.414 109.511 109.141 112.831 113.569 109.136 108.919 108.524 108.376 108.739 108.474 108.299 108.791 109.379 109.719 110.771 110.341 110.954 112.554 111.786 112.931 113.554 113.439 113.301 112.919 111.984 110.189 109.714 109.714 109.696 109.636 109.729 109.849 109.876 109.926 109.846 109.861 110.426 112.604 112.041 110.999 110.824 110.794 110.921 111.239 110.774 110.826 110.969 114.514 119.096 120.584 120.029 120.014 119.971 119.944 117.944 111.504 110.494 110.704 110.629 110.434 109.834 109.781 109.744 109.724 109.684 109.691 111.761 112.521 111.934 111.141 110.511 110.059 110.434 110.879 110.023 110.046 110.116 110.118 110.118 110.099 110.166 110.536 112.889 119.593 122.413 121.424 115.461 112.826 112.879 113.233 113.239 112.856 112.501 113.421 114.118 114.791 120.188 123.326 123.971 124.789 123.866 123.531 120.386 115.251 117.264 122.551 123.311 120.561 122.004 125.074 120.896 120.021 118.138 122.136 125.099 125.011 120.673 115.488 115.438 115.521 115.613 115.703 115.811 116.618 121.518 119.821 118.478 123.116 119.323 119.096 126.713 127.233 121.141 123.033 121.386 119.538 123.816 127.343 123.546 127.993 128.571 124.908 125.778 129.398 122.828 128.521 125.471 128.493 128.751 129.596 124.623 126.618 126.218 125.856 122.751 126.086 127.976 129.086 127.058 128.821 126.368 122.678 122.121 122.608 126.246 129.491 128.426 129.841 129.421 125.568 128.823 129.558 130.111 132.023 127.556 125.356 127.841 131.623 131.003 131.231 129.726 125.268 130.656 132.816
102.841 109.358 110.851 109.661 110.421 109.446 106.863 100.928 106.756 109.553 109.538 110.061 109.743 109.593 109.631 104.743 104.401 109.646 109.728 109.823 110.318 110.268 108.106 101.801 101.073 100.738 100.208 100.683 100.293 100.323 100.373 101.068 100.646 100.343 101.953 102.413 100.966 101.348 104.011 107.458 110.196 108.461 103.546 106.511 108.571 106.421 108.911 101.673 100.371 104.901 102.921 103.063 111.636 110.883 105.816 101.678 109.678 101.413 102.391 103.816 104.193 102.703 101.513 105.018 104.918 104.106 102.616 100.866 100.196 105.494 111.769 112.069 107.751 103.824 103.836 105.749 105.716 106.846 101.689 101.636 108.386 101.799 102.374 106.056 103.091 100.349 102.166 103.696 102.066 101.781 98.409 97.246 96.234 97.866 106.354 108.694 101.896 106.876 106.904 106.489 104.859 107.974 107.434 104.706 100.419 99.894 103.054 103.174 107.479 104.369 104.969 103.554 102.779 111.829 101.846 102.751 106.014 102.274 105.249 105.184 103.859 100.814 100.809 100.834 100.851 100.806 100.814 100.819 100.821 100.806 100.856 100.911 100.924 100.966 104.529 107.111 103.786 101.924 102.049 103.604 103.641 102.886 102.876 104.276 103.266 102.956 103.091 102.826 102.664 102.524 102.716 103.294 102.749 103.414 102.484 102.584 103.669 106.491 106.566 108.119 109.419 106.216 103.791 103.969 104.176 110.796 113.124 114.454 114.166 112.469 111.356 107.909 105.201 105.231 105.166 107.786 115.561 118.326 113.029 110.279 108.694 107.484 107.056 109.326 115.056 115.351 111.184 112.154 114.121 110.636 110.494 111.024 108.044 110.089 110.701 113.051 114.859 112.999 112.106 114.541 112.694 108.174 107.674 108.129 113.316 114.364 115.626 110.519 108.514 108.479 108.691 108.991 108.664 108.589 108.724 108.939 109.251 112.606 112.314 109.814 111.261 111.754 111.229 112.354 111.471 110.791 110.241 109.706 109.691 109.699 109.711 109.766 109.779 109.871 109.956 110.001 110.044 109.996 109.944 110.139 111.561 112.599 111.051 110.941 110.829 110.801 110.769 110.779 110.736 111.139 115.604 117.881 119.814 120.041 120.011 119.986 119.944 119.081 112.519 110.529 110.486 110.464 110.446 110.214 109.791 109.851 110.661 114.816 117.116 118.031 112.186 111.639 110.231 110.129 110.148 110.136 110.131 110.144 112.796 110.726 111.149 110.179 110.276 110.566 111.991 114.626 116.748 122.284 123.141 116.924 113.701 113.313 113.276 113.239 113.216 113.181 114.044 116.444 120.116 122.974 123.526 124.733 125.879 124.996 123.796 123.159 118.069 118.019 116.904 118.714 123.718 125.546 130.376 125.664 121.354 121.731 125.451 126.288 124.641 116.583 115.421 115.513 115.613 115.623 115.833 117.126 116.728 122.303 121.933 124.808 127.416 119.166 126.691 124.071 122.008 122.531 121.308 122.976 128.703 127.261 125.898 120.488 122.096 130.528 127.516 125.846 128.303 125.086 123.863 129.436 129.951 127.708 131.283 130.578 129.961 132.451 126.898 124.803 124.168 125.123 127.021 123.503 127.108 124.278 122.186 122.273 122.831 124.426 123.328 123.923 126.636 127.638 129.506 130.171 127.958 129.563 126.666 127.461 128.623 129.151 129.501 128.698 129.486 128.571 131.543 128.121 131.511
101.733 108.198 111.043 108.951 106.728 106.213 103.466 102.246 103.081 106.483 107.158 108.966 107.888 106.521 106.436 103.083 103.686 106.888 106.588 108.066 110.151 109.656 106.998 104.406 103.011 100.741 100.673 101.716 101.068 100.841 102.406 101.133 100.998 101.633 100.801 100.343 100.371 103.366 101.546 105.288 105.486 108.471 106.238 107.218 109.168 106.553 108.096 100.658 107.191 105.611 103.258 109.898 116.848 99.556 101.626 104.593 105.698 104.511 100.511 102.246 106.666 107.976 101.306 106.901 103.586 103.721 102.008 101.366 100.428 103.574 112.874 116.839 111.249 106.846 104.504 102.249 102.936 101.921 100.541 104.636 105.144 103.921 108.934 105.941 104.889 101.996 103.839 104.889 107.614 102.174 99.081 96.681 96.336 98.024 106.991 111.474 104.874 105.666 107.956 99.136 103.711 107.199 104.211 103.311 100.881 104.429 106.419 104.474 107.954 110.104 104.669 102.701 102.234 101.211 107.386 106.391 104.024 101.656 104.684 103.126 100.781 100.819 100.811 100.841 100.846 100.861 100.831 100.836 100.831 100.839 100.854 100.916 100.959 101.004 101.316 103.224 102.536 100.871 101.036 102.156 102.376 104.206 106.089 105.389 103.034 103.021 102.956 102.894 102.771 102.676 102.894 103.694 103.219 103.496 102.646 102.741 103.436 106.514 107.651 109.499 110.276 108.359 103.821 104.879 109.559 113.096 113.876 114.736 115.394 113.981 112.701 111.279 108.331 105.169 105.049 105.534 108.126 110.631 109.639 108.241 108.349 109.279 111.161 113.699 115.269 115.966 115.881 116.166 115.159 111.734 110.176 111.019 108.949 108.899 110.674 111.401 109.161 108.394 108.054 109.409 108.126 108.091 107.691 109.489 114.909 115.489 116.831 116.019 110.571 108.614 108.779 109.059 109.416 109.411 109.436 109.716 109.421 113.636 113.556 109.764 110.096 114.549 114.096 109.621 109.654 110.559 109.706 109.714 109.774 109.769 109.774 109.826 109.879 109.931 109.984 110.106 110.151 110.154 110.091 110.206 110.929 113.099 111.204 110.861 110.839 110.821 110.764 110.794 110.714 111.246 114.381 117.351 119.419 120.046 120.009 119.996 119.949 119.754 117.676 112.021 110.521 110.479 110.616 110.179 110.004 117.731 119.226 123.444 123.779 123.593 116.929 110.549 110.186 110.206 110.214 110.216 110.224 110.221 112.681 112.289 116.606 110.559 110.906 111.486 111.444 112.426 114.611 119.356 120.159 120.751 116.241 113.669 117.269 116.886 113.231 113.334 116.341 116.901 117.376 121.651 123.534 123.836 125.116 124.949 123.831 122.606 120.281 117.474 120.466 123.106 121.123 126.813 123.903 122.486 125.761 125.674 125.644 125.496 119.209 115.403 115.488 115.553 115.633 115.666 116.296 122.451 121.048 122.951 124.218 126.513 121.156 123.998 126.893 125.068 126.116 120.533 121.481 122.231 123.071 123.556 124.251 126.903 121.591 127.698 126.416 126.941 128.058 125.556 130.656 131.826 135.116 132.101 132.396 129.551 129.486 129.726 127.641 123.803 129.336 125.741 123.001 125.616 127.016 125.366 122.871 122.643 123.048 122.711 123.448 127.086 131.023 132.446 129.281 129.546 128.333 127.968 128.108 131.403 127.606 130.648 127.288 129.731 132.518 128.148 125.388 125.673 128.181
102.281 108.473 110.668 108.898 102.888 101.598 101.531 102.283 101.576 101.478 102.286 103.841 102.428 101.726 102.573 101.558 101.558 101.881 102.031 107.196 110.683 109.568 105.981 103.931 102.538 101.028 100.816 101.743 102.523 102.461 102.618 101.846 100.621 100.978 101.123 100.486 100.493 102.908 104.448 103.733 104.391 107.668 105.298 103.696 109.406 109.078 105.888 101.836 104.853 112.251 109.501 109.991 111.343 108.316 101.173 109.173 109.846 109.058 106.948 101.928 105.896 101.518 103.788 106.053 106.188 100.943 100.903 102.518 101.311 107.541 110.604 112.044 105.504 102.641 104.159 105.299 103.319 105.316 100.996 100.229 102.994 104.016 110.846 108.021 107.609 104.414 104.524 103.659 99.721 98.556 99.971 97.314 98.266 100.014 108.651 110.224 102.691 109.494 104.361 99.081 106.111 106.346 104.909 109.809 108.966 108.491 110.196 110.779 112.489 109.696 101.959 102.719 105.346 105.744 106.546 104.944 101.294 101.516 103.259 103.014 100.821 100.824 100.834 100.829 100.856 100.849 100.839 100.841 100.869 100.856 100.881 100.936 101.004 103.804 104.876 106.066 103.259 100.971 101.866 104.029 106.249 105.954 106.344 106.749 107.116 109.051 105.351 103.014 102.914 102.786 102.796 102.871 103.649 102.659 102.689 102.849 102.974 103.354 106.711 110.621 107.436 106.139 103.854 104.504 107.761 111.966 112.364 113.239 115.019 115.249 113.694 113.129 111.766 106.236 104.994 105.181 106.701 108.959 108.346 107.319 107.696 110.781 115.241 116.046 116.254 115.669 116.241 116.974 115.764 112.734 110.904 111.629 110.356 108.129 110.696 110.339 108.361 108.596 107.886 108.021 107.701 107.776 107.751 108.131 112.129 116.009 116.279 112.194 109.579 109.244 109.299 109.936 110.124 109.986 109.834 109.641 109.409 110.279 110.209 109.476 109.754 114.481 115.884 109.646 109.664 109.711 109.731 109.759 109.761 109.791 109.856 109.896 109.914 109.979 110.066 110.129 110.201 110.261 110.264 110.301 110.566 112.804 112.184 110.864 110.849 110.841 110.836 110.809 110.759 111.636 113.301 116.211 118.331 120.461 120.044 120.014 119.916 119.626 118.351 112.074 110.514 110.444 110.176 110.526 117.004 120.774 120.454 124.824 125.024 125.486 125.341 115.271 110.321 110.278 110.256 110.243 110.256 112.313 113.938 118.471 113.871 112.354 114.126 112.044 112.214 112.206 112.786 113.841 115.269 116.748 116.776 117.721 118.641 118.701 116.556 113.291 114.611 117.024 116.934 117.796 121.996 123.529 123.951 123.754 123.481 120.931 116.468 115.221 122.141 120.291 119.206 121.269 121.839 124.559 129.261 130.271 125.971 118.284 115.666 115.463 115.516 115.596 115.648 115.643 116.553 117.486 118.651 124.473 127.353 127.973 120.431 120.953 119.723 125.806 125.933 122.881 123.088 125.008 123.301 122.858 125.643 126.213 125.288 126.563 128.746 128.076 127.606 128.386 130.468 133.793 134.711 130.791 127.778 126.848 127.226 128.526 127.433 127.308 124.291 128.883 125.336 127.716 125.758 128.086 125.756 122.681 122.656 122.683 125.416 130.348 130.068 131.443 131.791 128.776 129.188 129.858 130.401 134.986 129.128 132.353 133.381 137.646 136.331 130.566 129.728 127.591 129.163
103.156 108.291 110.666 108.798 104.193 101.666 101.606 102.638 102.933 101.671 101.671 101.566 101.596 102.233 102.108 101.921 101.751 101.651 102.298 107.458 110.281 109.506 106.806 104.541 102.093 102.908 102.358 102.051 102.236 101.553 101.078 100.761 100.683 100.636 100.601 103.653 101.756 102.656 104.053 103.056 104.248 103.376 102.261 102.408 105.378 104.986 103.561 104.116 102.961 105.221 106.348 108.778 107.491 103.911 109.643 106.343 105.471 109.831 103.553 105.643 104.088 107.501 108.856 110.511 106.611 102.981 101.468 107.618 103.238 113.706 110.881 107.791 108.426 101.974 102.081 103.121 103.716 104.814 100.339 99.564 101.464 107.296 109.226 109.024 106.301 101.559 111.111 107.766 100.746 102.751 101.284 97.169 97.676 99.486 106.754 109.714 108.756 108.936 105.719 105.344 113.236 110.034 111.079 108.491 113.961 107.896 112.056 115.409 111.739 105.451 102.269 105.241 108.701 105.841 104.981 101.114 101.691 101.674 101.539 101.746 100.971 100.811 100.839 100.839 100.841 100.849 100.871 100.874 100.894 101.781 104.769 102.366 102.716 110.264 112.569 119.394 115.196 106.719 104.049 103.739 106.041 106.136 108.909 111.116 112.049 111.999 109.919 104.369 103.804 103.226 102.879 102.899 103.671 103.334 102.866 102.956 103.119 103.276 108.451 105.946 110.666 109.369 105.889 106.304 104.406 108.629 109.456 112.251 113.829 115.636 114.919 113.546 113.556 111.341 106.311 104.969 106.639 110.461 110.766 108.301 107.141 109.589 114.891 116.629 116.264 116.276 116.271 116.196 115.884 113.819 109.989 108.954 108.511 108.166 108.361 107.789 107.634 108.396 108.364 109.086 107.876 107.981 108.181 108.309 110.021 111.896 111.494 109.074 109.214 109.939 109.729 109.384 109.366 109.249 109.366 109.381 109.296 109.334 109.419 109.499 109.554 111.476 112.066 109.661 109.681 109.729 109.724 109.804 109.771 109.849 109.934 109.996 110.069 110.189 110.261 110.246 110.331 110.396 110.424 110.369 110.569 111.754 112.699 110.854 110.871 110.844 110.846 110.836 110.796 110.769 110.904 112.554 116.921 119.631 119.874 119.261 118.661 117.901 115.299 111.149 110.536 110.699 111.599 115.381 120.761 117.054 118.706 125.531 124.169 125.236 126.554 120.739 113.974 110.394 110.336 110.346 110.334 111.444 116.108 115.796 114.311 111.721 111.834 114.976 112.974 112.736 113.276 113.854 114.151 114.756 116.846 118.061 118.631 119.076 118.669 116.584 113.424 114.819 116.659 117.211 118.216 121.886 122.901 122.426 120.828 116.684 114.044 114.224 115.156 115.271 119.056 118.356 119.776 124.014 123.586 124.906 120.061 115.343 115.434 115.488 115.548 115.591 115.641 115.643 115.698 117.323 118.728 123.536 121.408 123.483 122.791 121.841 121.318 118.981 125.068 124.488 128.033 127.266 121.273 123.448 127.813 128.938 130.886 129.986 127.751 128.853 132.371 133.551 127.206 128.683 128.773 124.831 124.681 126.153 124.253 125.693 131.006 127.501 124.851 127.121 132.416 127.983 128.121 127.943 126.723 125.843 123.131 123.136 123.318 127.566 129.881 127.793 125.986 128.151 131.273 129.443 134.508 133.366 131.423 133.926 136.661 138.008 136.593 133.771 132.608 132.998 131.711
102.808 103.668 104.228 103.113 102.238 102.528 102.636 102.051 102.348 103.351 102.091 101.768 101.868 102.398 102.691 102.788 102.293 102.726 102.433 104.611 105.093 105.061 103.768 102.896 101.836 102.758 102.833 102.298 101.363 101.073 100.946 100.871 100.798 100.781 103.103 108.746 104.236 104.758 104.561 102.971 102.278 102.811 104.771 107.598 103.608 102.796 104.001 106.171 100.956 100.451 104.153 107.796 111.338 108.976 113.296 103.361 106.081 103.058 101.583 105.736 106.666 106.731 107.246 102.633 103.718 107.693 110.943 109.818 106.833 114.236 108.966 110.616 103.799 100.856 102.449 105.919 107.766 106.856 104.006 100.789 101.294 104.149 102.396 104.789 101.799 101.271 112.661 107.366 100.891 101.244 100.739 98.236 97.221 99.814 102.599 108.079 111.354 111.534 108.104 112.176 111.444 111.556 109.976 112.164 116.059 109.961 111.954 112.636 110.666 104.169 106.514 104.304 107.384 106.346 103.166 101.639 101.854 101.551 101.956 101.824 101.446 100.909 100.854 100.844 100.854 100.871 100.899 101.851 103.254 105.449 109.216 106.469 110.776 109.124 117.471 123.211 120.701 111.034 104.019 103.579 105.486 110.666 112.294 112.906 113.326 112.461 109.944 103.661 103.596 104.191 103.001 103.026 103.096 104.046 103.186 103.051 103.234 103.931 105.389 105.171 111.606 115.276 117.369 107.056 104.324 104.549 106.916 109.254 112.406 113.886 115.216 114.151 112.496 109.891 106.256 105.016 106.064 113.064 117.969 110.704 109.364 110.031 114.201 116.189 116.101 115.734 115.254 114.719 113.341 111.376 107.866 107.654 108.294 108.919 107.824 109.641 114.299 118.159 115.521 112.664 108.429 108.369 108.531 108.724 109.419 109.954 110.059 108.884 109.009 109.006 109.056 109.059 109.119 109.311 109.961 109.481 109.344 109.404 109.489 109.496 109.554 109.729 109.629 109.631 109.629 109.704 110.884 110.999 109.894 109.966 110.834 111.006 111.054 111.729 111.224 110.401 110.461 110.544 110.561 110.531 110.599 110.766 110.876 110.889 110.899 110.861 110.839 110.829 110.789 110.794 110.849 110.909 114.871 118.366 117.819 116.089 114.774 112.244 111.691 112.101 112.451 110.949 116.884 120.809 118.934 113.509 122.304 125.129 122.134 124.016 125.641 125.418 122.118 114.409 110.474 110.414 110.398 110.581 112.534 112.856 112.014 112.309 112.449 113.126 115.636 113.401 113.776 113.879 113.831 115.056 117.544 118.039 118.218 118.676 119.099 118.614 116.014 113.209 114.593 117.026 117.251 117.879 120.953 120.096 114.476 114.336 114.174 114.334 114.559 114.779 118.936 121.468 122.169 123.021 118.061 115.681 115.346 115.418 115.474 115.493 115.578 115.573 115.631 116.061 115.728 115.986 117.068 117.716 119.893 122.421 120.983 126.206 119.893 122.153 125.321 120.566 123.241 122.688 126.181 123.228 125.241 127.033 130.756 127.536 125.018 126.328 128.948 128.618 133.506 132.378 132.223 127.551 126.576 126.881 128.358 126.666 127.253 127.296 126.121 130.553 128.971 128.808 130.441 128.988 124.066 124.321 124.868 123.376 123.816 126.708 129.513 129.748 129.241 129.471 130.461 131.271 132.043 129.523 129.386 134.033 133.353 131.828 132.276 130.233 133.196 134.188 133.508
107.196 107.398 107.121 105.758 104.643 103.221 102.273 102.971 102.428 102.543 102.236 102.163 102.386 102.396 102.558 103.303 102.811 102.228 102.296 104.423 105.456 106.083 105.153 105.121 102.363 102.368 101.928 101.608 101.463 101.168 101.056 101.016 100.953 102.121 106.531 107.856 107.161 105.791 104.848 103.208 102.198 103.786 111.528 108.886 104.488 107.738 104.576 107.923 108.891 104.418 101.488 103.063 106.878 104.558 104.871 109.071 103.673 103.086 103.261 104.266 105.253 105.213 106.983 105.583 104.836 110.821 106.921 106.261 105.481 107.461 118.699 114.789 106.186 103.749 110.469 114.501 110.984 111.241 106.101 104.851 103.219 105.639 101.251 100.904 103.424 101.841 106.331 100.256 104.924 105.396 101.921 97.619 97.749 97.874 104.106 100.469 104.064 108.966 110.956 113.671 113.036 114.191 103.644 112.059 113.736 109.991 109.601 113.279 113.144 111.051 105.521 104.519 105.079 104.821 101.336 101.444 101.316 102.016 102.491 104.824 104.831 105.024 102.574 104.746 100.911 100.891 100.909 105.159 105.599 108.766 110.934 108.789 113.839 113.339 118.696 123.054 119.906 109.144 105.264 103.556 106.836 110.814 113.004 113.314 113.304 113.174 111.389 106.089 103.226 103.326 103.084 103.111 103.184 103.921 103.489 103.246 103.336 103.466 103.526 105.041 106.291 112.136 114.701 108.681 104.379 104.546 104.726 107.794 111.874 113.439 113.864 112.811 109.131 105.014 105.026 105.104 106.016 110.934 113.851 110.514 109.206 110.224 113.491 114.601 113.956 112.606 110.736 108.859 107.421 107.261 107.379 107.724 107.776 108.526 109.291 112.819 118.199 122.636 126.274 116.449 109.861 108.761 109.456 109.316 109.034 108.836 108.769 108.789 108.854 108.954 109.006 109.034 109.124 109.204 109.261 109.304 109.396 109.564 109.846 110.494 109.976 110.104 109.681 109.746 110.654 113.409 112.046 112.944 111.356 110.106 111.714 111.424 111.486 111.886 111.106 110.569 110.551 110.661 110.699 110.704 110.679 110.824 111.036 111.334 110.894 110.851 110.839 110.831 110.796 110.829 110.884 110.909 112.161 115.281 114.476 112.696 111.951 112.479 113.181 119.916 118.589 118.241 120.804 119.481 120.819 122.336 125.694 122.741 115.834 120.984 125.398 124.763 125.396 116.163 110.834 110.561 111.036 111.429 112.019 112.261 112.399 113.016 112.909 113.389 113.826 114.381 113.854 115.721 118.648 119.436 118.046 118.038 118.409 118.313 118.726 118.831 117.931 114.524 113.404 114.949 116.679 114.291 116.591 114.114 114.106 114.181 114.316 114.491 114.834 115.151 120.489 122.346 121.531 121.771 117.916 115.358 115.426 115.498 115.461 115.518 115.508 115.598 121.928 117.723 116.961 120.513 122.731 117.936 124.523 125.376 122.591 126.163 125.036 120.816 122.561 123.768 120.578 124.848 125.901 123.791 127.923 128.886 130.196 131.558 126.888 125.056 127.083 137.311 139.913 135.861 134.386 134.866 128.423 128.203 126.121 132.756 130.976 125.523 127.723 131.043 130.431 128.656 130.596 126.503 129.093 128.846 127.408 124.878 123.561 124.133 128.433 130.996 131.886 132.056 132.561 132.936 132.116 131.608 131.273 132.236 133.138 131.671 130.393 127.938 131.591 127.463 131.311
109.356 109.446 110.456 108.723 106.141 103.563 101.973 102.251 103.118 102.326 102.246 102.606 102.273 103.481 103.163 102.461 101.943 101.893 102.263 107.856 110.158 110.023 108.823 108.383 103.541 101.933 101.691 101.573 101.533 101.258 101.193 101.143 101.123 102.236 104.978 104.928 104.338 104.153 102.666 102.248 102.263 104.343 109.038 103.216 111.688 105.951 107.741 109.696 105.538 106.191 106.011 101.541 104.536 103.018 107.546 105.648 102.438 103.253 103.041 105.731 106.326 106.623 105.533 108.048 103.861 108.136 106.136 104.861 104.618 113.194 112.794 113.809 109.599 109.941 114.861 111.696 107.479 107.806 111.341 107.471 106.946 103.726 103.436 103.989 101.784 102.434 101.929 107.016 108.171 107.354 101.926 98.584 100.299 100.394 105.826 105.484 102.559 102.671 105.219 110.591 110.894 113.304 109.056 112.984 112.839 110.984 114.619 109.544 111.031 109.804 107.054 110.401 103.476 101.594 102.429 101.574 102.159 103.049 106.106 111.624 114.476 110.386 105.969 109.774 104.806 100.929 100.914 102.291 103.609 108.671 105.161 110.329 119.159 115.069 113.006 114.389 113.034 106.041 103.649 103.581 105.239 109.169 112.336 113.256 113.291 113.309 112.579 109.314 104.441 103.161 103.144 103.221 103.274 103.349 103.389 103.436 103.429 103.596 104.429 105.831 107.579 107.259 107.419 104.834 104.454 104.596 104.699 106.649 111.144 112.999 112.249 109.654 105.071 105.069 105.224 105.371 105.771 109.099 111.406 108.959 108.974 107.429 109.286 109.394 108.036 107.516 107.286 108.061 107.704 107.279 107.364 107.484 107.599 108.051 109.454 114.954 119.179 126.149 127.211 115.064 111.274 108.819 108.584 108.781 109.204 108.784 108.709 108.786 108.904 109.914 109.089 110.674 112.396 112.456 109.249 110.249 111.086 110.339 109.531 109.534 109.966 110.906 111.816 112.749 112.826 112.906 113.201 113.664 112.964 110.496 110.631 111.189 111.356 111.111 111.059 110.701 110.649 110.736 110.856 110.846 110.801 110.939 111.524 113.424 111.404 110.886 110.881 110.849 110.854 110.899 113.504 113.599 111.884 114.804 117.184 116.921 114.379 111.329 113.164 119.551 119.381 120.296 120.519 122.251 126.116 126.269 123.939 120.951 113.559 116.796 121.924 122.406 122.544 119.891 111.386 110.931 112.081 114.099 114.396 112.743 113.074 112.826 113.774 115.114 113.779 113.866 114.611 120.648 123.036 124.133 119.576 118.051 118.131 118.386 118.354 118.321 114.888 113.401 113.614 114.356 114.174 114.139 114.351 114.221 114.291 114.351 114.981 115.736 116.014 116.529 116.864 119.591 120.234 116.976 115.854 115.404 115.444 115.429 115.461 115.501 115.516 119.111 124.461 124.126 121.288 123.451 123.653 122.928 124.456 127.363 127.823 124.378 119.991 119.743 121.603 121.023 124.448 124.668 127.758 126.803 126.841 132.556 129.958 126.156 128.768 130.576 129.053 133.333 134.383 136.876 135.008 132.948 127.931 125.221 132.821 129.196 126.736 128.746 128.201 129.686 127.416 127.316 128.033 131.871 132.033 132.208 129.233 125.813 123.816 123.743 124.368 126.691 130.896 132.163 132.963 128.761 128.993 127.213 127.148 133.946 134.848 135.921 133.431 132.543 130.973 129.478 132.831
108.013 109.261 110.626 108.903 107.451 102.323 102.013 102.101 102.211 102.713 103.036 103.076 102.116 102.323 102.456 102.088 101.978 101.953 105.923 108.313 110.278 109.456 108.406 108.428 104.586 101.821 101.713 101.598 101.518 101.423 101.331 101.278 101.446 103.843 104.113 103.818 103.363 102.321 102.298 102.321 102.336 105.343 103.531 106.136 110.641 112.831 110.366 104.501 106.558 104.141 106.173 101.326 101.536 102.968 108.481 104.596 105.261 101.896 102.238 106.443 106.961 110.173 110.336 107.828 103.901 106.796 105.096 101.693 105.506 113.379 114.236 110.049 117.494 114.696 110.961 106.564 101.554 106.929 107.281 109.871 105.746 105.479 104.569 103.411 104.726 102.809 99.511 104.966 107.009 104.926 105.566 99.971 100.941 99.504 107.516 109.264 101.611 103.899 106.936 111.644 104.429 103.936 107.659 110.429 108.666 107.959 106.289 106.499 109.881 110.599 108.639 109.396 103.776 102.581 103.866 105.364 105.574 106.471 108.539 114.869 110.791 108.034 103.281 101.879 105.159 102.696 102.004 105.916 111.059 114.954 106.976 110.414 116.144 112.511 104.899 104.379 103.684 103.966 103.569 103.576 103.604 105.114 110.439 112.876 113.326 113.386 113.184 111.781 109.821 105.286 103.259 103.384 103.446 103.469 103.501 103.586 103.591 103.666 104.329 106.401 105.514 106.424 104.794 104.856 104.511 104.641 104.819 104.916 108.314 111.219 108.524 106.414 105.084 105.984 105.589 107.551 109.856 109.086 109.439 106.689 108.609 107.324 107.079 107.409 107.809 107.426 107.174 107.221 107.209 107.326 107.661 107.984 107.766 108.041 109.389 112.714 120.586 123.086 124.214 116.146 114.246 111.811 108.494 108.734 108.956 109.049 109.759 108.849 109.001 113.144 115.016 111.716 115.651 113.176 111.959 112.814 110.584 111.064 111.379 111.974 111.424 111.576 111.511 112.134 112.109 112.269 116.466 116.004 112.501 110.886 110.981 111.254 111.399 111.181 111.611 110.839 110.791 110.831 110.966 110.989 110.989 111.129 112.014 113.681 112.876 111.294 110.996 110.941 113.729 116.026 117.969 116.369 115.584 116.281 118.919 117.769 112.209 110.456 113.044 120.416 120.304 118.991 121.336 126.881 125.289 123.589 119.304 113.069 112.351 112.919 113.944 114.851 118.961 119.446 112.771 111.626 114.101 116.034 116.229 113.481 113.133 113.559 113.858 113.718 113.901 115.606 120.699 124.256 124.618 124.694 124.203 119.896 118.211 118.121 118.139 116.019 113.466 113.623 113.849 114.354 114.824 114.364 114.414 114.444 114.489 114.526 114.794 116.179 116.248 115.624 115.356 115.299 116.366 115.306 115.381 115.383 115.414 115.451 115.453 115.478 115.546 116.748 122.741 124.113 122.133 121.951 122.611 123.826 123.598 119.511 123.961 122.438 123.486 124.401 122.868 122.381 124.831 125.398 128.443 130.036 133.231 133.851 130.128 124.533 128.936 126.103 131.021 132.551 132.711 136.866 131.211 125.181 131.561 128.383 131.003 132.468 131.153 130.773 131.678 128.543 128.166 130.638 127.016 125.418 128.281 127.266 128.123 127.801 124.978 127.616 126.523 125.566 133.656 135.148 135.086 137.301 132.061 129.051 131.618 135.116 135.376 136.348 132.928 131.553 127.373 129.426 130.141
109.233 109.448 110.631 108.696 105.906 102.288 102.036 102.136 102.191 102.261 103.201 102.561 102.086 102.416 103.296 102.458 102.008 102.076 105.391 108.191 110.326 109.573 108.633 108.586 103.711 101.836 101.753 101.648 101.586 101.528 101.453 101.646 102.553 104.631 103.121 102.406 102.346 102.356 102.366 102.361 103.163 104.303 103.016 104.891 109.908 112.756 114.658 106.841 105.171 106.398 106.538 105.116 102.011 110.171 103.923 106.466 102.988 101.938 103.511 109.823 105.651 106.718 108.493 105.506 105.948 105.321 102.173 102.473 103.478 112.466 116.246 113.979 112.301 111.901 110.749 104.151 102.221 106.406 110.359 102.596 101.094 107.814 104.641 108.091 109.634 108.484 103.759 102.034 100.951 106.399 103.661 99.631 99.749 102.639 107.734 105.009 103.719 102.371 111.796 104.901 105.944 110.946 113.519 111.256 108.501 106.554 104.756 108.911 109.236 112.316 109.176 107.906 103.674 105.866 110.029 110.159 105.436 106.289 108.659 109.921 114.946 105.546 107.726 103.139 104.476 106.461 103.394 106.596 115.851 119.476 108.356 106.191 107.264 105.161 103.621 103.154 103.206 103.569 103.654 103.561 103.586 103.654 108.061 112.121 113.311 113.364 113.296 112.521 110.814 105.811 103.321 103.469 103.574 103.561 103.634 104.246 104.121 103.781 103.884 103.994 104.029 104.129 104.489 105.184 105.144 104.711 104.864 104.989 106.461 107.919 106.176 105.149 105.469 111.409 116.946 115.189 111.906 106.486 108.351 107.156 111.866 108.634 107.091 107.109 107.136 107.274 107.419 107.679 108.149 108.691 109.204 109.206 107.939 107.929 108.114 110.724 118.091 117.581 117.109 111.819 112.806 108.864 108.554 108.629 109.804 113.046 111.836 113.069 112.154 114.116 111.094 114.206 114.851 110.729 112.326 113.324 113.416 113.456 112.736 110.816 110.776 112.714 113.601 114.531 117.039 117.606 117.829 118.061 114.069 111.214 111.199 112.429 117.291 115.394 111.611 111.256 110.936 110.936 111.064 111.144 112.349 112.921 111.566 113.801 112.971 111.956 114.366 116.524 117.856 117.199 116.184 116.544 117.716 117.701 114.191 111.659 110.424 110.441 112.401 117.179 118.761 119.316 124.089 125.439 122.274 116.164 113.294 112.799 113.251 112.444 112.493 112.608 113.799 114.061 114.328 114.138 114.669 116.149 115.284 113.449 113.629 114.153 113.718 113.979 114.929 119.281 123.629 124.883 125.864 125.556 124.743 123.983 119.666 118.106 117.714 117.626 116.296 115.566 115.694 115.969 114.481 114.611 114.703 114.721 114.701 115.746 115.926 116.299 115.453 115.379 115.258 115.274 115.341 115.346 115.379 115.404 115.424 115.398 115.416 115.516 115.633 116.726 122.296 122.823 121.246 124.271 123.506 119.828 117.166 117.706 122.278 119.446 125.401 119.673 121.143 123.163 127.971 124.283 124.398 133.136 129.706 131.611 127.961 129.991 133.006 129.728 132.981 130.156 136.606 138.076 129.688 129.493 128.343 131.313 129.741 132.258 131.426 131.858 131.478 131.943 133.358 131.536 128.803 130.316 130.598 125.691 128.108 126.878 126.838 128.846 129.438 127.121 135.488 136.791 137.316 138.323 134.343 131.716 134.216 135.421 133.638 131.991 131.321 129.543 131.068 130.038 127.613
108.071 108.903 110.601 108.898 107.666 102.083 102.043 102.143 102.196 102.618 102.291 102.066 102.081 102.711 103.223 102.088 102.063 102.016 104.401 108.216 110.353 109.473 108.651 108.678 103.838 101.948 101.753 101.713 101.676 101.618 101.941 103.766 104.746 104.246 102.483 102.416 102.373 102.423 102.418 102.768 105.181 105.178 104.241 104.453 107.963 110.956 113.736 109.613 108.653 105.626 108.941 104.261 108.666 107.411 106.271 105.301 104.203 102.211 104.761 110.326 104.171 104.133 106.193 105.763 105.598 105.911 105.593 105.673 106.706 115.244 114.409 113.341 112.981 113.126 110.624 104.631 101.884 102.196 101.349 101.131 106.249 103.419 101.779 104.264 104.764 107.616 107.151 100.659 103.704 102.391 103.171 100.304 100.661 100.826 104.696 104.906 109.629 109.471 112.601 108.101 106.341 111.251 114.031 111.841 107.029 106.051 110.676 107.316 104.756 106.399 110.669 103.631 105.144 106.959 111.871 109.434 108.921 108.436 104.734 108.826 113.139 105.514 104.049 104.811 104.824 105.036 104.589 104.194 109.516 109.876 104.734 103.759 103.216 103.201 103.184 103.211 103.209 103.281 103.511 103.556 103.594 104.806 109.181 111.819 112.971 112.904 111.876 111.846 106.429 103.584 103.466 103.559 103.604 103.651 106.156 108.414 109.111 103.941 103.996 104.141 104.186 104.256 104.386 105.251 106.271 104.966 105.286 106.774 105.456 106.424 105.486 105.689 106.836 114.569 120.399 121.856 110.604 109.546 115.179 114.771 113.781 109.751 107.081 107.411 107.999 108.709 108.414 108.819 108.569 108.266 108.286 108.211 107.804 107.874 107.946 108.536 109.426 109.716 110.591 109.539 108.461 108.494 108.544 110.056 109.601 114.321 115.719 112.559 111.471 116.094 112.521 113.526 112.331 112.956 115.499 115.911 114.356 113.176 112.726 115.024 117.051 117.651 117.589 117.711 117.999 118.891 119.721 119.541 116.516 113.484 111.869 114.349 119.254 121.129 113.129 111.739 111.109 111.034 111.159 111.271 111.536 111.269 112.261 112.641 114.729 117.531 117.911 117.409 117.261 116.664 117.456 116.714 113.384 112.339 111.879 111.306 110.361 110.426 110.431 112.171 117.501 118.449 118.319 120.061 113.761 112.339 112.346 113.141 113.781 112.856 112.791 112.831 113.596 114.769 113.784 114.031 115.021 115.349 113.724 114.474 114.599 113.769 114.451 117.339 119.203 123.554 124.394 125.194 126.576 126.776 125.491 124.441 122.929 118.316 115.081 115.241 118.476 117.279 119.246 118.006 114.741 114.876 115.001 114.989 116.108 116.556 115.759 115.421 115.411 115.341 115.309 115.309 115.336 115.376 115.373 115.341 115.426 115.354 115.468 115.556 115.701 119.416 123.418 122.958 121.238 127.326 122.096 119.161 119.226 117.876 126.058 124.583 122.991 126.278 125.636 120.938 127.776 126.913 128.678 128.971 133.208 129.876 132.471 130.161 134.838 137.278 136.768 133.211 137.266 134.203 137.946 127.418 128.643 132.621 128.333 129.553 131.131 134.746 130.163 129.773 135.386 132.251 129.516 128.408 126.718 127.543 132.896 126.398 129.378 127.846 126.706 128.401 130.908 133.988 136.013 137.173 135.688 136.183 135.763 135.988 130.906 131.828 134.596 131.261 130.716 129.283 128.516
109.201 109.403 110.508 108.638 105.863 101.941 102.026 102.118 102.158 102.206 102.421 102.056 102.043 102.293 102.456 102.166 102.093 102.021 104.111 108.298 110.398 109.388 108.433 108.263 103.498 101.856 101.816 101.748 101.763 101.766 103.216 105.033 104.691 102.726 102.396 102.403 102.443 102.446 102.513 104.798 105.098 104.753 103.256 106.518 111.143 112.116 109.956 107.656 110.681 109.393 106.611 105.373 113.191 109.696 109.338 102.336 102.411 102.583 103.913 108.521 104.383 106.058 108.928 107.986 105.608 105.131 108.538 107.268 110.803 113.899 113.389 113.564 113.331 113.834 110.559 104.349 102.649 102.264 101.766 104.231 108.204 103.971 102.009 102.811 106.024 103.649 104.079 101.424 106.059 103.021 102.611 99.549 100.841 104.004 101.506 105.291 106.961 111.304 112.189 112.089 108.676 110.966 106.579 112.074 112.999 104.154 108.056 106.006 107.501 111.286 105.639 104.504 103.441 103.691 106.191 109.406 104.479 105.239 108.554 111.589 112.286 108.896 107.549 108.469 111.709 108.474 104.189 103.786 103.531 103.809 103.569 103.246 103.214 103.209 103.239 103.259 103.244 103.259 103.449 103.541 105.106 111.146 112.641 112.846 111.861 110.931 109.551 109.101 106.706 103.444 103.536 103.556 104.796 105.021 104.989 109.911 108.959 105.166 104.121 104.239 104.326 104.371 104.429 104.579 104.876 105.414 108.009 112.096 105.241 105.536 107.091 107.189 109.821 113.429 118.579 116.744 118.546 114.321 116.481 114.574 111.169 109.461 108.259 109.474 109.744 111.771 108.061 107.499 107.526 107.586 108.434 108.004 107.809 107.886 108.001 108.086 108.139 108.204 108.479 108.429 108.406 108.414 108.504 108.884 112.826 115.064 116.031 112.626 113.879 115.741 115.891 111.654 111.234 114.279 115.504 114.116 112.951 112.561 116.714 117.571 117.546 117.704 118.064 118.541 119.386 120.046 120.406 120.279 118.874 116.671 112.274 112.466 119.794 120.771 114.076 111.564 111.231 111.161 111.301 111.364 111.499 111.494 111.596 111.606 115.889 118.419 117.774 116.524 117.001 115.294 114.066 113.546 114.651 116.599 116.971 112.624 109.749 110.391 110.406 110.441 114.784 119.021 116.594 118.741 115.694 112.329 112.341 114.589 115.599 113.766 113.429 112.813 112.909 113.231 113.218 113.304 113.968 114.214 114.659 115.854 115.866 115.121 116.414 117.998 118.203 121.854 124.191 124.639 125.326 126.016 125.069 124.166 122.398 117.589 114.811 115.996 118.284 119.926 118.896 120.286 117.436 116.654 115.284 116.138 117.026 115.546 115.436 115.346 115.301 115.366 115.386 115.411 115.371 115.343 115.334 115.354 115.358 115.466 115.539 115.673 117.973 120.461 123.736 130.076 121.808 124.648 123.633 122.493 120.648 123.506 124.828 124.403 121.248 121.696 121.728 120.368 126.548 124.526 128.576 126.143 125.796 127.831 129.181 138.816 134.121 133.321 135.833 126.718 134.686 128.411 127.471 123.726 128.168 129.533 126.898 126.776 123.963 125.693 126.481 128.713 128.693 128.376 128.051 126.026 128.451 127.733 127.026 125.263 126.491 126.553 125.438 125.476 129.006 127.701 132.178 133.411 134.583 135.841 134.846 134.591 133.561 133.018 134.936 134.553 129.481 130.558 131.311
108.066 109.896 110.701 108.498 104.776 102.251 102.611 102.353 102.116 102.118 102.046 102.003 102.001 102.898 103.201 102.798 102.808 102.208 103.723 107.981 110.183 109.613 108.783 108.596 102.193 102.148 102.006 101.833 102.143 104.151 105.026 104.386 102.926 102.403 102.416 102.461 102.491 102.826 104.661 103.926 104.323 103.486 105.128 110.036 109.843 107.671 107.503 105.723 108.051 113.331 111.053 108.166 108.218 111.616 104.801 103.918 105.256 103.638 104.046 107.628 105.236 106.976 107.138 104.833 106.761 109.396 112.363 106.856 108.856 109.886 110.521 113.104 113.664 113.559 110.649 102.644 102.736 102.189 101.944 103.924 103.691 100.531 100.281 104.076 101.221 106.549 100.266 112.899 109.834 105.226 103.974 101.831 103.081 98.554 99.771 104.729 103.289 110.306 110.591 109.359 112.346 111.119 111.821 112.259 107.099 102.356 114.856 107.996 110.656 109.596 104.684 107.679 107.349 105.229 102.959 104.199 108.926 104.834 103.959 104.981 109.411 114.519 112.026 108.839 113.304 109.431 110.829 108.614 103.829 103.249 103.246 103.271 103.274 103.269 103.296 103.291 103.294 103.289 103.399 103.651 104.781 109.954 111.876 111.226 109.269 107.554 108.614 109.084 107.959 105.146 103.516 104.134 104.744 105.814 106.784 104.889 105.051 104.651 104.266 104.346 104.469 104.564 104.599 104.616 104.756 104.889 105.704 106.314 105.384 106.779 109.846 109.991 108.981 113.289 121.064 117.421 118.596 117.709 114.276 112.514 109.639 109.799 107.729 107.329 110.686 110.234 107.554 107.366 107.464 107.569 107.661 107.764 107.851 107.924 107.964 108.049 108.111 108.241 109.139 108.691 108.419 108.441 108.574 111.211 113.204 116.206 113.704 112.179 113.471 112.871 112.759 115.471 113.839 115.271 114.086 111.694 111.066 111.559 115.076 117.494 116.919 115.124 117.969 120.061 120.259 120.279 120.286 120.301 119.661 118.161 112.919 111.381 113.721 113.361 111.349 111.351 111.376 111.371 111.344 111.479 111.626 111.809 112.841 111.739 112.516 114.039 116.081 116.396 114.261 112.251 112.671 114.306 116.959 117.994 117.846 113.841 110.526 111.464 111.126 110.561 112.831 119.256 115.956 118.601 116.856 112.371 112.346 113.101 114.396 114.051 114.466 112.879 112.921 113.236 113.326 113.576 114.694 114.794 114.968 114.834 115.014 115.769 114.991 116.761 117.949 118.056 120.179 124.291 124.671 124.858 124.468 122.108 117.758 115.044 114.906 118.026 116.101 117.901 123.078 120.851 119.669 118.479 116.666 115.486 115.481 115.486 115.414 115.334 115.391 115.411 115.413 115.401 115.383 115.341 115.328 115.343 115.436 115.461 115.626 116.948 122.258 119.058 123.081 125.718 120.423 118.151 119.671 119.276 122.368 121.646 122.263 125.058 122.478 121.486 120.021 123.626 124.923 126.426 124.448 130.928 128.991 126.291 132.753 129.078 140.718 142.663 133.891 127.493 121.018 125.611 123.688 133.981 124.508 126.168 128.496 130.456 129.418 127.728 127.121 127.501 121.533 122.473 121.331 124.751 128.013 126.483 127.141 130.061 127.786 129.008 125.731 130.251 130.243 128.406 131.686 131.756 135.231 131.271 129.748 132.106 129.176 128.373 130.266 130.758 127.191 130.651 131.681
