ncols 416
nrows 32
xllcorner    526124
yllcorner    185060
cellsize     2
NODATA_value -9999
68.311 69.616 70.178 68.338 68.216 68.188 68.471 68.511 68.746 68.508 68.421 68.441 68.471 69.741 71.971 70.326 70.713 69.138 68.856 68.478 68.453 68.413 68.436 68.498 71.503 71.911 71.476 68.898 68.013 67.751 67.891 68.233 68.376 68.118 69.001 69.546 68.406 69.083 69.261 69.246 69.273 70.033 70.153 69.926 69.363 69.841 70.718 71.201 70.801 72.413 69.351 71.561 68.983 69.603 69.978 71.428 74.961 78.791 78.703 79.196 70.083 69.556 69.636 70.231 69.731 69.663 69.406 69.423 69.973 69.438 69.683 69.748 71.461 80.868 82.876 83.528 83.221 83.621 82.033 73.073 67.233 68.941 70.151 69.063 69.218 70.431 73.218 72.993 73.763 72.743 70.443 70.315 70.44 71.465 72.125 80.293 87.425 88.663 87.79 88.788 87.168 78.443 73.218 75.146 74.68 74.768 74.378 74.065 74.875 74.443 78.373 74.753 74.583 74.635 76.433 83.951 84.128 83.393 84.673 83.521 85.241 84.585 76.213 76.443 76.603 76.97 77.025 77.01 78.321 79.658 79.53 81.201 81.885 82.741 83.668 84.265 83.363 82.125 83.45 82.74 81.345 82.425 83.158 86.933 86 82.683 86.163 85.778 87.803 87.858 87.353 85.31 84.085 85.545 85.878 86.765 88.55 86.435 84.345 84.435 84.503 85.233 84.815 84.45 84.285 84.19 84.115 86.593 91.465 93.69 92.048 90.695 90.635 90.708 88.453 84.065 84.418 85.153 84.183 84.233 85.03 87.128 87.398 88.475 87.013 90.265 90.84 90.32 86.655 85.415 85.345 85.18 85.22 85.235 85.208 85.178 85.305 85.688 86.45 86.23 84.953 85.11 85.218 85.58 87.655 95.93 96.855 97.928 97.963 97.948 97.293 95.943 87.998 83.938 83.53 83.463 83.515 86.045 84.31 88.33 90.063 89.483 88.075 87.498 84.935 82.69 83.473 83.643 83.503 86.955 88.958 86.203 85.908 84.925 86.32 87.025 86.968 90.598 85.595 87.883 83.15 83.515 87.433 90.183 87.5 88.43 94.803 93.015 90.36 88.553 85.14 88.435 88.075 91.155 89.05 88.105 87.063 87.59 85.888 86.278 89.01 91.183 90.805 91.548 89.86 88.87 88.78 88.903 89.745 91.503 90.848 83.968 82.388 81.95 81.693 82.013 81.113 81.05 80.983 80.965 80.865 80.76 80.643 80.548 81.685 81.943 80.36 81.183 82.41 80.788 80.105 80.138 80.148 81.99 82.99 83.955 84.328 81.223 79.998 80.8 82.79 86.975 89.278 89.405 85.688 83.145 86.045 90.068 91.198 92.735 92.803 92.16 90.905 89.873 89.398 87.25 81.245 79.478 79.205 80.955 79.238 78.553 78.318 78.285 78.275 78.41 78.57 80.965 81.933 80.04 78.295 78.318 78.315 79.198 79.26 78.363 79.195 79.465 78.97 79.565 78.873 79.023 79.015 79.033 79.233 79.525 78.75 79.758 82.323 81.598 81.653 83.458 85.343 80.415 80.48 81.178 82.06 82.52 83.068 81.408 80.098 77.878 79.075 84.495 85.395 85.803 78.508 77.455 77.43 83.79 92.85 93.633 93.535 92.675 92.365 91.225 89.928 87.198 85.858 84.76 82.015 76.983 77.633 76.448 76.485 76.523 76.595 77.018 76.725 77.648 79.428 79.92 77.173 76.26 76.283 76.358 76.27 77.558 78.065 81.395 82.253 79.858 76.343 76.835 77.45 77.858 76.785 76.428 76.58 78.843 78.955 78.625 77.94 77.835 76.265 75.935
67.923 69.178 69.881 68.123 68.081 68.073 68.161 68.458 70.048 69.528 68.483 68.418 68.428 68.451 71.451 70.196 71.251 70.693 69.818 68.621 68.478 68.403 69.641 68.776 70.308 70.253 68.321 67.471 67.496 67.633 67.738 68.696 71.538 74.421 74.156 74.588 69.128 69.106 69.208 69.213 69.226 69.856 70.201 71.173 71.878 73.216 72.971 73.296 71.513 71.591 71.096 70.916 70.698 76.758 80.023 80.161 80.558 81.281 81.516 81.826 75.001 69.836 70.521 71.888 72.628 69.778 69.716 69.253 69.388 69.411 70.126 70.251 68.938 79.828 83.126 83.658 83.161 83.643 82.498 73.328 67.513 69.423 70.868 69.523 68.911 68.856 72.023 73.281 71.298 70.29 70.628 70.443 70.853 71.818 72.668 80.188 87.613 88.851 88.068 88.71 87.11 82.008 74.003 74.18 74.14 74.351 74.113 73.918 74.088 74.071 75.328 74.543 74.271 74.553 79.595 85.843 85.873 85.928 86.118 86.175 86.205 85.843 80.893 75.76 76.538 77.033 76.988 76.991 77.991 79.646 79.533 81.663 83.058 82.998 82.45 82.693 83.153 83.018 84.815 82.765 83.178 82.37 82.953 88.273 88.105 85.475 86.375 85.188 87.88 89.77 89.488 85.218 84.748 86.603 87.468 88.228 89.543 86.5 84.273 84.7 84.903 85.358 85.84 84.76 84.433 84.18 84.208 89.733 93.315 93.73 93.005 92.958 93.023 92.925 90.548 84.108 84.36 84.143 84.208 84.22 85.983 87.853 88.145 88.79 88.663 89.053 89.468 87.068 85.42 85.273 85.383 85.2 85.205 85.203 85.188 85.165 85.158 85.248 85.365 85.19 84.883 84.855 84.845 85.118 92.17 95.188 96.99 97.403 97.075 97.298 96.775 95.995 87.05 84.163 83.418 83.268 83.29 85.388 82.738 86.843 88.828 89.505 87.963 87.205 82.85 86.743 87.345 84.465 84.393 87.005 88.285 86.588 84.175 86.495 87.588 89.975 90.13 91.793 91.08 88.18 84.88 84.575 88.558 90.1 88.81 91.31 94.745 88.83 89.155 86.828 85.258 86.293 88.918 90.045 89.778 87.413 86.753 85.735 85.653 88.118 86.823 90.573 90.893 91.62 90.72 90.71 90.793 90.845 90.983 91.48 90.903 89.558 82.248 82.13 84.318 86.025 82.808 80.973 80.868 80.855 80.805 80.75 80.66 80.593 80.473 80.383 81.218 85.535 83.53 81.508 80.478 80.565 80.163 80.008 81.618 85.078 84.17 80.998 81.133 83.598 85.178 88.455 89.468 90.068 88.208 81.14 80.348 89.348 90.593 91.185 90.52 89.96 88.448 82.878 84.868 82.415 78.193 77.788 78.978 81.078 81.148 79.528 78.37 78.27 78.23 78.338 78.555 79.073 81.853 79.17 78.273 78.28 78.343 78.395 78.678 78.258 78.56 79.613 79.098 80.888 79.665 78.913 79.01 78.998 79.498 79.303 82.853 85.778 85.315 82.465 83.908 81.855 80.028 81.655 83.105 83.028 83.503 83.32 82.543 81.558 82.005 85.223 86.353 87.593 87.755 87.185 81.603 77.643 77.445 78.71 92.35 92.323 91.89 87.568 88.3 85.925 86.675 84.328 81.478 77.713 77.973 77.915 76.53 76.51 76.533 76.835 76.715 76.543 76.608 79.473 79.283 80.078 76.283 76.193 76.225 76.325 76.298 78.058 78.245 82.195 79.968 76.545 82.313 83.01 85.365 80.628 78.453 77.67 77.075 79.46 79.425 78.84 77.07 77.73 76.725 76.245
67.546 67.786 69.468 68.763 67.983 67.966 67.993 68.521 71.171 70.441 70.756 69.086 68.391 68.506 69.473 70.911 71.868 73.578 71.796 70.051 69.986 72.476 75.251 73.693 69.643 69.881 67.826 67.456 67.403 67.483 67.576 67.906 70.926 74.183 74.631 74.596 68.981 69.033 69.168 69.158 69.203 69.571 72.486 69.893 73.228 74.651 73.728 73.163 71.848 68.226 70.191 71.356 73.693 79.716 83.338 84.801 83.186 81.863 81.341 81.086 75.551 69.326 70.843 72.183 71.846 69.466 69.273 69.148 69.528 69.558 70.228 70.348 68.558 77.088 82.681 84.468 83.356 84.211 83.058 78.961 67.103 67.568 68.851 68.803 68.623 68.863 71.678 75.423 72.91 70.258 69.888 69.976 70.105 70.678 71.468 81.675 87.73 88.308 87.873 88.418 87.601 81.543 72.463 73.741 74.018 74.065 73.991 73.795 74.413 74.025 74.601 74.213 74.135 74.448 79.34 86.078 86.015 85.933 85.845 85.833 85.825 85.46 82.428 75.913 76.465 77.226 77.055 77.021 77.998 79.653 79.538 81.985 82.54 83.043 81.98 83.256 82.688 83.053 83.785 84.14 82.545 82.445 82.03 87.578 88.733 88.823 89.018 85.095 88.808 88.99 89.715 86.09 84.433 87.398 87.373 86.195 89.42 87.003 84.24 84.585 86.13 85.21 87.9 84.703 84.72 84.213 84.128 90.63 93.295 94.983 95.358 95.453 95.183 93.313 91.55 86.143 84.055 84.12 84.188 84.21 84.623 88.648 90.793 91.76 90.618 88.005 90.798 87.595 87.443 85.435 85.475 85.183 85.178 85.183 85.163 85.14 85.13 85.15 85.135 85.018 84.853 84.84 84.835 85.243 88.905 94.51 96.27 96.248 95.5 93.175 92.985 92.125 83.29 84.058 83.503 85.008 85.1 88.188 88.595 85.658 86.555 90.063 84.385 86.32 88.818 88.67 84.02 82.978 86.168 85.918 87.12 84.933 83.065 89.125 91.845 92.148 93.858 92.383 89.495 89.528 86.515 85.605 87.3 89.775 86.875 84.045 89.07 83.403 84.355 84.47 83.068 82.54 88.373 89.973 87.005 87.145 83.788 82.995 85.305 86.16 88.543 89.713 90.673 91.998 92.068 92.093 92.1 92.1 92.078 92.01 91.505 91.56 84.068 82.088 83.36 85.468 85.335 81.603 80.828 80.718 80.668 80.68 80.598 80.548 80.435 80.33 81.508 85.635 84.013 84.005 82.378 81.298 80.958 81.64 82.685 82.93 82.643 82.9 84.693 86.4 87.36 88.92 89.83 90.575 89.708 81.44 77.868 81.173 88.995 89.865 85.875 87.48 84.995 79.33 78.35 77.795 78.04 77.613 79.283 84.468 82.878 80.35 79.23 78.36 78.475 78.603 79.065 79.315 78.923 78.863 78.273 79.335 78.463 78.34 78.303 78.303 78.498 80.663 81.538 79.635 79.24 78.88 79.045 79.68 80.583 81.678 82.975 84.228 87.72 87.675 84.105 80.418 82.333 80.088 83.025 82.99 82.338 81.535 80.698 80.865 84.84 87.413 88.37 89.183 89.358 87.573 84.19 77.273 77.418 77.47 86.285 89.395 88.383 84.063 83.095 80.525 80.143 80.253 79.33 77.478 78.08 76.818 76.793 76.72 76.88 76.715 77.4 76.603 78.03 82.153 80.165 78.365 76.588 76.12 76.19 76.288 76.22 78.645 78.76 81.203 81.045 79.938 82.445 88.42 89.818 89.255 89.405 85.708 81.775 78.623 77.023 76.388 76.548 77.733 78.203 77.635
67.443 67.446 68.266 69.556 68.116 67.888 67.863 67.951 72.071 73.101 70.821 70.523 68.498 68.488 68.511 68.581 70.231 72.538 66.851 68.071 70.611 71.953 73.611 73.056 73.338 69.728 68.908 67.433 67.391 67.411 67.436 67.538 70.466 74.286 73.981 74.356 71.333 68.908 70.018 70.576 69.211 73.653 74.193 74.151 70.938 72.496 71.006 71.971 70.258 67.741 68.823 70.261 73.961 77.883 83.058 84.633 83.566 81.346 80.441 78.371 70.656 68.568 70.311 71.838 71.151 70.368 70.018 69.028 69.086 69.258 68.973 70.541 69.413 73.468 82.243 83.688 83.086 83.711 82.966 80.856 68.248 67.113 68.041 68.571 68.606 68.936 71.143 71.266 71.035 69.815 69.855 69.97 70.088 70.765 71.5 79.125 86.89 88.073 87.84 88.065 87.405 82.375 74.008 73.815 73.796 74.23 74.006 73.66 74.135 73.82 74.098 74.023 74.095 74.398 77.293 84.515 85.083 85.12 85.193 85.203 83.92 85.148 79.815 76.015 76.408 77.09 77.128 77.043 78.163 79.628 83.08 81.478 84.835 84.09 87.123 87.006 82.373 82.028 80.875 81.435 82.76 82.228 83.12 88.003 88.705 88.908 88.85 86.5 88.275 90.633 90.308 86.058 84.383 85.57 85.2 85.593 85.66 86.95 84.163 84.203 86.463 88.073 92.3 91.083 88.66 84.81 84.478 89.16 93.168 94.555 94.595 94.558 94.423 93.398 90.653 85.248 84.31 84.163 84.165 84.21 84.675 89.875 92.425 89.983 93.198 90.758 90.068 86.6 90.53 85.673 85.175 85.14 85.15 85.133 85.135 85.093 85.063 85.103 85.058 85.11 84.853 84.815 84.98 87.033 88.093 89.54 87.278 88.598 88.9 87.815 87.425 87.278 83.845 83.508 83.25 83.663 86.828 87.048 90.018 85.27 82.388 83.488 84.908 90.75 90.198 87.908 86.49 84.885 86.34 88.095 86.47 84.71 83.1 92.64 96.708 96.663 96.538 92.47 87.943 88.373 85.15 82.775 85.79 88.658 88.043 85.213 82.368 82.395 85.448 84.388 85.053 82.488 87.903 84.523 89.743 84.02 86.018 85.915 86.388 86.355 88.47 89.693 91.033 91.655 91.348 91.258 91.228 91.163 91.098 91.01 91.085 91.005 85.26 82.168 81.925 82.875 83.265 82.328 82.54 80.908 80.553 80.543 80.575 80.473 80.34 80.268 80.18 82.235 84.065 84.843 81.243 82.08 84.843 81.5 82.9 82.905 82.708 82.475 85.23 87.56 88.975 88.865 89.063 90.655 89.568 88.195 83.735 77.868 80.12 80.4 77.743 78.275 77.76 78.058 79.018 78.6 77.54 78.225 80.358 83.55 84.598 84.408 80.853 78.64 78.63 78.978 79.98 79.683 79.265 79.935 78.41 79.085 79.073 78.325 78.26 78.56 78.658 81.775 83.255 80.795 82.583 82.875 81.07 83.01 81.815 83.355 79.033 83.425 82.243 85.713 86.348 82.448 82.423 79.48 81.21 82.095 80.818 79.383 79.545 78.655 83.528 87.428 88.983 90.28 90.128 88.34 86.978 77.765 77.413 77.435 81.963 85.048 82.02 78.538 79.043 77.773 77.495 77.858 77.325 76.76 81.08 76.633 77.76 76.618 76.953 77.898 76.748 79.42 78.528 79.27 76.763 77.075 76.06 76.085 76.183 76.213 76.4 76.633 78.385 82.54 76.373 78.825 80.45 89.8 90.893 91.645 91.2 90.335 88.73 82.503 77.92 76.698 73.998 74.288 75.878 76.013
67.328 67.333 67.973 69.713 68.161 67.823 67.943 67.993 71.186 72.108 73.898 70.463 67.243 66.436 66.181 65.506 64.746 64.326 65.626 64.561 73.851 71.968 73.136 72.086 72.138 71.071 69.551 67.448 67.403 67.366 67.396 67.433 69.961 74.573 74.276 74.593 68.703 69.286 70.303 72.103 69.178 74.196 75.231 76.126 70.103 68.681 68.581 68.993 69.138 67.583 68.328 70.201 74.088 77.976 82.736 84.406 83.988 81.786 79.231 76.416 70.541 69.201 69.301 71.718 73.376 70.671 69.426 69.001 68.848 69.361 68.993 70.086 70.166 74.373 82.613 83.431 83.306 83.468 83.196 78.941 68.433 67.206 68.311 68.496 68.531 68.676 71.183 72.546 71.881 70.185 69.858 70.18 70.173 71.178 71.363 75.348 86.685 85.938 84.336 86.135 83.45 78.998 73.585 73.738 74.203 73.976 73.843 73.548 73.713 73.61 73.8 73.985 74.188 74.08 76.948 84.363 86.583 86.97 87.03 87.095 86.146 85.963 78.358 76.558 76.375 76.976 76.883 76.945 78.43 79.633 83.238 85.918 86.283 88.928 90.788 84.553 82.696 80.698 80.828 81.065 81.325 81.56 82.01 88.683 89.585 90.845 90.928 89.333 88.7 90.648 90.453 86.443 84.355 86.053 86.43 86.633 87.458 84.978 84.07 84.363 86.745 88.89 92.18 91.418 89.505 85.118 84.248 88.785 91.75 92.928 92.49 92.443 92.375 92.588 90.143 84.075 84.39 84.293 84.165 84.198 84.398 86.263 94.205 91.695 91.875 92.233 87.43 87.878 91.63 86.915 85.495 85.505 85.478 85.163 85.245 85.213 85.213 85.298 84.918 85.055 85.16 85.858 86.275 87.145 86.38 86.395 85.173 85.933 86.61 87.525 87.39 87.415 83.763 83.42 83.468 88.31 88.138 86.9 84.903 83.903 82.233 82.28 84.18 89.863 89.008 90.445 87.933 88.453 86.56 88.318 85.783 82.435 83.27 92.4 96.543 96.603 96.995 94.705 89.868 87.218 85.15 83.76 87.613 85.385 84.995 82.348 82.38 86.52 91.39 90.97 87.105 85.715 84.173 84.045 82.525 86.308 87.16 87.93 88.255 86.653 87.963 89.205 90.67 89.883 89.098 87.823 86.52 85.565 85.995 87.375 89.383 87.603 83.49 82.213 81.883 81.54 81.525 81.42 82.918 82.443 80.498 80.403 80.443 80.438 80.328 80.188 80.07 79.978 80.79 79.78 81.593 83.325 85.105 83.313 82.848 82.63 82.67 82.85 83.62 87.248 87.655 87.093 88.38 89.885 90.365 89.325 87.148 79.515 78.225 77.81 77.505 77.593 77.73 77.658 78.518 78.603 77.56 78.555 83.283 82.353 85.038 82.453 78.893 79.67 79.773 78.513 78.398 78.648 79.323 79.668 78.83 78.958 81.355 80.315 79.13 78.64 78.598 79.003 80.745 81.18 81.428 85.268 82.938 79.705 79.43 80.658 80.395 80.123 81.69 81.805 79.478 77.25 77.335 78.33 79.818 81.725 80.34 77.57 77.065 77.64 81.065 86.458 88.128 90.018 90.325 89.345 87.458 82.678 77.673 77.388 77.448 78.43 78.818 78.698 78.223 77.813 76.698 76.615 76.645 77.255 82.673 80.343 76.885 78.81 77.745 79.105 77.413 79.423 76.69 77.525 76.013 76.01 76.038 76.09 76.14 76.153 76.87 76.543 76.193 77.71 76.348 77.898 83.443 90.373 91.065 92.398 91.553 90.695 87.108 81.54 77.473 76.36 73.805 73.815 73.703 73.655
67.166 67.183 67.798 70.078 67.856 67.686 68.078 68.446 67.531 68.726 68.401 66.496 64.376 63.976 64.028 64.076 64.161 64.196 64.261 64.323 68.633 71.883 73.278 70.906 69.698 71.066 69.691 68.798 67.386 67.408 67.403 67.418 72.141 74.303 74.628 74.611 70.096 68.618 71.358 73.603 71.581 72.658 78.831 70.683 68.521 68.508 68.506 68.496 68.073 67.401 67.621 70.288 71.951 78.678 82.806 84.158 84.451 82.456 78.901 73.146 70.901 69.421 69.628 69.853 69.766 69.273 68.961 68.831 68.713 69.688 68.936 68.963 69.036 70.071 80.481 82.791 83.033 82.376 81.461 80.003 71.316 67.266 68.328 68.928 69.643 68.733 69.713 74.083 72.465 71.158 74.793 73.573 71.643 71.586 71.765 73.678 81.223 83.87 82.625 85.008 84.998 75.473 72.37 73.135 73.628 73.748 73.928 73.351 74.018 73.89 73.94 73.925 73.89 74.033 77.845 84.808 86.693 87.105 87.101 87.04 86.961 86.068 79.498 76.57 76.488 76.985 76.715 76.883 78.025 79.643 87.045 85.3 89.273 87.95 88.088 88.086 81.76 81.256 80.835 81.05 81.298 81.508 82.455 90.298 91.545 91.548 91.585 88.583 88.443 90.61 90.553 86.293 84.36 84.87 86.64 86.415 84.803 84.025 84.018 84.093 90.893 90.828 93.175 88.855 90.658 88.15 84.97 85.613 85.235 85.655 85.613 85.315 87.793 85.39 84.145 84.97 84.645 84.485 84.333 85.433 86.19 87.125 92.348 92.418 88.165 89.903 87.545 87.855 90.55 87.9 87.408 86.59 85.518 86.213 86.45 86.653 86.835 86.888 86.815 87.053 87.083 85.078 84.12 85.538 85.218 84.298 84.775 84.533 86.858 87.368 87.38 87.398 83.728 82.988 82.62 82.903 85.475 89.403 89.015 83.62 82.145 82.178 84.3 86.093 90.408 93.94 86.245 86.988 86.073 87.935 84.075 83.055 86.523 90.905 96.95 97.468 97.425 96.055 90.933 82.31 82.215 83.765 84.733 83.903 82.28 82.338 87.12 86.043 90.553 87.68 87.315 82.45 85.595 84.91 85.085 90.59 84.853 84.593 87.783 87.97 87.453 87.765 86.438 86.06 86.253 87.208 81.865 81.83 82.218 83.008 81.77 81.755 81.745 81.763 81.678 81.805 85.29 82.23 81.658 82.773 80.858 80.288 80.325 80.318 80.235 80.195 80.025 79.933 79.763 79.633 79.538 82.125 85.435 85.468 82.133 82.055 80.06 82.635 83.228 86.785 87.57 88.548 89.253 89.548 90.77 86.79 82.138 81.88 79.49 79.845 77.708 77.52 77.533 77.653 77.973 78.85 77.828 77.55 81.385 85.178 82.37 80.51 79.89 78.648 78.675 79.055 78.678 78.295 78.485 78.903 81.915 81.468 80.218 84.433 82.943 80.458 79.303 80.06 80.98 82.943 83.173 83.945 80.543 80.318 77.808 77.37 77.2 79.615 77.795 77.235 77.205 77.213 77.255 79.87 80.485 77.953 77.435 77.083 78.673 78.3 80.343 85.255 87.52 89.43 90.293 90.103 88.02 87.683 77.128 77.295 77.305 77.285 77.128 77.04 76.868 76.698 76.605 76.6 79.545 82.79 85.31 79.27 79.678 81.565 80.413 79.285 77.593 76.413 75.96 75.878 76.488 76.415 76.023 76.045 76.088 76.09 76.475 76.13 76.553 77.018 76.598 82.275 88.578 90.085 91.403 92.52 91.203 90.49 86.345 80.928 77.17 76.053 73.813 73.795 73.73 73.648
67.058 67.056 67.063 67.326 68.013 69.108 67.981 67.373 67.123 66.088 64.346 63.798 63.866 63.906 63.951 64.013 64.056 64.128 64.168 64.208 64.366 65.768 68.853 68.138 68.271 69.576 69.718 69.366 67.528 67.406 67.438 67.466 71.213 74.528 74.621 74.613 71.126 68.398 68.786 71.358 69.981 70.251 68.551 68.481 68.478 68.503 68.493 68.508 68.976 69.058 67.548 68.568 70.711 76.611 82.248 85.091 84.851 82.773 80.803 74.203 71.918 69.258 69.158 69.463 69.866 68.816 69.366 68.851 68.628 68.666 68.606 68.761 69.196 70.156 75.876 78.876 78.633 76.511 76.788 78.238 69.133 67.821 68.923 68.196 69.091 68.578 70.431 71.083 72.468 74.741 76.32 72.205 70.295 70.345 70.42 70.753 84.915 85.208 85.12 85.388 85.628 79.925 73.698 73.648 73.583 73.438 73.588 73.218 73.451 73.483 74.708 74.665 73.958 74.023 75.188 83.998 84.778 80.513 84.46 84.343 84.185 84.686 80.555 75.653 76.078 76.44 76.688 76.913 78.253 79.65 82.573 86.348 85.19 85.613 84.875 86.058 84.89 80.8 80.885 81.043 81.223 81.403 82.455 90.315 91.7 92.41 92.283 91.418 88.755 92.293 92.903 86.79 84.828 84.613 84.095 85.755 83.955 83.998 83.985 84.045 89.748 92.15 90.775 91.52 91.148 84.563 85.718 85.88 86.455 84.353 85.605 85.773 84.715 84.71 86.12 86.065 85 84.698 85.503 86.215 87.008 88.968 87.578 93.815 91.665 89.04 87.77 87.32 91.005 84.41 84.225 83.898 84.658 87.528 87.983 88.013 88.05 88.063 88.098 88.125 87.783 85.343 84.078 84.505 90.19 86.013 83.713 86.305 87.87 88.9 90.05 89.95 83.555 82.063 82.77 82.395 82.608 82.45 83.435 82.058 81.985 82.06 83.36 87.068 88.243 88.13 84.52 88.025 85.473 84.805 82.813 82.723 86.555 94.695 96.91 97.635 97.433 96.703 92.765 81.605 82.073 82.585 84.333 84.495 83.57 86.77 88.658 85.325 89.098 87.528 84.988 87.67 84.413 86.783 88.33 88.395 89.785 88.568 92.62 88.973 86.023 87.26 85.443 85.858 87.08 86.718 81.985 81.803 82.42 84.305 82.43 83.223 83.41 83.013 81.87 83.3 84.818 84.28 81.748 83.823 81.318 80.16 80.173 80.22 80.205 80.068 79.983 79.895 79.75 79.608 79.46 80.238 82 82.525 82.535 80.63 80.198 79.938 84.948 88.963 89.795 89.9 87.185 86.878 86.948 80.42 77.963 80.968 81.108 78.383 77.69 77.533 77.493 78.3 78.22 78.628 78.565 77.57 77.543 82.16 81.903 80.288 80.878 78.245 78.615 78.485 79.433 79.3 79.755 79.37 80.988 83.565 81.303 85.16 81.95 82.865 80.463 79.365 80.528 80.66 78.713 78.303 80.52 81.63 81.065 77.8 81.028 82.558 77.95 77.183 77.203 77.225 77.373 80.28 82.795 79.285 77.058 77.145 77.985 77.518 79.943 81.68 87.293 88.6 89.938 89.133 88.208 87.483 80.235 77.365 77.125 77.818 77.973 77.273 78.488 79.493 77.363 76.74 84.93 82.87 89.23 86.155 81.585 87 80.288 75.998 75.888 76.468 76.423 75.883 76.088 75.988 76.068 76.04 76.15 76.605 76.09 76.415 77.608 76.738 76.19 83.393 90.015 90.385 91.338 91.963 90.725 88.328 84.453 80.983 76.38 74.81 74.308 73.913 73.705 73.603
68.448 66.933 66.948 67.513 70.756 70.143 67.906 67.053 65.971 63.981 63.703 63.751 63.788 63.818 63.873 63.938 63.981 64.081 64.128 64.176 64.293 65.098 65.026 66.503 68.066 68.628 69.723 69.673 68.813 67.403 67.423 67.458 70.996 74.506 74.626 74.641 73.451 72.313 70.296 69.198 70.993 68.861 68.531 68.508 69.803 68.471 69.871 68.683 70.381 70.838 68.426 68.761 69.511 72.128 81.548 83.588 84.818 83.173 81.153 78.473 76.408 70.111 69.293 69.043 69.913 69.143 68.733 69.003 68.503 68.501 68.471 68.523 68.373 67.433 70.938 78.446 77.396 79.968 79.968 80.413 73.386 67.398 68.536 67.996 68.071 68.186 72.738 72.958 72.44 74.34 72.945 70.366 69.5 70.343 70.43 76.583 85.525 86.881 86.653 86.983 86.461 82.515 71.12 72.323 73.67 73.088 73.065 73.12 73.133 73.083 73.265 73.853 73.711 73.623 74.05 75.555 75.658 74.383 74.978 75.908 76.295 76.37 75.338 75.668 76.023 76.665 76.955 77.155 77.631 80.62 80.423 79.935 83.945 87.605 81.663 83.268 80.838 80.903 80.973 81.045 81.14 81.243 83.965 93.548 94.93 96.663 95.948 96.25 96.285 96.51 96.633 92.59 84.705 84.193 84.05 84.605 83.99 83.923 83.913 83.913 89.648 90.858 95.275 94.6 90.615 86.05 86.068 85.808 85.17 84.923 84.633 86.558 87.003 86.383 84.948 84.89 85.75 85.315 85.66 86.063 84.235 84.345 89.02 87.61 89.758 88.623 90.64 86.975 87.753 85.378 84.055 84.355 85.12 87.593 88.225 88.238 88.213 88.378 88.378 88.618 88.378 87.588 87.938 87.54 92.928 94.678 95.693 96.175 95.675 96.213 96.945 96.72 93.248 81.773 82.64 82.403 82.805 84.388 82.02 81.96 81.943 81.96 83.44 85.54 87.38 88.688 88.1 86.453 87.17 83.115 82.76 83.358 85.05 97.093 97.195 97.445 97.37 96.58 91.963 81.608 82.19 83.365 86.188 88.14 87.193 86.563 88.523 87.453 86.69 86.12 83.918 84.155 90.593 89.61 88.665 89.753 88.475 90.153 87.405 89.188 85.93 84.695 86.53 85.263 84.06 83.693 82.125 81.475 81.375 84.63 84.998 85.01 84.67 84.588 84.943 84.253 83.29 85.225 82.318 84.19 80.963 80.045 80.055 80.128 80.06 79.943 79.833 79.745 79.65 79.563 79.455 79.395 81.36 80.245 80.82 82.328 81.855 79.88 81.5 89.043 90.07 87.518 84.315 81.323 80.64 78.36 77.773 80.623 81.458 78.53 77.605 77.51 81.828 77.578 78.075 78.025 79.48 78.173 77.713 77.81 78.64 79.745 82.62 80.788 78.698 78.568 78.968 78.485 81.708 79.308 80.633 81.965 82.7 83.995 84.92 84.558 81.415 78.525 80.238 80.328 80.03 77.585 83.34 87.488 87.455 83.148 85.388 85.215 80.588 77.263 77.21 77.16 77.423 78.83 83.19 82.143 77.635 77.16 78.448 77.683 77.603 78.678 84.713 87.895 87.713 87.33 86.658 87.5 80.39 77.398 76.97 77.243 78.975 79.085 78.918 80.083 80.828 78.328 81.828 85.405 83.75 76.898 81.668 83.125 81.758 78.605 76.33 76.095 75.968 75.933 75.973 76.033 75.99 75.988 76.665 76.545 76.088 76.41 76.613 76.285 77.698 81.365 83.998 89.043 88.93 89.745 89.878 88.108 81.298 81.585 75.118 74.455 75.13 75.503 75.11 74.458
67.146 66.886 66.773 68.718 71.038 71.388 66.786 65.353 63.563 63.618 63.646 63.688 63.691 63.763 63.813 63.866 63.961 63.988 64.063 64.133 64.213 64.953 65.178 65.498 67.963 67.648 69.571 69.681 69.176 67.946 68.146 72.586 73.561 73.681 74.633 74.631 74.626 74.448 72.271 69.628 71.066 70.318 70.008 70.093 68.793 70.041 70.153 69.016 70.728 71.816 68.313 68.546 67.656 72.461 78.866 83.176 84.746 83.521 81.441 80.601 79.706 74.846 68.918 68.886 69.713 68.903 68.556 69.353 68.301 68.678 68.976 68.738 68.663 68.386 72.866 80.953 81.673 80.633 82.341 81.976 77.883 66.856 66.986 67.578 68.531 68.511 71.561 74.286 76.453 75.688 71.55 71.388 69.393 70.12 70.353 75.705 85.763 87.105 86.578 87.185 86.825 83.648 70.785 72.318 73.993 72.983 72.958 72.998 72.995 72.968 73.148 73.315 73.468 73.69 74.383 74.61 76.733 77.168 78.423 76.648 76.211 76.303 75.135 75.433 76.058 77.308 78.845 77.348 78.603 83.065 79.433 80.903 80.543 80.698 80.631 80.628 80.741 80.875 80.965 81.063 81.125 81.233 83.623 95.335 95.823 96.588 97.965 97.435 96.9 96.863 96.728 92.83 84.15 84.108 84.04 84.965 83.985 83.92 83.86 83.86 88.363 88.395 90.93 90.975 86.78 85.315 88.483 87.383 83.96 83.585 83.288 85.085 87.795 83.655 83.005 82.76 82.803 83.11 82.715 82.74 82.968 83.88 84.09 88.03 85.69 89.825 90.603 86.275 83.81 83.805 83.788 85.465 88.435 89.025 89.508 89.688 89.658 89.645 89.653 89.663 89.663 88.313 89.34 88.84 95.845 96.985 98.615 98.343 98.393 98.505 98.428 97.773 94.063 81.943 82.54 82.388 85.075 85.465 84.235 83.213 82.47 86.025 81.853 82.505 83.605 86.775 82.505 86.718 83.7 84.408 82.88 82.605 82.54 96.145 96.493 96.833 97.455 97.525 92.573 82.928 83.543 85.55 89.133 90.515 89.025 87.788 87.308 88.41 88.685 90.58 91.205 89.733 87.77 91.593 89.498 84.705 87.005 91.563 88.388 87.023 92.645 92.685 90.23 85.675 81.983 83.663 81.453 81.41 81.798 84.653 84.97 85.055 84.688 83.538 83.54 82.815 83.368 81.993 83.205 86.773 84.468 84.033 80.448 80.015 79.923 79.825 79.72 80.375 79.52 79.415 79.455 79.253 79.278 79.828 79.62 79.93 81.505 81.525 79.72 84.09 82.235 80.608 80.405 79.86 79.875 77.348 77.59 79.445 82.86 81.838 82.87 80.17 83.415 78.553 78.575 77.71 80.22 80.933 79.17 77.505 77.533 78.068 83.853 85.25 78.665 78.858 81.213 80.113 80.625 79.703 81.68 82.958 82.66 81.473 83.998 83.49 79.73 78.32 79.765 82.295 83.61 78.96 82.258 87.895 87.973 87.353 85.633 85.38 83.638 77.635 77.283 77.193 77.18 77.455 82.04 83.235 77.695 77.05 77.23 78.403 77.093 77.163 83.13 87.298 83.943 82.56 80.408 78.563 80.343 78.998 76.825 76.83 77.73 81.418 78.545 80.693 80.275 80.905 79.635 80.518 84.37 84.938 84.65 82.56 77.92 78.53 75.98 76.05 76.005 75.993 75.948 76.08 76.283 76.363 76.063 76.043 76.763 77.118 76.58 77.94 83.185 84.678 82.108 76.243 79.985 81.258 85.665 85.743 80.268 78.798 74.313 73.9 73.725 74.043 73.99 74.6
67.681 68.848 69.031 71.593 70.631 67.716 64.668 63.491 63.516 63.553 63.583 63.601 63.648 63.681 63.788 63.843 63.921 63.978 64.051 64.116 64.178 64.273 64.393 64.421 66.503 67.323 68.953 69.713 69.631 68.476 67.398 72.598 74.633 74.638 74.578 74.573 74.561 74.633 73.298 69.398 70.506 70.763 71.293 70.478 68.798 68.928 69.451 68.831 70.568 70.603 68.808 68.136 67.661 72.176 78.531 82.821 84.373 84.036 81.996 81.306 81.683 80.628 70.663 68.801 68.786 68.971 68.401 68.861 68.261 68.261 68.813 68.296 68.743 68.781 72.221 81.786 82.736 82.531 82.751 82.396 79.621 68.596 67.448 69.093 68.631 69.766 69.378 72.553 75.698 72.51 70.458 71.91 70.235 70.908 71.3 75.056 84.173 88.128 86.668 87.463 86.648 82.913 71.575 72.833 73.513 72.845 72.8 72.87 72.866 72.853 72.928 72.965 73.04 73.238 75.595 80.046 80.72 84.275 82.858 80.423 80.415 79.258 75.028 75.243 75.583 76.6 77.243 77.045 76.498 77.333 78.205 79.62 81.175 82.51 81.311 80.643 80.726 80.855 80.965 81.06 81.12 81.178 81.663 94.898 95.08 96.465 98.423 97.503 95.648 94.51 92.278 88.188 84.208 84.118 84.285 84.578 83.915 84.295 83.813 83.79 89.41 88.425 85.765 87.508 86.23 88.135 87.645 90.115 85.028 87.06 83.02 83.088 87.668 84.588 84.578 84.378 85.31 87.265 86.673 85.268 82.618 82.63 83.27 84.595 84.833 83.173 83.185 83.115 83.11 83.123 83.01 85.133 89.575 89.67 89.675 89.658 89.68 89.683 89.665 89.675 89.685 88.713 89.443 89.078 93.908 96.825 96.955 97.45 97.638 97.97 98.963 97.485 91.37 86.98 82.578 82.358 87.025 88.575 86.988 84.09 86.57 85.388 86.48 85.583 81.663 81.618 81.718 82.835 82.753 83.458 82.138 81.46 81.375 96.068 96.318 96.258 96.478 96.7 93.14 84.143 83.81 85.405 87.268 86.073 87.21 85.223 91.038 85.19 90.138 85.265 85.87 88.833 90.155 92.983 85.95 83.993 91.61 83.595 87.26 89.398 93.133 95.238 89.82 86.613 81.993 81.69 81.44 81.388 81.42 84.385 84.97 85.03 84.693 85.54 82.013 81.398 81.293 82.845 82.568 86.918 86.268 83.945 83.368 79.9 79.818 80.678 84.778 84.035 81.408 80.455 80.335 79.53 79.043 78.945 78.81 78.615 78.545 80.353 81.273 81.32 79.693 80.363 78.435 78.033 77.698 77.658 78.005 78.178 83.538 82.488 78.733 84.74 83.025 82.753 77.725 80.958 82.543 83.813 79.26 77.535 77.533 77.61 80.808 81.27 78.365 78.475 81.81 81.635 79.995 80.803 81.193 83.13 81.683 79.588 82.088 79.313 77.608 78.105 78.745 84.883 85.948 85.708 80.805 87.215 88.643 88.363 86.26 85.415 85.303 81.208 77.238 77.218 77.163 77.15 79.965 83.308 80.785 77.073 77.11 78.145 77.455 77.05 78.723 80.545 78.403 76.88 76.81 76.758 78.685 79.03 77.22 76.505 77.705 81.223 79.695 76.93 76.483 78.6 78.298 77.11 83.265 84.33 81.68 80.238 76.023 76.055 76.053 76.015 75.985 76.08 76.758 76.445 75.97 76.395 78.64 80.785 81.848 76.335 80.475 83.013 85.59 86.693 86.65 82.413 78.355 78.415 76.838 76.67 74.173 73.983 73.793 73.738 73.57 73.523 73.475 73.405
67.128 69.533 70.188 70.918 69.323 63.953 63.386 63.426 63.456 63.481 63.516 63.566 63.573 63.686 63.733 63.813 63.888 63.953 64.048 64.123 64.166 64.241 64.503 65.201 65.586 67.093 67.368 69.476 69.078 68.426 67.356 71.533 74.666 73.893 72.033 71.596 70.366 68.723 67.621 68.083 69.011 70.261 70.341 69.548 67.913 69.343 67.853 67.918 68.783 67.933 67.888 67.971 68.073 71.521 75.161 83.046 84.198 84.468 82.496 81.796 81.373 79.578 73.791 68.693 68.706 69.133 68.316 68.143 68.121 68.103 68.031 68.126 69.053 69.361 68.743 82.613 82.776 82.741 82.761 83.371 79.943 69.946 67.403 67.701 67.581 67.941 70.506 75.803 76.826 73.955 70.285 69.131 69.273 70.048 72.235 75.82 85.303 87.09 86.188 87.17 86.983 85.675 73.853 72.84 72.825 72.725 72.708 72.75 72.753 72.73 72.925 72.903 73.021 73.218 75.97 82.513 83.288 84.888 84.915 82.068 81.025 78.165 77.235 75.568 75.506 75.938 77.898 80.743 76.638 76.771 77.783 78.688 80.41 81.848 81.313 80.683 80.738 80.85 80.943 81.033 81.108 81.3 85.338 93.085 94.525 96.4 98.32 98.108 95.89 94.82 89.998 87.06 84.405 84.06 84.118 84.488 83.825 83.99 83.723 83.708 85.478 90.708 91.165 88.488 88.805 93.083 87.485 89.955 90.408 90.198 84.62 83.07 90.885 91.498 91.225 91.79 91.598 91.698 91.86 89.628 82.568 82.615 83.343 84.715 85.378 82.793 82.793 82.805 82.828 82.798 82.785 85.185 89.66 89.67 89.67 89.67 89.665 89.673 89.65 89.653 89.675 89.133 88.318 88.183 93.5 96.535 96.7 96.738 97.02 97.958 98.663 96.335 93.92 86.983 82.47 83.798 88.655 89.413 86.53 88.473 88.758 86.215 89.003 87.19 88.245 84.423 86.975 83.988 85.403 85.26 81.38 81.233 81.353 97.013 96.998 96.825 97.018 96.133 95.508 85.843 84.843 82.868 88.185 87.488 88.7 90.275 88.403 83.468 89.603 85.593 87.535 88.94 87.273 87.123 88.113 90.92 84.61 84.97 85.943 86.398 90.608 90.75 91.615 87.81 82.035 81.865 81.45 81.383 81.503 84.328 84.945 85.033 84.695 82.725 81.52 81.288 81.27 81.788 84.555 84.925 86.243 82.828 81.79 79.8 79.72 82.103 82.558 86.935 85.898 80.883 79.383 79.29 78.91 78.86 78.765 78.62 78.485 78.35 78.325 80.85 81.24 81.88 81.445 81.988 79.935 78.11 79.1 82.053 84.228 86.145 81.8 82.173 86.245 84.403 83.823 79.153 81.963 85.135 82.093 77.62 77.518 78.105 80.763 79.363 79.005 79.538 79.688 78.505 79.555 79.023 78.56 79.16 78.39 77.79 78.378 78.673 80.225 84.13 85.813 87.283 87.998 87.718 79.465 85.088 88.018 88.713 87.65 86.088 86.935 87.848 81.768 79.063 77.165 77.115 77.218 80.625 81.443 77.16 76.973 77.308 78.105 77.078 77.545 77.543 78.55 77.185 78.628 76.638 77.653 78.805 76.468 76.323 76.228 77.455 76.125 76.128 76.073 76.765 77.138 78.173 83.133 80.278 81.123 77.933 76.06 76.145 75.988 76.37 76.815 76.02 75.975 76.008 76.24 76.94 79.248 81.5 80.078 80.605 85.823 85.568 86.805 88.015 88.045 86.785 80.658 76.53 76.17 75.693 73.51 73.855 76.26 75.893 73.483 73.41 73.388 73.36
67.103 69.741 67.288 66.503 63.701 63.323 63.301 63.331 63.353 63.398 63.521 63.566 63.736 63.686 63.731 63.811 63.866 63.926 64.001 64.066 64.126 64.203 64.503 64.701 64.428 66.308 67.296 68.971 68.488 68.363 68.176 67.883 68.443 69.493 67.431 67.481 67.508 67.373 67.313 67.786 69.396 68.756 68.793 69.031 67.986 67.666 67.673 67.683 67.723 67.746 67.798 67.891 68.348 70.328 73.058 81.441 83.316 80.678 79.636 74.816 73.001 71.266 68.891 68.523 68.443 68.536 68.711 68.043 67.983 68.003 68.393 68.026 68.446 69.176 67.471 80.073 82.698 83.328 82.421 82.751 81.873 72.191 66.508 67.361 67.476 67.623 70.716 72.751 74.086 71.125 69.34 68.988 69.05 69.843 70.515 78.365 85.218 86.703 86.233 86.67 86.303 81.795 74.125 72.915 72.778 72.655 72.673 72.695 72.66 73.728 78.793 77.39 74.51 73.628 79.021 83.738 84.048 85.118 84.965 83.696 82.018 74.25 76.491 75.881 75.61 75.843 77.378 78.451 76.503 77.573 81.388 80.778 81.148 81.873 80.995 80.663 80.733 80.836 80.898 80.99 81.088 81.178 83.603 92.235 94.713 96.575 98.325 97.77 95.71 93.875 90.158 86.743 84.403 84.003 84.195 84.653 83.795 84.063 83.685 83.613 83.863 88.265 87.405 86.783 85.555 87.505 85.6 90.86 90.598 88.023 87.283 84.79 93.46 93.6 93.673 93.798 94.088 93.83 92.688 91.378 84.36 82.778 82.605 84.463 84.56 82.793 82.79 82.793 82.81 82.808 82.77 84.533 89.633 88.3 87.375 86.475 86.503 87.685 87.88 86.878 86.978 87.753 86.823 86.83 91.133 98.31 98.31 98.353 98.483 98.67 98.51 93.543 87.185 88.13 84.433 87.788 89.895 86.713 88.92 85.44 88.87 86.198 88.513 86.343 85.943 87.483 90.173 87.04 87.235 86.29 82.415 82.193 85.185 94.025 96.125 97.238 96.765 95.493 94.97 88.348 87.088 83.663 82.23 86.683 86.245 86.198 86.758 89.495 88.443 90.708 86.76 88.358 89.558 88.503 86.148 90.528 87.12 85.845 85.42 88.943 88.34 86.78 84.793 83.933 81.558 81.553 81.413 81.338 81.36 84.52 84.96 85.055 84.698 82.748 81.408 81.285 81.3 81.558 82.7 84.383 87.218 83.548 80.018 79.703 79.613 80.98 86.428 85.315 84.855 83.978 80.925 82.37 81.13 80.458 78.79 78.563 78.423 78.325 78.198 78.108 79.908 83.603 83.473 83.07 80.598 79.998 80.238 80.475 84.328 83.093 85.385 85.675 83.085 88.778 81.82 78.41 83.843 83.228 84.513 78.318 80.75 81.035 83.393 78.59 78.74 78.798 78.128 77.913 80.103 79.695 78.12 78.263 77.608 78.15 78.028 77.805 84.99 86.095 87.71 88.048 88.755 87.475 81.58 81.475 87.205 88.87 88.045 88.368 88.728 87.74 85.598 81.73 77.113 77.123 77.1 78.783 80.848 79.16 77.188 77.468 77.823 77.04 77.03 77.043 77.503 80.06 79.718 77.443 79.953 79.85 78.38 76.228 77.168 76.093 76.048 76.055 76.085 76.255 76.153 76.183 77.358 76.47 76.7 76.138 76.545 77.25 76.49 76.155 76.048 76.048 76.348 76.763 76.298 76.205 75.92 77.568 82.365 87.538 88.903 87.333 87.988 89.438 89.633 87.945 86.953 77.845 75.22 76.078 74.378 74.628 77.02 75.49 74.023 73.345 73.325 73.278
68.066 66.611 66.051 65.293 63.296 63.226 63.241 63.256 63.323 63.733 66.921 69.758 64.301 63.816 63.726 63.791 63.871 63.916 63.981 64.051 64.113 64.198 64.273 64.346 64.406 65.658 67.493 68.571 67.003 67.166 67.336 67.548 70.188 72.153 70.076 67.423 70.093 69.781 68.078 67.756 67.383 67.621 68.088 67.906 67.658 67.581 67.598 67.611 67.643 67.686 67.743 67.863 67.926 69.046 69.748 74.846 73.781 77.211 77.456 73.968 75.588 77.236 73.586 68.268 69.551 70.561 70.728 67.983 67.971 67.868 68.316 68.031 67.948 67.818 67.721 78.173 82.823 82.953 81.911 82.858 81.831 71.576 66.363 67.333 67.496 68.063 69.148 75.218 74.44 70.925 69.815 69.283 69.073 69.79 70.348 72.13 83.88 82.485 83.845 83.74 84.403 79.535 72.29 72.638 73.143 72.705 73.425 72.603 72.615 73.205 79.798 79.658 75.968 74.073 78.14 83.613 83.905 85.045 85.105 83.873 81.598 74.633 77.26 76.333 76.505 76.813 77.65 78.588 78.418 80.688 83.53 83.09 81.998 82.278 83.49 80.668 80.69 80.773 80.875 80.98 81.048 81.323 82.868 90.908 95.81 96.893 98.178 97.645 95.625 93.953 91.875 86.315 84.178 83.85 83.908 84.553 83.835 84.788 83.71 83.535 83.488 84.203 86.768 87.148 84.955 88.355 89.975 88.723 84.723 85.13 86.848 84.915 93.895 93.778 94.13 94.435 94.458 94.378 92.853 90.498 84.123 82.595 82.61 83.79 85.34 82.775 82.783 82.79 82.788 82.78 82.76 83.273 83.545 83.438 82.938 82.978 82.938 82.993 82.895 83.115 83.403 84.095 84.708 84.583 89.175 96.458 96.47 96.31 96.273 97.723 98.63 96.215 87.833 83.123 83.935 87.748 87.25 92.808 88.368 90.935 88.67 83.718 87.205 87.575 84.56 89.155 83.573 87.39 91.603 86.808 87.355 82.765 85.258 91.5 96.258 96.633 96.675 95.183 93.188 89.005 87.28 83.535 82 82.378 83.75 88.273 88.193 88.038 86.835 87.395 87.355 87.238 86.688 87.01 85.045 87.36 86.518 83.645 84.958 85.375 87.025 83.283 81.72 82.728 81.503 81.465 81.378 81.343 81.355 84.085 84.933 85.538 86.575 84.955 84.233 83.118 81.42 81.273 84.393 84.528 81.97 83.338 79.675 79.583 79.47 80.37 85.035 83.145 81.025 82.66 83.968 84.39 84.965 82.645 79.063 78.78 78.398 78.263 78.158 78.013 78.105 82.998 84.293 79.558 77.64 79.705 80.5 81.185 81.388 87.65 85.698 80.968 85.595 86.53 78.985 77.735 82.883 79.655 83.265 84.515 83.545 82.913 81.73 79.288 77.715 77.633 77.538 77.505 77.765 79.39 78.505 77.443 77.518 77.193 77.218 77.28 82.615 85.375 87.713 87.78 88.718 88.243 86.053 77.223 86.233 88.388 87.938 88.775 88.863 87.82 85.873 81.735 77.528 77.138 77.168 77.793 82.508 81.705 79.895 77.475 79.17 77.688 79.765 79.81 78.89 79.743 78.083 77.885 77.748 77.693 76.855 76.34 76.093 76.603 76.125 76.145 76.175 76.158 76.188 76.195 76.288 76.223 76.58 76.798 76.183 76.085 76.068 76.375 76.75 77.018 76.648 76.543 76.36 76.885 76.165 80.325 83.743 88.173 89.335 88.93 89.388 90.835 91.06 89.565 87.993 86.893 81.81 73.803 73.568 73.835 73.825 75.723 75.475 75.455 74.553 73.265
65.573 65.418 64.158 63.063 63.093 63.098 63.251 64.253 66.441 69.328 71.136 72.348 66.063 63.903 63.773 63.791 63.851 63.911 63.983 64.046 64.113 64.176 64.256 64.326 64.376 64.463 66.366 67.186 67.076 68.433 66.881 69.931 69.691 68.101 70.498 68.786 69.591 69.206 70.208 69.058 67.581 67.226 67.456 70.141 68.298 67.498 67.558 67.981 69.176 69.363 67.991 69.081 68.061 67.373 67.948 73.031 80.283 81.578 81.026 79.861 80.151 80.536 79.621 67.996 70.791 72.383 70.186 68.961 69.311 67.768 67.716 67.783 67.891 67.901 67.543 76.486 81.746 82.456 81.991 81.788 81.193 74.266 66.386 67.281 68.228 71.281 68.441 71.033 73.04 73.775 72.513 71.763 69.775 69.9 71.008 73.32 80.79 79.295 81.3 82.03 84.613 80.475 71.4 72.335 72.878 72.545 72.95 72.57 72.715 72.813 75.523 77.808 73.86 73.86 76.25 80.845 83.763 84.95 85.825 83.48 80.57 74.103 75.278 75.925 75.545 76.128 76.258 76.65 76.81 78.773 79.638 79.303 82.293 83.908 83.843 80.618 80.845 81.853 80.828 80.968 81.013 81.158 86.27 91.42 94.79 96.21 97.253 97.093 95.888 95.57 95.43 84.275 84.265 83.725 83.705 84.88 83.723 83.44 83.498 83.493 87.073 88.913 90.83 90.018 84.128 86.74 88.89 91.173 88.363 83.118 82.898 83.88 91.283 92.038 94.063 94.463 94.415 94.39 92.94 90.483 89.373 83.92 82.645 83.513 84.325 82.758 82.765 82.765 82.773 82.775 82.763 82.988 82.9 82.865 82.85 82.873 82.845 83.038 82.878 82.805 83.175 83.89 83.135 82.438 88.298 97.04 97.15 97.265 97.395 97.88 98.69 97.025 90.068 82.015 83.208 85.113 88.255 89.695 90.618 88.03 87.033 85.14 88.345 88.675 89.188 86.533 87.008 85.705 89.735 86.753 88.985 83.96 80.955 89.905 96.248 96.873 96.873 95.263 89 88.303 87.135 84.595 86.128 87.303 86.668 87.6 84.25 84.633 90.673 85.128 82.858 84.95 86.233 84.728 84.463 84.658 84.618 82.92 83.748 85.75 86.41 82.845 81.538 81.483 81.585 81.393 81.36 81.335 81.343 84.563 84.943 87.52 88.633 86.493 87.078 85.6 82.19 81.518 85.32 89.223 86.22 79.848 80.313 79.47 79.39 79.345 81.585 83.98 83.155 82.885 85.375 84.875 84.24 83.785 79.673 78.49 78.645 78.635 78.06 77.958 77.998 79.448 78.955 78.028 78.935 79.785 80.173 80.465 79.988 83.198 84.19 83.94 83.108 82.86 82.565 79.923 79.78 80.305 82.363 82.08 82.31 83.425 82.925 77.203 77.605 77.76 78.175 77.913 77.403 78.368 80.198 80.528 77.22 77.088 77.115 77.235 80.205 85.085 86.88 87.75 88.265 88.558 87.758 78.425 81.635 87.683 88.755 88.745 88.388 87.563 86.175 78.66 77.26 77.22 77.178 79.36 81.47 81.763 82.873 78.17 78.348 79.205 82 82.663 79.545 77.915 77.883 76.763 77.243 80.215 81.31 78.203 76.21 76.2 76.188 76.153 76.175 76.155 76.358 76.27 77.783 76.653 76.135 76.073 76.115 76.373 77.325 76.785 76.445 76.18 76.515 78.653 78.22 80.273 84.208 87.335 86.36 87.798 89.215 89.385 90.628 91.528 90.498 88.928 87.715 86.403 81.73 74.308 73.31 73.225 73.805 75.828 74.18 74.275 75.013 76.263
64.858 63.923 62.978 62.968 63.013 63.598 66.096 67.968 68.801 72.436 69.523 72.876 72.013 64.248 63.886 63.808 63.856 63.913 63.968 63.988 64.063 64.111 64.206 64.276 64.353 64.416 65.483 67.623 67.783 67.473 66.743 69.723 70.176 67.573 68.053 73.386 70.658 68.041 71.641 67.636 68.988 70.416 70.081 73.241 68.906 67.641 69.496 72.716 73.418 75.088 73.021 69.821 68.011 66.693 69.296 76.178 81.078 83.383 82.558 81.023 80.493 80.126 79.111 67.828 69.991 74.111 72.136 71.611 71.541 67.626 67.576 67.871 67.803 67.788 68.278 73.416 79.971 79.428 78.526 77.703 77.423 74.576 65.816 67.853 71.538 69.731 68.998 70.918 71.6 73 71.493 69.218 70.243 70.685 70.538 72.78 83.815 84.605 84.68 84.733 85.425 83.923 72.615 72.693 72.79 72.473 72.658 72.54 73.063 73.413 73.528 74.498 73.815 73.773 74.345 80.873 83.378 84.888 85.785 83.803 80.115 74.553 73.76 74.645 75.148 75.683 75.97 76.405 76.298 79.67 79.603 79.078 82.113 84.665 82.728 82.678 85.37 87.875 84.2 80.978 80.965 81.065 84.22 89.653 95.215 95.26 95.298 95.158 95.138 94.985 94.948 84.17 84.093 83.848 83.503 83.675 83.368 83.323 83.34 85.12 88.758 90.168 91.463 89.153 87.81 85.048 87.955 86.94 86.963 83.208 87.935 82.613 87.145 91.955 94.035 94.38 94.82 95.315 93.13 91.84 91.905 84.908 82.615 83.293 83.293 82.768 82.755 82.753 82.768 82.768 82.76 82.818 82.795 82.78 82.745 82.97 83.148 82.848 83.715 82.715 82.763 82.93 82.735 81.885 88.05 98.253 98.18 97.913 98.058 98.16 98.118 96.78 90.84 81.595 82.11 81.773 84.06 87.015 86.69 84.75 89.98 88.965 86.113 85.328 87.125 82.628 86.805 84.063 87.348 87.695 87.623 83.553 81.123 89.328 95.833 95.873 95.83 93.923 88.383 86.735 85.745 89.313 88.743 89.475 87.043 91.1 88.188 91.383 89.45 87.843 87.57 88.315 88.518 82.938 90.983 85.228 88.333 84.445 83.68 85.088 85.215 84.148 82.28 81.66 81.493 81.405 81.373 81.365 81.353 83.59 85.765 88.863 90.085 90.563 88.085 87.205 82.36 81.08 86.673 88.98 88.523 80.92 79.843 79.335 79.333 79.23 82.995 86.96 86.265 85.31 85.228 81.948 83.145 83.47 80.27 78.543 78.228 78.748 78.143 77.905 77.78 77.783 77.515 77.425 77.36 78.035 79.715 80.075 79.898 81.74 85.288 82.005 83.465 81.678 78.703 78.783 81.448 82.305 80.445 80.528 79.193 77.458 81.388 77.328 77.843 77.445 77.21 77.015 77.075 78.173 81.303 81.733 78.278 77.04 77.035 77.243 78.258 86.273 87.495 88.293 88.663 88.808 87.915 83.728 79.71 86.93 88.253 87.168 85.808 85.483 82.198 77.77 77.42 77.695 77.363 77.345 78.508 82.973 80.96 78.485 79.86 79.72 80.03 77.453 80.393 78.66 76.373 76.638 77.748 78.548 80.365 76.2 76.263 76.163 76.193 76.433 76.595 77.135 77.158 76.338 76.5 77.13 76.61 77.16 76.77 76.31 75.515 75.168 76.57 74.418 78.718 87.145 85.79 86.135 88.873 89.16 85.318 82.403 87.19 88.07 90.228 90.348 89.015 87.653 86.905 84.22 74.51 73.26 73.15 73.07 73.443 73.915 72.925 72.953 72.943 73.66
62.823 62.816 62.901 64.181 65.386 69.946 71.293 71.266 70.668 73.146 73.706 74.316 74.356 66.328 64.061 63.813 63.836 63.856 63.901 63.943 63.988 64.066 64.123 64.208 64.313 64.353 64.746 67.478 67.218 68.178 69.631 74.058 70.968 72.033 70.846 72.111 67.928 68.628 74.383 72.423 70.048 68.781 70.498 68.821 68.236 68.711 70.721 73.076 74.903 73.603 71.901 67.208 67.241 67.471 68.013 75.321 81.331 83.131 83.011 80.763 79.558 78.918 74.503 67.533 68.568 70.871 73.343 74.663 72.866 67.518 67.568 68.466 67.551 68.336 67.488 66.058 78.458 79.751 78.581 79.401 79.908 78.431 66.031 67.943 70.606 70.716 68.573 68.678 70.895 72.54 68.448 68.463 70.863 69.655 69.508 71.853 84.478 85.955 85.995 85.498 86.115 85.733 73.65 71.508 72.64 72.408 73.123 72.44 72.76 73.01 72.663 74.203 73.61 73.243 73.49 80.865 83.623 84.815 85.298 83.73 81.773 74.548 73.775 74.46 74.993 75.403 75.9 77.525 78.233 81.02 79.455 79.245 80.743 85.485 81.76 86.64 80.668 85.5 84.065 82.33 82.228 81.065 81.893 88.775 94.335 93.805 92.945 91.798 94.235 92.663 89.895 83.998 83.738 84.703 84.04 83.555 83.25 83.2 83.275 85.708 92.248 91.028 92.415 92.068 91.53 88.775 91.225 85.793 87.975 91.145 94.823 86.523 87.688 91.433 93.538 94.39 94.46 94.378 94.26 94.095 94.118 87.425 82.848 84.615 83.505 82.733 82.718 82.73 82.745 82.733 82.758 82.805 82.773 82.76 85.545 83.495 84.075 85.99 86.783 84.353 82.655 82.773 83.54 83.068 81.723 93.665 96.688 93.248 93.748 94.72 96.41 92.943 83.708 81.675 81.825 81.7 81.553 84.22 82.378 82.15 89.94 85.485 89.833 86.315 89.35 89.135 88.935 85.658 85.448 88.005 86.948 89.665 85.378 83.478 87.548 88.818 87.858 86.493 84.505 84.458 85.368 85.015 90.983 85.928 89.003 83.61 86.988 88.203 91.48 88.918 88.543 90.215 86.185 85.258 84.485 87.81 89.368 83.755 84.153 84.633 83.698 81.985 82.138 81.588 81.443 81.383 82.055 83.465 81.44 83.658 86.783 89.143 88.57 89.095 90.095 87.81 81.598 81.188 81.74 84.42 84.448 81.048 79.908 79.24 79.31 79.435 81.388 82.045 81.58 83.693 84.6 83.595 85.33 80.585 79.125 80.425 79.44 78.078 78 78.565 77.988 77.625 77.498 77.365 77.23 77.203 77.515 78.93 77.973 78.513 82.795 81.565 82.085 79.02 79.048 78.85 78.765 84.265 77.963 76.678 77.5 78.888 79.898 79.025 77.148 77.238 77.228 77.028 77.025 77.098 79.63 81.325 79.283 76.978 76.97 77.308 77.048 85.558 88.293 88.905 88.833 88.785 88.44 86.69 77.42 83.968 87.998 84.903 77.753 78.235 76.993 77.165 77.05 78.003 79.725 79.225 80.2 79.603 78.405 77.743 76.933 80.425 77.783 76.678 78.373 79.203 77.178 76.3 78.428 76.273 76.298 76.208 76.233 76.623 77.755 79.75 80.203 76.123 76.163 76.28 76.85 77.153 76.723 75.9 76.308 76.725 75.745 76.17 78.533 75.323 82.788 89.595 89.608 90.123 90.465 90.568 88.543 79.163 81.125 86.095 89.56 88.96 87.983 86.92 83.788 74.945 73.323 73.19 73.083 72.995 72.858 72.84 72.803 72.85 73.488 78.095
62.891 63.848 66.406 68.338 71.183 72.426 72.636 73.013 73.763 74.423 74.353 74.151 73.961 68.893 64.216 63.973 63.778 63.788 63.838 63.888 63.921 63.996 64.058 64.153 64.238 64.333 64.413 66.573 68.898 68.946 68.828 73.273 69.446 66.781 69.383 69.858 67.856 74.638 72.698 68.061 68.826 72.966 71.366 69.066 68.101 66.748 68.206 68.766 68.411 67.151 67.226 66.958 67.126 67.541 67.416 74.311 81.311 82.828 83.403 81.533 79.246 77.088 71.726 69.573 70.051 73.856 76.188 74.843 72.033 67.828 67.783 67.431 67.416 67.601 67.421 68.116 77.983 80.596 81.076 81.203 81.498 80.256 69.021 66.321 68.911 68.493 69.118 71.373 72.383 70.525 69.418 69.21 71.218 70.055 69.563 70.385 84.523 86.045 86.098 85.27 86.23 84.865 73.433 72.103 73.185 72.355 72.62 72.32 72.37 72.383 72.695 74.22 73.07 73.293 73.795 80.868 83.775 84.77 85.363 84.205 82.488 75.283 73.833 74.58 76.513 76.98 79.125 76.95 78.313 79.973 79.748 81.323 86.355 83.815 81.863 86.735 82.91 83.955 84.245 81.878 81.985 81.615 81.713 84.235 92.258 90.748 83.675 84.238 84.558 84.088 85.088 83.858 83.78 84.003 84.508 85.093 83.575 83.168 83.155 83.42 91.848 90.18 90.535 92.838 90.125 90.915 88.475 89.773 92.13 94.688 95.125 89.805 87.693 91.428 93.505 94.378 94.375 92.495 94.423 93.635 94.34 88.6 85.023 84.65 83.978 82.718 82.71 82.71 82.715 82.74 82.73 82.785 82.758 82.743 85.575 84.49 84.94 84.87 87.12 84.483 82.75 82.96 82.575 82.013 82.32 84.715 88.703 88.41 89.508 91.295 91.47 91.193 84.74 81.543 81.79 82.088 85.495 83.68 81.363 81.025 84.438 81.783 82.63 84.933 84.065 89.743 88.15 84.96 85.408 88.773 85.965 89.725 86.54 82.953 84.165 85.16 82.965 82.903 83.025 83.033 84.128 86.228 92.105 89.503 87.83 87.63 88.965 88.258 89.978 86.865 86.055 89.563 89.065 87.605 88.11 84.17 88.718 83.945 83.048 83.703 83.255 82.525 83.545 81.593 81.43 83.223 84.295 84.673 84.51 84.073 84.923 86.875 87.995 87.64 87.445 86.205 83.013 81.28 82.115 81.188 82.908 84.863 79.145 79.153 79.438 79.958 81.47 82.313 80.803 82.295 83.935 84.823 82.25 78.588 78.66 78.765 80.588 80.135 78.03 77.948 77.843 77.51 77.45 77.368 77.23 77.298 77.278 76.955 77.575 79.083 79.983 80.02 79.95 78.57 78.705 78.75 81.303 82.9 80.168 77.063 79.968 81.373 83.015 84.455 82.125 77.125 76.965 76.95 77.18 77.895 79.438 80.548 78.248 76.973 76.903 76.915 77.325 81.275 87.003 88.713 88.583 87.808 87.88 87.18 80.635 79.96 79.64 78.495 77.425 77.2 76.795 76.97 77.643 77.163 78.035 78.798 78.375 77.325 76.65 76.42 76.47 78.083 78.203 77.308 76.515 78.403 76.368 76.33 76.775 76.288 76.37 76.268 76.653 76.825 77.843 79.255 77.248 76.778 77.093 76.9 76.783 77.033 76.035 77.868 79.848 78.923 81.01 86.74 88.16 77.755 82.218 89.83 90.815 91.435 92.045 91.875 89.645 81.07 78.038 80.14 88.068 87.86 86.84 81.193 76.183 73.895 74.615 73.088 73.028 72.863 72.745 72.735 72.68 73.178 74.493 78.735
64.008 69.651 71.463 71.606 71.758 71.681 74.056 74.336 74.343 74.153 73.966 73.791 73.593 73.411 65.151 63.963 63.763 63.723 63.803 63.841 63.891 63.961 64.036 64.111 64.191 64.293 64.388 65.161 69.926 71.116 69.568 75.321 71.191 65.728 68.978 68.218 67.836 71.198 70.661 68.656 67.188 69.101 70.663 68.306 67.346 66.721 66.731 66.778 66.808 66.831 66.858 66.876 66.948 67.378 66.898 73.003 81.316 82.466 83.401 81.701 79.506 73.601 70.833 68.448 71.276 71.636 73.251 70.883 68.571 67.376 67.906 67.748 67.618 67.996 67.643 65.976 76.668 81.351 81.843 81.323 81.918 81.186 71.191 66.138 66.643 67.453 67.218 71.473 72.338 71.363 73.08 70.555 71.738 71.473 71.25 71.003 83.888 87.84 87.005 86.595 87.38 84.283 72.465 72.85 74.403 72.575 72.335 72.268 72.243 72.243 72.673 73.725 74.08 73.783 73.818 79.583 82.6 82.968 82.498 81.69 79.983 74.31 75.878 77.028 79.098 80.235 81.653 78.74 79.353 80.258 80.348 83.175 83.92 85.845 84.343 85.343 87.633 84.053 86.26 82.618 82.175 81.88 82.765 85.38 91.678 91.365 90.32 85.955 88.143 90.598 90.503 86.82 83.35 83.863 83.313 83.215 83.06 83.008 83.048 85.508 94.095 93.888 91.535 88.9 89.933 95.353 90.57 92.893 87.44 86.588 87.463 89.173 87.545 91.08 93.388 94.358 94.408 93.78 94.393 93.48 93.695 88.945 82.883 84.55 84.365 82.703 82.698 82.703 82.703 82.71 82.703 82.728 82.888 84.798 85.725 85.105 87.063 88.528 86.383 84.843 84.713 82.435 82.495 82.428 82.248 86.258 88.255 89.608 91.668 91.693 91.913 90.103 86.87 81.915 81.753 82.035 88.195 84.645 81.068 80.963 80.813 81.44 82.345 82.733 82.925 83.71 86.67 86.193 82.968 86.055 87.605 88.748 85 82.133 85.24 83.778 85.568 83.258 83.35 83.31 81.548 84.225 87.36 87.73 85.85 84.785 90.085 87.935 92.933 86.935 85.5 90.24 89.823 87.835 88.553 85.388 90.113 83.563 86.513 83.018 83.195 82.275 82.133 83.265 83.045 86.043 82.88 86.153 86.675 85.783 84.58 85.073 87.373 84.565 85.38 84.048 81.3 82.238 82.46 81.455 85.413 85.25 79.705 78.995 79.068 80.248 82.19 81.653 80.655 80.825 84.195 84.908 81.863 78.813 78.54 78.738 80.188 78.79 79.825 78.658 77.55 77.41 77.34 77.273 77.19 77.17 77.473 76.948 76.82 77.45 79.733 79.68 78.443 77.97 80.658 82.693 82.923 82.96 83.115 80.833 84.57 85.3 87.28 86.455 84.458 80.323 77.37 78.268 77.763 77.33 78.245 78.335 77.255 78.41 76.848 76.865 76.968 77.72 87.12 87.373 86.643 84.278 86.34 84.47 80.08 77.073 77.868 76.875 76.773 76.903 76.908 76.96 78.168 78.963 78.963 76.915 76.458 76.553 76.403 77.138 76.935 76.335 76.485 76.368 76.363 76.313 76.328 76.268 76.233 76.865 77.493 78.95 76.213 76.21 77.858 76.955 77.898 76.7 76.33 75.838 75.063 74.58 75.2 86.935 89.115 87.01 88.985 89.19 89.715 78.56 79.455 87.335 90.97 92.228 91.705 91.123 90.213 88.098 78.47 77.943 79.275 85.25 80.823 75.69 73.853 73.788 73.453 73.918 75.533 72.658 72.645 72.64 73.575 73.958 77.828 80.63
70.913 72.471 71.458 72.931 73.936 74.478 74.343 74.168 73.981 73.768 73.578 73.411 73.211 73.026 70.676 63.901 63.908 63.683 63.736 63.776 63.836 63.903 63.981 64.058 64.156 64.231 64.341 65.728 67.276 64.951 65.416 68.096 68.081 67.868 65.953 67.198 67.206 68.206 67.868 67.271 66.941 68.656 68.366 69.026 68.436 66.683 66.886 68.853 68.088 67.326 70.848 67.561 67.806 69.011 66.628 71.298 78.873 82.963 83.886 82.153 79.778 74.253 71.856 68.348 68.511 70.128 71.406 69.058 67.323 67.338 67.273 67.638 67.768 67.518 68.168 66.091 74.953 81.466 82.148 81.758 82.471 81.186 75.613 65.276 66.406 67.168 67.011 71.683 72.825 71.27 71.333 70.79 69.02 68.808 68.805 70.91 83.408 85.903 86.223 85.645 86.513 86.333 73.54 72.095 73.248 72.238 73.16 72.368 72.2 72.218 77.283 79.105 77.15 75.38 75.78 76.055 77.348 76.97 77.298 76.18 76.058 76.368 78.565 80.73 82.463 84.363 80.96 82.748 79.445 79.185 81.445 83.46 86.728 86.093 86.278 87.543 83.285 80.885 86.423 80.763 81.513 81.903 82.323 88.795 93.98 94.033 93.023 93.688 94.053 94.933 95.043 94.103 85.46 83.168 83.085 83.285 82.975 82.895 82.93 85.078 89.213 89.663 90.688 89.02 92.045 97.053 96.318 94.123 91.768 92.143 93.065 87.555 90.64 91.518 93.253 94.613 94.39 94.418 93.663 91.848 91.615 87.023 84.223 86.158 86.76 82.668 82.683 82.673 82.675 82.708 82.698 82.708 83.045 89.013 83.785 86.085 84.818 88.57 91.66 87.045 86.768 84.175 82.49 82.233 82.455 83.198 88.038 90.113 91.983 92.003 91.993 89.115 88.183 81.798 81.653 81.663 83.498 81.918 80.96 81.245 80.683 80.685 80.705 80.713 80.668 83.67 87.81 85.17 85.398 88.203 83.84 87.008 82.845 88.035 93.003 93.665 93.89 94.218 94.265 92.075 83.545 82.14 86.255 83.973 84.67 85.578 91.105 84.22 89.353 86.805 85.78 87.488 89.44 85.545 89.168 85.745 88.03 86.985 83.513 83.03 83.143 82.438 81.488 83.613 83.928 87.835 85.388 86.235 84.728 87.903 85.078 87.793 86.118 83.143 81.92 82.04 82 85.818 85.943 84.343 83.833 84.168 80.11 78.875 79.09 84.238 83.785 84.28 82.398 80.705 84.425 84.988 83.588 80.208 78.84 79.375 80.24 79.5 80.068 80.405 78.098 79.323 77.445 77.158 77.06 77.073 77 76.843 77.645 76.908 76.785 77.91 79.398 79.855 80.328 83.515 83.368 83.408 83.998 85.875 87.165 87.755 88.395 87.268 85.188 80.23 77.455 77.338 76.68 76.633 76.95 78.65 78.378 76.793 76.785 76.8 76.83 77.03 80.768 83.283 79.625 76.685 76.86 77.093 81.068 76.798 77.903 77.578 77.193 79.425 79.103 77.543 76.725 78.448 78.603 76.915 76.538 77.218 76.583 76.415 76.425 76.428 76.438 76.398 76.34 76.415 77.035 76.75 76.223 76.335 77.478 78.35 76.938 77.188 76.948 76.813 76.56 76.498 78.753 78.76 80.888 77.415 77.108 88.748 89.115 89.968 91.305 91.03 90.14 83.478 77.19 84.645 89.895 90.685 90.188 90.08 89.51 87.035 76.155 76.823 77.093 76.058 74.28 74.633 73.673 73.275 75.093 72.825 72.645 72.623 72.59 72.555 74.933 74.653 77.345 77.973
71.196 71.593 73.816 74.501 74.306 74.148 73.951 73.763 73.593 73.386 73.216 73.038 72.836 72.661 71.826 66.708 63.988 63.786 63.653 63.723 63.801 63.851 63.961 64.043 64.106 64.191 64.286 64.633 65.361 65.551 66.568 66.256 65.553 66.563 65.938 67.086 66.761 66.978 66.348 66.441 69.091 68.008 68.248 70.038 68.573 66.583 68.236 70.556 70.181 72.026 72.313 72.353 70.276 70.108 68.588 71.548 78.893 81.786 83.598 82.416 80.068 77.331 75.258 67.838 68.168 68.536 68.848 70.148 67.178 67.558 67.023 67.096 67.018 67.258 68.251 68.228 73.923 80.713 82.201 81.666 81.778 81.496 78.616 65.098 65.326 66.021 66.591 72.131 73.563 73.458 71.96 69.765 68.383 68.663 69.218 69.695 81.813 85.723 86.118 85.92 85.985 84.698 73.29 71.788 72.473 72.255 73.255 72.165 72.168 72.205 75.02 79.358 79.23 75.59 74.375 78.135 81.473 83.003 82.368 82.053 78.038 74.133 75.708 81.303 82.555 79.523 80.483 80.388 81.16 79.238 80.675 85.398 86.81 85.383 83.363 81.563 82.768 85.155 84.765 80.655 80.705 81.018 81.853 91.798 95.165 95.685 95.708 95.693 95.685 95.578 95.475 94.283 84.515 83.025 83.013 83.323 83.03 82.795 82.805 82.825 84.298 84.195 88.523 86.84 89.618 87.728 92.875 95.008 90.213 90.758 92.158 91.673 90.833 90.873 94.628 94.383 94.465 92.155 93.443 90.973 86.785 84.12 84.733 90.295 89.55 82.91 82.653 82.663 82.668 82.7 82.678 82.688 82.835 88.573 88.268 84.278 86.795 91.425 86.288 89.02 88.623 85.12 82.585 81.818 81.335 81.848 87.663 89.383 91.953 91.99 91.963 88.558 88.155 81.59 81.6 82.893 86.555 86.313 81.478 80.995 80.695 80.56 80.583 80.603 80.538 81.74 84.925 86.45 86.88 88.823 88.653 82.663 79.648 92.395 94.663 96.228 96.4 96.505 95.728 93.105 84.408 81.045 81.46 81.773 81.768 84.208 86.215 86.933 85.713 85.98 86.305 82.338 84.328 86.678 86.135 88.618 84.78 84.585 83.66 83.31 83.353 82.11 81.52 81.555 86.198 86.62 86.088 85.843 82.423 85.51 89.055 87.763 87.523 84.97 84.663 86.638 85.353 87.093 87.015 83.343 85.333 82.71 79.233 78.733 79.01 83.325 86.06 84.938 80.19 79.74 84.105 85.373 85.245 84.305 82.568 83.835 84.738 84.103 80.385 80.34 80.175 80.053 77.758 77.128 76.958 76.91 76.898 76.843 76.803 77.085 76.618 76.555 77.703 79.56 80.188 83.133 83.47 83.648 83.453 85.663 87.808 88.968 89.085 87.885 86.97 84.26 79.883 76.555 76.568 76.575 77.345 79.615 80.513 77.493 77.233 76.75 76.738 76.9 77.115 77.043 77.348 77.615 76.403 76.425 78.735 79.185 79.153 80.343 77.998 80.935 77 76.418 76.37 77.985 80.18 78.218 76.748 76.438 76.47 76.403 76.423 76.425 77.085 77.05 76.3 76.28 76.63 76.348 76.3 77.633 76.905 77.438 76.508 76.28 76.343 76.415 78.015 78.083 84.498 88.59 88.56 85.833 76.288 87.33 90.185 91.31 91.958 92.283 91.093 88.755 75.96 79.928 89.11 89.278 88.535 87.1 83.848 78.525 74.075 74.85 76.54 74.98 74.7 76.018 74.163 73.835 74.368 72.69 72.593 72.565 72.545 72.978 73.418 71.31 71.37 71.675
73.703 74.413 74.303 74.118 73.931 73.763 73.548 73.383 73.206 73.026 72.833 72.651 72.483 71.581 68.501 63.791 64.348 63.931 63.631 63.708 63.763 63.866 63.923 63.991 64.078 64.161 64.911 65.596 68.076 68.081 68.093 66.746 65.648 66.078 65.861 65.996 66.111 66.196 66.266 66.373 66.788 70.233 69.561 67.628 68.633 67.633 72.481 73.206 69.241 72.031 75.488 73.918 70.893 67.128 66.156 68.501 78.293 81.656 83.188 82.838 80.913 78.916 77.076 72.863 67.793 66.931 67.401 70.336 67.106 67.211 66.923 66.898 66.873 68.778 69.301 67.121 72.583 81.353 81.801 81.448 81.491 81.168 78.873 65.588 65.128 65.766 66.398 69.568 73.933 73.718 72.155 70.3 69.318 70.183 74.81 69.963 80.088 83.735 83.55 85.165 83.528 82.135 71.773 72.16 72.268 72.553 72.003 72.058 72.203 74.323 74.675 81.923 81.088 75.6 73.408 77.92 84.875 86.868 87.51 85.66 79.88 74.335 75.533 77.693 77.45 79.363 80.925 81.178 82.038 81.658 81.9 81.325 82.518 80.458 79.958 79.435 80.255 80.14 80.5 80.625 80.668 81.09 81.608 89.263 95.135 95.695 95.708 95.733 95.703 95.403 93.81 90.295 84.948 82.953 82.975 83.473 83.238 82.703 82.685 82.688 84.31 82.633 84.423 83.063 83.558 85.525 91.353 88.415 89.483 90.44 87.21 83.7 91.428 92.675 93.405 94.385 94.438 92.553 93.58 91.11 85.983 84.913 84.353 86.94 91.17 83.31 82.633 82.635 82.66 82.65 82.653 82.683 82.723 86.093 87.198 85.638 87.443 87.953 85 87.015 89.303 84.478 83.365 82.178 81.148 81.483 87.87 89.498 92 91.973 91.955 88.323 87.328 81.585 83.733 85.813 87.633 91.475 84.168 81.923 80.505 80.425 80.47 80.468 80.425 80.608 81.22 80.968 85.725 86.338 86.755 83.47 81.725 92.2 94.68 96.66 96.78 96.665 95.733 91.943 83.91 81.003 81.468 81.715 81.755 81.78 81.823 84.245 81.835 81.893 81.895 81.94 85.773 86.72 87.745 86.508 84.633 83.333 83.1 83.403 83.763 81.98 82.22 83.27 86.788 84.793 83.265 84.38 85.333 87.08 87.425 86.988 87.63 86.73 87.265 88.663 89.4 89.423 85.845 83.715 84.028 80.848 78.888 78.658 78.623 78.585 81.205 82.83 79.678 79.445 84.105 85.233 84.785 84.965 85.133 85.11 84.668 83.343 80.063 79.69 80.688 81.148 80.615 78.665 77.008 76.81 76.7 76.695 76.615 76.55 76.818 77.415 76.49 76.753 79.538 80.933 83.46 83.078 82.968 84.965 87.24 88.723 89.305 88.525 86.978 84.338 78.988 76.483 76.52 76.548 76.798 78.638 79.383 78.518 78.293 76.675 76.725 76.883 77.383 76.785 76.685 77.1 76.313 78.065 78.79 78.75 78.998 81.148 79.89 80.898 76.813 77.43 76.513 76.343 76.39 76.428 76.435 77.425 76.455 77.833 76.643 76.985 77.16 78.46 77.375 76.363 77.333 76.47 76.403 75.85 75.493 75.235 74.955 75.39 76.528 83.068 85.828 86.69 88.66 89.615 90.313 89.308 81.26 81.438 89.585 91.498 91.935 91.563 90.625 89.403 80.875 78.44 85.548 85.41 82.775 78.645 75.403 73.713 73.668 73.67 73.53 73.598 73.853 74.39 74.673 73.018 72.78 72.65 72.595 72.575 73.188 72.13 70.615 70.36 70.663 73.425
74.311 74.141 73.926 73.716 73.563 73.383 73.171 72.998 72.821 72.658 72.453 70.268 69.866 65.933 63.408 63.476 63.498 63.581 63.623 63.703 63.773 63.836 63.906 63.983 64.041 64.118 66.498 67.373 68.068 68.036 69.003 68.593 68.803 65.921 66.066 67.781 67.426 66.171 66.216 66.428 67.333 69.591 68.411 67.508 67.063 69.606 69.516 70.491 70.501 68.703 67.928 68.933 70.973 66.293 66.181 68.816 77.248 80.988 82.801 83.241 81.378 80.851 80.743 80.403 72.331 66.806 67.163 70.101 67.753 67.536 66.988 66.783 67.443 67.213 68.971 67.783 67.411 79.696 80.688 81.361 81.473 81.281 79.818 72.191 64.831 65.441 66.156 70.281 75.085 74.185 71.78 70.243 69.323 72.02 74.785 73.018 72.345 72.483 81.255 82.558 83.168 79.478 72.778 71.475 72.805 75.363 72.628 71.96 72.22 73.675 75.753 78.618 75.248 74.573 74.933 79.545 84.825 86.828 87.555 85.928 80.59 75.895 75.328 76.255 78.463 78.93 79.585 80.988 82.93 82.493 82.873 82.713 82.298 80.208 79.568 79.785 80.455 80.188 80.565 80.693 80.748 81.578 81.253 88.865 94.988 95.775 92.73 94.945 95.713 95.455 92.905 85.72 83.755 82.86 84.023 83.643 83.268 82.853 82.975 82.573 82.533 83.493 85.405 87.105 85.158 84.03 86.553 87.758 89.918 85.545 88.2 85.788 91.06 94.278 94.255 93.895 94.838 93.728 93.138 91.79 86.838 84.305 85.718 86.555 85.403 82.618 82.61 82.615 82.643 82.658 82.643 82.675 82.693 84.825 87.06 90.058 90.453 88.858 87.713 86.503 89.053 86.325 82.948 82.098 81.54 81.773 88.008 88.483 91.998 91.99 91.98 89.523 88.14 82.245 83.575 87.665 87.19 91.28 87.013 85.893 84.4 80.313 80.32 80.338 80.305 80.68 84.218 83.878 82.833 82 81.153 81.39 83.61 90.723 93.985 94.56 94.215 94.273 94.138 91.24 86.2 83.53 83.315 81.74 81.768 81.765 81.805 81.808 81.848 81.893 81.945 83.858 82.463 90.213 89.333 90.575 83.838 84.345 83.095 83.355 84.093 83.518 85.658 84.653 88.145 87.533 85.293 84.335 85.73 88.265 88.433 88.228 88.398 88.01 88.05 89.188 91.07 89.905 86.89 79.84 79.275 78.595 79.298 78.628 78.53 78.44 79.083 81.185 79.14 80.743 85.1 85.335 85.285 85.118 83.13 81.785 82.225 81.505 79.735 81.64 81.848 82.3 83.248 80.065 76.963 76.883 76.683 76.573 76.515 76.44 76.4 76.358 76.678 76.845 76.22 77.885 81.858 83.033 83.163 84.183 86.748 88.165 89.188 88.963 87.505 85.228 80.163 76.403 76.475 76.485 76.61 78.073 80.163 79.418 78.753 76.708 76.985 76.685 76.718 76.65 76.605 77.255 77.313 79.135 77.16 77.323 78.075 77.43 80.76 77.178 79.318 77.438 77.835 76.41 76.453 76.43 76.865 77.055 77.608 76.853 76.7 76.708 76.433 76.495 80.5 76.818 77.523 76.46 76.32 75.59 74.343 77.025 81.798 77.483 75.895 87.28 89.203 89.995 90.808 91.603 91.245 88.845 84.065 78.368 88.04 90.233 90.003 91.273 89.693 88.545 85.583 75.165 75.743 79.758 77.793 75.27 74.41 73.505 73.69 73.435 73.453 74.118 74.34 74.838 77.388 77.715 72.798 72.673 72.585 72.953 72.045 71.738 70.978 70.268 71.435 72.523
73.946 73.761 73.556 73.353 73.178 72.988 72.801 72.626 72.116 72.178 66.443 63.353 63.283 63.311 63.388 63.411 63.501 63.551 63.601 63.691 63.766 64.791 65.541 64.403 64.033 64.271 67.746 67.988 68.026 68.008 71.138 69.918 67.786 65.818 69.113 69.381 68.076 67.601 68.291 67.456 68.591 69.476 69.458 67.366 66.233 66.556 66.383 67.476 69.341 66.441 66.388 66.458 66.441 66.451 67.168 68.326 73.191 80.608 82.348 83.441 81.673 80.806 80.426 79.926 73.991 69.683 69.821 69.191 67.471 67.103 66.983 66.651 67.183 66.693 67.088 67.388 67.646 76.258 79.856 81.286 81.398 81.376 80.931 76.313 65.041 65.163 65.948 67.091 76.605 75.535 72.17 69.693 68.078 68.948 68.973 74.608 69.115 71.383 84.453 84.993 85.35 84.9 75.898 70.12 72.968 73.648 72.583 72.14 71.988 72.383 72.125 73.488 73.348 74.398 74.36 78.72 85.018 86.778 87.555 85.683 80.868 74.718 74.57 75.113 75.943 77.848 78.23 79.548 83.623 82.335 85.705 85.453 82.395 80.108 79.343 79.743 80.56 80.173 80.613 80.745 80.795 81.335 81.335 87.25 94.965 95.768 93.773 94.183 95.705 95.475 91.773 87.09 83.375 83.773 84.703 84.445 83.458 82.9 82.995 82.423 83.323 88.418 84.588 90.75 87.94 87.815 82.84 82.893 83.133 82.78 82.713 82.94 91.015 92.17 92.138 91.903 91.923 92.1 91.653 90.973 85.308 83.878 89.84 87.8 91.913 85.388 82.82 82.645 82.68 82.638 82.795 83.035 83.215 84.29 86.665 89.17 88.328 89.163 86.978 89.82 86.585 84.555 81.835 81.698 82.003 82.345 87.963 88.828 91.97 91.988 91.973 90.278 87.888 83.353 85.305 87.613 87.525 88.465 86.768 82.123 85 82.52 80.24 80.235 80.26 81.083 84.923 81.82 82.925 83.508 84.615 82.46 81.03 91.185 94.328 94.775 94.46 94.625 88.203 91.56 92.63 92.37 92.525 88.238 82.538 81.738 81.793 81.79 81.955 81.873 82.028 85.445 88.29 90.523 90.348 88.398 91.095 88.343 84.975 83.55 84.083 83.16 86.128 84.585 88.685 87.365 85.878 82.88 87.173 88.315 88.443 88.525 89.703 89.905 89.99 90.188 91.223 90.473 88.025 81.188 78.725 78.45 78.9 78.503 78.428 78.363 78.855 79.663 78.955 81.468 83.93 84.22 84.005 81.22 80.573 79.08 79.825 80.143 79.56 81.608 82.568 82.795 82.935 78.91 77.008 77.135 76.89 76.605 76.395 76.338 76.343 76.26 76.193 76.775 76.42 76.21 76.548 81.64 82.143 80.075 85.648 87.503 88.725 88.37 87.64 86.018 82.533 76.44 76.45 76.4 76.448 78.303 78.515 79.058 77.225 76.713 76.738 78.215 78.17 79.425 77.655 77.285 77.618 76.838 76.185 76.298 77.018 77.435 76.375 76.713 78.578 76.833 76.398 76.408 76.393 76.425 77.833 78.343 79.385 77.44 76.44 76.568 76.838 78.048 77.588 78.468 76.775 76.845 79.788 85.698 87.565 86.673 89.443 89.065 76.563 83.06 89.998 91.275 92.545 92.385 91.343 89.663 87.843 75.625 83.808 89.075 89.508 88.318 82.495 80.978 78.288 73.76 73.7 73.513 73.75 74.073 75.14 75.678 75.57 74.953 73.92 73.188 72.928 73.575 73.108 75.245 73.133 72.708 73.613 72.88 70.313 71.628 71.25 70.595 71.488 71.84
73.553 73.373 73.178 73.008 72.796 72.638 72.438 72.281 67.941 65.428 63.161 63.183 63.256 63.311 63.378 63.443 63.473 63.808 63.571 64.883 66.968 67.266 67.316 66.436 65.036 65.856 68.133 68.501 68.013 68.303 73.213 75.706 69.936 67.676 69.661 73.223 67.146 66.626 67.586 66.918 66.086 68.276 66.908 67.216 66.103 66.688 66.531 66.458 67.291 66.303 66.311 66.371 66.438 66.476 66.466 66.956 71.708 80.216 82.133 79.843 76.386 73.341 72.876 69.201 68.396 66.976 67.303 66.998 67.208 66.643 66.941 66.581 67.058 67.171 66.863 66.981 66.618 75.623 79.431 80.903 81.386 81.448 81.388 76.448 64.803 64.966 65.736 68.016 72.083 73.868 69.62 70.718 67.973 68.005 68.073 69.985 69.808 72.523 85.208 85.805 86.088 85.418 76.173 69.988 72.675 72.018 73.095 71.913 71.893 73.173 72.223 72.703 73.215 74.11 73.515 78.058 85.568 86.768 87.49 85.788 83.775 73.915 74.878 75.143 75.56 76.853 77.373 78.748 81.103 84.54 82.708 82.79 82.71 80.595 79.368 79.993 81.395 80.205 80.575 80.743 80.838 81.415 81.123 85.54 94.995 95.748 95.475 95.538 95.718 95.453 92.265 84.395 82.765 83.16 83.675 84.9 83.938 82.378 82.368 82.29 83.348 89.218 86.815 89.908 90.55 90.038 83.48 83.148 83.398 82.698 82.715 82.81 93.018 93.78 91.958 88.713 90.033 88.043 87.83 84.055 84.468 83.215 87.748 91.985 90.363 90.315 86.825 84.828 82.923 82.615 82.918 87.295 89.36 87.188 84.333 86.658 85.028 82.668 85.345 85.245 83.045 82.593 80.758 80.453 80.978 82.525 87.755 88.59 91.973 91.98 91.945 89.91 88.053 85.948 85.1 85.935 87.018 88.095 88.698 87.73 88.35 82.51 80.125 80.133 80.773 84.513 83.915 87.305 83.445 83.43 86.253 83.27 80.353 91.968 94.855 95.263 95.243 94.975 91.87 89.583 93.963 94.48 94.073 92.56 82.268 81.738 81.908 82.33 82.268 82.855 83.54 86.91 85.785 91.715 90.938 88.933 92.11 89.625 89.68 86.43 85.868 84.118 82.66 85.288 84.57 84.8 83.925 81.213 86.275 88.49 88.42 88.435 91.513 93.943 92.225 92.283 93.585 92.343 87.545 80.17 78.848 78.383 78.278 78.343 78.343 78.213 78.63 80.158 79.73 80.695 83.255 84.96 84.788 83.853 81.07 80.09 78.843 79.323 78.595 78.02 80.983 83.545 82.993 78.953 77.04 76.945 77.29 78.293 77.443 76.348 76.833 76.78 76.138 76.113 76.29 77.095 76.23 76.488 76.848 76.403 82.693 86.71 87.313 86.673 86.433 84.71 77.805 76.328 76.415 76.343 76.468 77.903 78.435 78.135 79.073 78.28 78.173 77.653 77.628 78.433 76.59 76.058 76.353 76.338 77.128 76.655 76.255 78.13 76.258 76.293 76.32 76.338 76.728 77.22 76.34 76.473 78.765 79.02 81.695 76.763 77.498 77.155 76.715 77.283 77.218 76.525 76.683 77.575 81.768 89.343 90.088 90.535 91.025 90.095 83.965 77.655 87.42 90.105 91.12 90.538 89.805 89.148 87.605 75.725 78.173 86.76 87.813 86.22 78.27 76.348 76.363 74.553 74.073 73.738 73.448 73.578 74.33 75.318 75.133 73.868 72.87 71.905 71.925 71.895 71.843 73 73.265 71.9 72.268 70.588 71.523 70.94 73.548 73.958 73.89 70.73
73.151 73.001 72.791 72.623 72.451 71.781 67.816 63.956 63.038 63.088 63.148 63.183 63.243 63.306 63.431 64.771 66.878 67.658 66.603 62.893 66.733 67.776 68.013 68.663 68.711 68.413 69.386 67.831 68.676 70.638 72.863 78.101 73.946 69.271 70.321 74.961 69.751 66.373 65.833 66.143 66.228 66.031 66.033 66.021 66.031 66.041 66.311 66.476 66.318 66.521 67.053 66.511 67.236 66.836 67.468 66.881 68.231 71.366 78.166 74.886 76.238 73.816 73.868 74.468 74.221 65.908 68.683 68.381 68.348 66.708 67.556 66.553 66.713 66.973 66.748 67.246 67.543 75.381 79.656 81.073 81.476 81.408 81.458 80.823 66.806 64.771 65.601 69.021 72.888 72.258 73.98 71.398 68.928 67.955 68.033 68.128 68.633 69.58 81.115 84.86 85.9 84.825 79.48 72.445 72.258 71.998 72.558 71.955 72.153 73.73 75.808 73.908 72.013 72.208 72.465 75.483 85.068 86.725 87.59 86.033 84.283 75.22 75.088 75.248 75.758 76.095 76.748 77.503 78.825 82.605 82.888 84.325 82.423 80.398 79.39 79.663 80.848 80.188 80.625 80.813 80.868 80.943 81.09 86.058 93.603 95.755 95.76 95.725 95.705 95.543 94.11 85.625 82.753 83.02 82.68 83.908 82.938 82.12 82.11 82.158 82.608 84.648 88.363 91.495 93.215 91.79 84.405 82.903 83.313 82.573 83.7 89.408 94.193 97.613 96.34 86.65 88.968 91.46 85.808 84.853 83.678 86.118 92.168 89.603 88.358 92.913 90.515 85.085 82.42 82.085 82.08 87.198 90.283 86.07 82.665 85.838 82.703 86.003 84.053 83.75 83.105 82.82 82.678 82.553 82.77 83.09 87.333 88.59 91.99 91.973 91.958 89.998 87.98 85.955 85.32 93.203 89.053 89.058 88.19 90.283 88.018 86.225 79.988 79.993 80.425 84.255 87.82 88.14 85.178 89.513 88.768 88.245 79.733 86.655 91.203 90.763 89.915 92.535 92.655 90.093 92.1 90.883 91.558 83.92 81.565 81.718 84 87.055 84.998 84.818 85.863 82.42 85.01 92.693 89.813 95.43 95.643 86.428 92.285 90.815 86.405 85.893 86.093 83.223 83.865 84.358 82.073 81.22 86.675 88.405 88.543 88.363 93.09 93.538 93.57 93.553 93.533 93.438 87.63 79.02 78.813 78.255 78.183 78.22 78.218 78.163 78.618 79.27 78.66 80.865 85.07 84.993 84.808 84.533 81.005 80.61 79.983 78.043 78.168 77.97 79.963 80.003 79.483 79.205 77 77.28 82.103 83.12 82.56 81.23 76.998 76.755 76.278 75.98 75.96 75.985 75.92 76.303 75.98 75.963 79.075 85.355 84.743 80.75 83.775 78.348 76.793 76.28 76.458 76.443 77.465 78.913 78.533 78.545 78.678 80.045 78.975 78.488 79.315 76.15 77.805 76.05 76.798 76.218 76.055 76.1 76.193 76.213 76.22 76.363 76.91 78.053 78.233 77.873 76.365 76.755 77.385 77.393 78.973 76.45 75.725 76.67 76.895 77.443 80.898 83.235 78.348 76.383 83.99 88.588 90.81 92.253 92.35 90.33 87.2 79.345 84.24 89.25 89.21 90.068 86.21 85.19 82.655 74.51 74.313 77.25 81.333 78.485 73.723 76.153 76.355 75.313 73.71 74.248 73.585 73.363 72.948 72.805 72.3 72.86 73.93 71.98 71.788 72.623 73.015 72.558 73.41 70.3 70.165 72.35 72.53 73.863 75.753 75.983 74.943 73.145
72.786 72.613 72.263 69.998 67.441 64.071 62.938 62.956 63.018 63.061 63.136 63.176 63.468 65.426 69.801 71.971 71.771 70.813 69.396 64.501 62.918 66.881 68.238 68.988 68.541 68.143 68.568 68.661 68.413 69.941 71.231 73.233 69.038 67.481 66.138 70.271 69.316 66.451 65.986 65.823 65.983 65.943 65.943 65.966 65.998 66.026 66.053 67.243 68.333 66.721 71.833 71.233 70.441 69.791 68.181 66.903 67.691 69.141 78.248 79.703 80.726 79.333 78.788 79.126 79.428 65.008 66.128 66.341 68.043 66.418 66.763 67.433 67.631 66.633 66.826 67.556 67.403 72.758 79.078 80.983 81.413 81.421 81.203 80.518 69.286 67.348 67.381 66.823 68.61 72.175 71.893 76 69.135 67.993 68.055 68.393 69.135 70.503 76.808 84.59 85.995 84.733 79.438 70.238 72.58 72 72.01 71.855 71.813 72.548 73.41 73.083 71.93 72.135 72.425 75.06 85.775 86.598 87.695 85.893 83.865 77.695 75.648 75.325 75.585 75.905 76.63 77.143 78.428 79.123 81.353 82.545 82.475 80.235 79.43 79.545 80.645 80.693 80.723 80.998 80.843 80.905 81.105 86.865 92.638 95.658 95.71 95.705 95.713 95.57 94.018 84.043 82.638 82.343 82.268 82.328 82.558 81.958 81.975 81.983 82.405 82.28 88.208 90.84 92.41 88.095 83.81 82.893 82.99 83.118 83.39 90.873 91.735 97.255 102.288 96.558 89.115 88.935 86.128 84.718 84.315 89.993 88.64 86.958 89.72 91.098 87.845 82.838 82.023 82.418 82.258 83.073 83.505 82.753 82.495 82.495 82.813 83.055 82.98 82.61 82.578 82.555 82.57 82.575 82.573 83.76 86.123 88.36 91.653 91.973 91.96 90.04 87.468 84.558 87.915 88.15 92.283 91.25 88.84 85.268 90.283 85.218 80.745 79.87 79.91 84.248 83.818 85.765 86.38 88.118 87.873 85.203 83.003 82.193 85.463 84.313 82.5 82.143 83.008 82.335 81.743 81.34 81.593 81.633 81.673 82.12 86.228 88.63 87.548 87.563 83.54 84.895 86.87 90.635 89.973 93.47 96.873 87.44 83.293 89.465 90.608 86.255 85.618 86.73 81.288 82.975 82.463 81.158 84.843 88.075 88.08 88.045 90.788 91.58 91.463 92.013 92.433 92.285 86.105 79.093 79.398 78.15 78.045 78.125 78.09 78.023 78.073 78.938 78.778 81.04 84.985 85.048 84.93 84.64 82.248 79.748 78.56 79.138 78.09 78.115 78.658 80.188 82.23 82.043 77 77.94 81.063 83.32 82.875 83.233 81.12 76.398 75.95 76.238 76.535 75.865 75.825 75.905 76.17 75.678 75.73 79.575 78.78 76.36 76.703 76.753 77.943 77.515 78.155 78.085 78.608 79.128 78.358 77.565 76.713 76.595 76.21 77.61 80.068 79.77 76.348 75.988 75.998 76.025 76.073 76.1 76.145 76.255 76.515 77.16 76.788 76.37 79.893 79.278 76.345 80.055 78.7 77.805 75.698 75.7 78.4 80.63 82.568 83.588 88.188 88.378 86.578 75.09 81.808 87.178 90.018 92.083 92.45 91.323 90.223 79.085 78.648 83.795 78.433 75.485 75.183 76.588 73.753 73.818 74.55 78.925 75.548 73.19 73.155 75.455 76.313 74.998 73.45 74.045 73.905 72.233 71.838 71.705 71.728 72.175 73.573 73.358 71.825 71.968 71.935 71.803 71.428 70.215 69.808 73.37 75.593 75.825 76.168 76.305 74.463 72.04
72.406 72.173 67.146 63.053 62.846 62.863 62.898 62.968 63.001 63.031 64.901 67.271 68.361 68.978 70.768 71.786 71.766 71.011 69.933 69.358 65.243 64.161 67.461 66.646 67.786 67.188 66.258 65.711 66.093 68.328 67.053 68.598 68.111 66.136 66.391 68.006 70.163 70.181 66.233 65.953 65.918 65.971 65.916 67.443 66.711 69.753 67.961 68.938 70.028 68.763 72.083 74.711 71.753 69.368 67.568 65.866 67.131 70.206 80.031 81.476 81.878 79.963 79.086 78.726 77.033 70.281 65.993 66.153 68.181 66.313 66.153 67.123 67.593 67.156 66.301 66.773 67.261 71.766 79.321 80.913 81.426 81.523 80.771 75.381 70.641 69.166 70.963 67.841 68.023 71.54 72.208 70.79 67.888 68.093 68.383 69.005 69.603 69.958 73.815 84.41 85.353 84.768 80.023 69.358 72.95 71.89 72.165 71.948 71.795 71.77 71.825 71.89 71.9 72.19 72.485 74.445 78.968 80.655 80.145 82.998 80.203 78.255 75.463 75.345 75.59 75.928 76.638 77.283 78.48 79.293 81.2 82.553 82.585 81.758 79.605 79.588 79.808 81.035 80.595 80.855 80.863 80.883 80.975 84.14 93.948 95.088 94.74 94.493 94.783 95.64 93.548 81.973 82.545 82.213 82.138 82.003 81.835 81.753 81.83 81.845 82.293 82.435 84.41 86.265 89.953 91.46 86.58 85.803 83.54 83.23 82.205 89.663 97.555 101.568 98.763 91.488 87.748 88.778 87.678 82.815 82.73 82.328 81.95 82.17 83.468 85.903 82.925 82.245 82.28 82.088 81.983 81.933 81.978 81.98 82.103 82.365 82.885 82.748 82.6 82.593 82.605 82.59 82.585 82.585 82.603 83.308 88.208 88.203 91.245 91.97 90.555 87.673 85.118 81.77 84.898 87.31 92.573 89.568 89.153 81.623 82.148 81.563 82.143 79.788 82.968 83.045 84.828 84.995 88.688 90.24 89.025 87.55 80.565 83.095 86.46 86.385 85.788 86.003 86.38 84.548 83.078 81.238 82.028 81.715 81.823 81.795 82.213 83.425 86.33 83.565 82.265 87.365 91.638 86.123 90.85 88.835 88.175 86.438 88.015 88.29 87.355 85.65 83.8 84.515 81.265 81.195 81.165 81.2 84.633 87.95 88.338 88.185 89.265 89.698 89.675 90.573 91.305 91.2 86.648 79.81 80.14 78.04 77.94 78.03 78.033 77.9 77.953 78.463 78.51 79.71 83.488 85.093 84.918 84.718 81.303 79.525 78.033 78.783 79.275 81.763 83.485 83.325 82.29 81.26 77.81 78.79 80.093 81.588 82.795 81.463 81.253 80.763 76.978 76.015 76.67 76.128 75.72 75.7 75.673 75.908 76.228 75.693 77.56 77.935 76.738 77.343 76.543 77.16 77.143 78.06 78.343 77.008 76.265 75.73 75.713 76.095 76.675 77.15 77.993 76.4 75.995 76.03 76.04 76.043 76.125 76.595 76.668 76.2 76.418 77.19 77.098 76.735 77.89 78.29 76.138 78.053 78.575 77.83 74.998 77.485 85.618 89.913 89.203 89.105 89.818 90.233 87.835 74.803 80.915 85.975 89.22 91.358 91.288 90.333 89.393 81.23 74.063 75.288 73.84 73.738 73.67 73.845 73.76 74.218 75.818 80.853 78.578 73.148 73.138 73.878 73.088 72.915 72.945 76.088 76.528 72.805 71.69 71.648 72.823 73.69 73.215 72.908 71.48 71.818 70.96 69.93 70.698 71.835 73.718 75.623 75.96 76.328 76.208 75.558 73.018 71.605
65.708 63.928 62.811 62.796 62.806 62.836 63.716 65.623 67.176 65.268 66.856 68.888 68.833 68.843 68.888 69.188 66.011 67.551 69.618 69.841 69.056 67.646 68.276 67.231 65.758 65.701 67.056 66.688 65.913 65.196 65.408 66.673 66.098 65.688 66.691 68.938 67.983 69.008 66.143 65.811 65.801 66.161 66.748 68.243 68.986 70.766 67.396 67.278 66.928 68.368 70.578 72.336 68.671 66.023 66.273 65.826 66.861 68.038 78.821 81.078 82.181 80.163 77.958 77.281 71.181 65.248 66.386 66.411 67.831 66.343 66.046 66.773 67.641 66.226 66.141 68.913 66.011 67.668 79.878 80.688 80.286 80.321 77.228 71.656 75.703 73.161 74.291 69.518 66.47 69.27 69.813 70.648 68.548 68.735 69.778 69.87 69.573 69.663 72.378 81.195 84.933 82.425 75.88 69.245 73.835 72.385 71.923 72.063 71.763 71.755 71.828 72.43 72.275 72.308 72.553 72.878 75.155 75.323 75.633 78.05 78.233 78.23 76.385 75.38 75.64 75.933 76.46 77.295 80.855 83.083 83.47 84.528 82.613 81.94 79.735 79.695 79.963 80.315 80.633 80.873 80.915 80.915 80.985 81.875 83.445 83.955 85.17 83.753 85.573 83.073 83.288 81.92 82.095 82.1 82.045 81.898 81.688 81.55 81.67 81.685 81.833 82.77 90.748 87.073 92.435 92.825 90 84.748 82.72 81.52 81.278 84.633 89.355 96.053 93.705 87.005 86.715 84.05 82.415 81.233 81.293 81.393 81.478 82.398 85.06 86.97 82.925 81.94 81.93 81.968 81.943 81.898 82.268 81.888 81.898 82.165 82.655 83.82 82.793 82.575 82.578 82.593 82.583 82.56 82.57 82.605 86.333 86.935 87.88 89.155 87.755 85.065 84.3 81.913 84.845 87.255 87.925 82.973 89.18 83.59 79.64 81.933 81.34 79.655 82.235 86.403 83.105 86.738 87.953 89.238 85.543 82.83 81.113 85.193 92.49 92.048 91.733 91.82 92.565 92.655 84.723 81.103 81.468 81.58 81.658 81.623 81.643 81.615 81.625 81.643 81.65 83.265 85.155 85.618 85.563 85.503 94.315 89.463 90.018 89.783 87.873 85.955 89.275 86.223 81.765 81.24 81.33 81.47 84.355 86.883 84.225 81.4 83.673 87.333 82.293 85.508 84.503 84.278 81.573 78.67 78.238 77.92 77.803 77.913 77.888 77.765 77.813 78.3 78.22 78.11 81.37 84.408 84.658 83.53 80.735 80.053 78.565 83.783 82.698 83.393 84.028 83.373 81.388 80.243 77.77 78.125 79.57 80.248 80.97 78.188 80.608 80.863 76.948 76.968 75.945 75.615 76.175 75.883 75.6 75.598 76.093 75.998 75.48 76.405 77.398 78.183 78.308 77.575 77.068 76.565 75.528 75.613 75.74 76.205 75.88 75.835 75.775 75.805 76.043 75.915 75.925 75.938 76.44 77.153 76.228 77.538 76.203 76.248 76.485 77.425 81.32 78.795 77.583 76.715 76.34 79.778 81.003 79.478 74.91 76.913 89.06 90.373 90.338 91.105 91.86 90.813 88.73 79.648 76.783 86.065 87.923 89.55 87.978 85.32 83.438 76.515 73.93 74.038 73.833 73.555 73.335 73.293 73.228 77.46 79.61 74.838 76.368 73.553 73.01 72.925 72.875 72.858 76.353 77.46 77.858 75.33 74.018 72.485 74.858 76.138 73.238 72.268 70.69 70.378 71.488 69.835 71.43 75.165 75.725 76.038 76.353 76 75.56 74.155 70.298 70.553
62.851 62.843 62.806 62.813 63.838 66.481 69.021 71.106 71.661 70.443 65.496 63.846 65.453 64.781 66.086 63.751 62.643 62.628 68.586 70.196 70.596 69.308 68.763 67.931 65.513 65.896 71.681 76.936 70.053 67.246 65.346 71.301 72.368 65.976 70.913 68.106 67.093 68.293 65.961 66.251 65.976 66.121 66.813 66.376 65.448 66.958 66.396 66.798 66.491 66.456 66.061 65.586 65.638 67.278 66.516 65.513 65.468 69.523 77.813 80.706 82.213 80.628 78.631 75.858 71.761 65.621 66.458 66.238 65.828 65.996 65.933 65.996 66.158 66.411 66.213 67.208 66.661 65.658 74.808 78.821 78.516 74.548 65.773 65.613 71.543 73.471 71.171 70.938 65.93 66.635 68.823 70.558 71.555 71.425 71.14 68.77 68.433 69.08 78.12 83.92 85.123 84.21 79.323 68.945 73.385 72.43 71.653 71.65 71.705 72.028 71.893 73.295 73.603 73.245 73.428 73.538 75.628 74.97 75.035 78.053 78.263 78.288 75.82 75.365 76.03 75.985 76.498 77.04 85.005 88.693 84.848 82.635 86.125 83.113 82.813 79.848 80.26 80.63 81.745 81.11 81.045 81.115 81.335 81.293 82.41 83.943 84.63 86.518 86.735 86.415 88.17 86.64 82.11 82.218 82.378 83.55 84.108 81.565 81.643 81.545 81.85 83.645 94.073 89.823 89.485 94.685 91.958 81.28 83.045 83.62 84.405 85.248 90.328 91.153 89.773 86.283 84.6 84.078 80.938 81.05 81.138 81.258 81.363 82.52 84.698 85.75 84.41 85.275 83.098 83.345 83.453 83.738 85.423 83.37 82.045 82.098 82.598 82.875 82.76 82.785 82.893 82.938 82.898 82.958 83.003 83.183 85.33 86.218 85.273 86.195 86.21 86.103 84.125 82.57 82.143 87.705 88.49 83.64 85.47 86.693 82.005 81.383 79.9 79.55 88.61 88.283 89.238 87.835 87.255 88.485 84.89 81.29 79.898 86.41 93.128 94.818 95.09 95.158 95.07 93.318 85.843 80.693 81.383 81.59 81.65 81.615 81.628 81.595 81.62 81.655 81.655 82.108 81.708 81.735 82.085 91.2 94.42 89.655 86.57 87.965 86.89 85.64 86.815 86.245 84.323 84.31 83.188 83.595 83.088 84.465 81.658 81.825 84.223 85.41 81.155 79.928 80.09 79.438 78.253 77.798 77.6 77.788 77.695 77.808 77.793 77.685 77.703 77.618 77.893 78.273 81.548 84.683 84.868 84.468 80.063 79.563 78.558 80.545 80.52 82.573 81.68 80.91 80.118 79.765 79.353 78.233 77.38 81.993 80.5 77.798 80.935 80.858 75.803 77.685 77.49 76.158 75.545 75.88 75.935 75.558 75.453 75.405 75.36 75.35 75.5 76.805 76.53 75.59 75.418 75.358 75.953 76.143 75.55 75.563 75.638 75.678 75.733 75.738 75.788 75.835 75.835 75.873 76.393 77.395 77.335 77.763 77.195 76.86 77.933 78.095 83.895 78.398 75.543 75.543 75.798 79.388 79.87 78.08 75.038 73.915 86.595 90.615 91.413 92.405 92.01 90.578 89.448 84.898 75.288 84.118 86.923 82.085 75.48 73.933 73.908 73.88 74.063 74.953 73.525 73.368 73.185 73.023 73.01 73.045 77.56 75.225 77.218 73.1 72.868 72.825 72.81 72.818 72.818 72.813 74.005 75.695 73.093 72.805 75.468 74.483 73.508 71.6 69.925 70.953 72.4 72.685 75.425 75.813 76.193 76.613 75.808 75.143 73.19 71.928 70.143 69.82
63.461 63.543 64.743 64.426 62.661 68.681 70.058 71.346 71.798 71.408 64.473 62.508 62.558 62.593 62.601 62.618 62.598 62.618 67.998 71.623 71.668 70.343 69.276 66.503 63.221 65.141 66.921 73.386 69.661 71.928 69.261 72.808 70.521 67.466 70.118 69.253 65.786 67.291 65.378 66.898 65.236 65.258 65.308 66.243 65.356 65.391 65.418 65.451 65.478 65.971 65.553 65.606 66.388 66.081 67.058 65.538 64.993 68.278 77.578 80.538 82.166 81.086 78.901 72.468 70.626 66.221 66.148 66.311 66.166 65.986 65.876 66.343 65.813 66.241 66.433 66.186 66.703 65.568 74.013 78.913 79.608 79.006 68.931 65.413 65.883 70.553 69.706 66.933 65.92 66.093 69.015 69.983 68.945 67.86 67.865 68.375 69.025 69.233 79.678 85.473 85.998 85.605 81.97 69.345 72.085 71.855 71.895 71.79 71.64 72.438 71.803 73.603 73.33 73.468 73.803 73.735 74.355 74.338 75.225 78.103 78.29 78.218 75.54 77.83 78.775 78.825 79.065 81.503 86.2 92.703 87.443 84.89 81.825 87.263 86.003 85.1 80.09 81.22 81.273 79.555 79.71 80.093 80.888 85.358 89.645 91.378 92.8 92.075 93.345 93.388 93.965 93.493 85.225 81.035 81.778 85.728 85.353 81.488 82.108 81.445 81.698 83.768 90.585 88.513 89.963 94.64 91.515 80.89 85.38 89.408 90.18 89.85 90.22 90.003 89.85 87.545 81.19 80.863 80.865 80.96 81.048 81.145 81.228 81.428 83.74 83.935 84.5 84.955 83.758 85.02 84.66 87.088 87.41 83.683 82.055 81.873 81.585 82.825 83.423 83.695 83.565 84.045 83.828 83.185 83.43 83.01 84.218 84.058 83.798 83.345 83.3 83.61 82.668 80.595 81.443 91.618 92.273 84.32 84.165 83.953 86.723 83.788 83.52 83.308 88.58 87.785 90.048 86.025 91.083 86.448 87.46 79.838 80.198 85.815 93.375 95.413 95.748 95.818 95.698 93.44 86.503 80.545 81.4 81.715 81.63 81.605 81.623 81.59 81.658 81.665 81.653 81.658 81.668 81.705 81.635 82.898 86.443 83.188 87.723 86.723 87.818 84.9 87.125 85.995 85.723 84.755 82.888 81.648 82.47 82.218 81.985 80.478 83.44 86.988 85.473 86.485 86.47 83.31 77.71 77.475 77.575 77.765 77.615 77.67 77.695 77.553 77.608 77.528 77.358 76.878 81.508 84.763 84.605 84.738 80.648 79.86 79.665 77.858 77.22 80.1 80.103 79.65 78.055 77.528 79.543 79.225 76.693 80.27 79.5 79.4 80.968 80.043 75.688 79.988 80.65 79.243 77.993 75.808 76.01 76.34 75.5 75.335 75.315 75.268 75.265 75.245 75.283 75.253 75.198 75.268 75.403 75.428 75.515 75.578 75.585 75.633 75.69 76.038 76.713 75.943 75.875 75.965 76.143 77.768 80.11 79.643 78.27 77.23 77.288 75.523 78.008 75.915 75.04 75.125 75.483 75.208 75.53 77.408 77.75 75.623 82.83 89.543 90.543 90.575 89.25 89.925 88.725 87.163 75.26 75.6 74.593 74.318 73.788 73.805 73.738 73.755 73.995 74.823 73.608 73.073 72.93 72.933 72.915 72.955 72.893 75.043 75.935 74.72 73.208 72.808 72.79 72.773 72.775 72.803 72.97 75.95 74.978 73.548 74.433 72.718 72.428 70.043 70.258 70.835 73.328 75.6 75.913 76.213 76.205 75.69 75.408 71.663 70.248 70.393 70.39 69.83
65.246 65.083 64.851 63.721 62.956 67.258 68.956 70.146 71.243 69.391 64.358 62.456 62.491 62.488 62.523 62.546 62.571 62.623 69.971 71.986 71.973 71.236 69.773 68.871 62.941 65.831 66.831 65.246 67.986 73.991 70.016 73.558 70.723 67.381 70.376 69.053 65.491 67.061 67.701 67.501 66.988 66.043 65.241 65.276 65.316 65.336 65.696 66.028 68.446 69.098 65.676 65.543 65.403 65.746 65.368 65.908 64.738 67.448 75.051 80.356 82.328 81.571 79.373 74.283 70.883 67.008 66.668 67.271 67.378 67.148 65.781 66.623 65.666 65.706 66.123 65.826 66.298 65.458 73.181 79.096 80.566 79.516 76.846 65.813 65.388 65.461 65.631 65.728 65.853 66.073 68.11 68.01 67.595 67.798 67.86 67.96 71.353 68.948 79.25 83.875 85.688 84.955 80.063 72.993 71.74 71.625 72.168 71.91 71.668 72.013 72.035 74.025 74.713 74.558 74.978 74.74 74.22 74.585 75.318 77.003 77.825 77.393 76.33 78.73 78.268 79.855 79.855 82.755 87.745 90.375 84.745 87.723 87.145 85.023 84.765 84.195 82.11 80.35 80.333 80.1 80.348 81.04 79.823 85.58 92.923 93.125 94.348 95.175 94.888 94.71 94.71 94.693 87.843 79.715 81.173 83.963 83.37 81.355 81.563 81.288 81.275 84.095 87.198 83.77 86.91 85.258 84.748 80.845 85.523 90.14 91.985 92.395 92.378 92.308 90.265 88.573 84.123 81.31 80.84 80.91 80.993 81.05 81.093 81.183 85.533 84.163 83.508 83.04 84.245 83.43 85.133 87.535 87.898 82.618 81.54 81.355 81.548 81.595 81.615 81.138 81.165 80.713 81.053 80.11 80.153 80.138 80.033 79.918 79.97 79.895 79.878 81.288 81.9 80.003 80.258 82.613 85.413 79.975 86.14 85.21 85.898 88.768 87.208 83.728 85.558 82.93 87.773 86.638 84.028 83.598 89.185 83.543 80.48 83.945 92.3 94.18 94.675 94.21 93.615 93.608 85.108 81.65 81.375 81.688 81.6 81.583 81.6 81.66 81.673 81.673 82.883 82.228 81.91 81.635 81.615 81.593 81.62 83.533 89.748 90.985 88.693 90.098 89.955 86.04 85.51 83.685 83.83 81.81 81.48 81.47 80.298 79.57 85.673 88.55 89.51 90.81 89.253 83.098 77.405 77.468 77.543 77.65 77.53 77.575 77.583 77.56 77.498 77.498 77.368 76.84 79.738 84.755 84.743 84.743 83.103 79.85 79.138 77.23 77.795 78.425 78.895 79.915 76.838 76.598 76.905 76.61 75.938 79.375 82.343 82.81 82.718 80.38 76.39 79.43 81.905 80.753 77.4 77.748 76.26 75.308 75.23 75.215 75.195 75.193 75.178 75.223 75.235 75.215 75.243 75.275 75.373 75.458 75.418 75.485 75.718 75.56 75.595 76.383 76.425 75.95 76.14 77.488 81.308 77.81 76.76 79.628 80.555 81.33 79.72 76.725 74.498 74.575 74.683 74.813 75.125 75.428 74.848 76.76 77.903 77.08 82.53 87.05 89.73 89.458 87.403 80.25 85.408 84.24 76.083 74.64 73.953 73.73 73.498 73.488 73.49 73.468 73.825 76.463 76.123 74.848 72.963 72.94 72.935 72.94 72.83 76.853 78.255 78.423 73.968 72.813 72.793 72.755 72.745 72.755 72.795 73.023 74.64 74.255 73.523 72.01 71.438 70.158 72.558 74.705 75.54 75.943 76.77 76.103 75.593 74.898 72.515 71.38 69.803 69.898 70.33 69.815
65.733 64.988 62.663 64.526 62.883 66.616 68.473 68.971 69.846 69.366 68.018 63.658 64.303 62.776 62.478 62.478 62.503 62.573 63.218 70.501 70.146 69.576 69.723 69.706 69.193 67.178 68.371 66.898 68.063 67.706 66.068 67.346 67.241 65.706 66.051 69.233 65.088 67.071 70.646 67.063 68.151 66.513 65.216 65.213 65.243 67.358 66.338 67.291 71.073 69.243 66.446 65.348 65.013 65.558 64.821 64.768 64.826 66.123 73.883 79.816 81.573 81.736 79.993 77.386 75.093 70.028 65.526 66.141 65.943 67.288 65.811 65.988 65.603 65.581 66.356 65.721 66.678 66.171 70.221 77.851 80.518 79.588 78.663 69.558 65.376 65.483 65.581 65.721 65.878 66.058 68.4 68.755 67.875 67.848 67.9 68.535 70.235 69.273 76.11 83.72 85.588 85.038 80.248 70.933 71.593 71.865 71.893 71.718 71.61 72.063 72.115 73.168 73.768 74.388 73.983 74.45 78.67 79.178 80.12 81.463 80.998 80.435 79.973 79.678 75.805 77.375 77.38 79.27 81.11 80.123 79.478 86.698 81.62 82.755 87.505 87.325 81.283 79.375 79.363 80.885 80.43 79.683 79.643 88.085 92.86 92.948 94.37 95.92 94.643 93.165 92.948 90.805 85.208 82.245 82.26 82.193 81.645 81.223 81.858 81.12 81.465 83.28 84.728 86.018 85.24 81.955 82.865 80.893 85.535 89.803 91.408 91.37 91.268 91.133 90.225 86.415 81.968 80.898 80.835 80.885 80.948 80.978 80.985 81.045 83.905 84.088 81.923 81.338 82.563 81.07 84.385 83.723 83.205 82.108 82.578 81.65 81.883 82.855 82.863 82.87 82.63 80.31 81.665 80.215 80.178 83.108 80.058 80.9 81.618 79.79 79.418 81.315 84.173 81.12 79.438 79.378 81.418 81.5 84.983 83.155 85.33 83.128 83.223 83.135 83.703 84.835 84.35 84.65 87.033 85.315 86.263 88.165 79.823 85.518 92.883 93.743 94.778 94.603 90.468 82.548 81.798 81.25 81.343 81.57 84.848 86.393 84.823 85.375 81.695 87.063 88.855 86.255 86.54 83.62 81.623 81.59 82.448 84.728 90.975 85.715 88.423 89.158 88.09 86.755 86.73 84.863 83.558 80.528 81.438 80.398 79.803 79.498 84.32 87.785 89.36 90.518 89.405 83.773 77.38 77.44 77.478 77.545 77.39 77.475 77.5 78.23 77.368 79.545 78.248 76.763 77.643 85.038 84.72 84.728 84.888 78.413 77.59 78.633 78.763 76.05 77.913 78.773 77.03 76.013 75.82 75.685 76.373 79.665 84.37 81.928 82.073 79.293 81.525 83.765 85.515 86.798 83.408 81.113 77.205 76.888 75.17 75.133 75.105 75.095 75.113 75.145 75.165 75.235 75.233 75.248 75.265 75.333 75.773 76.558 75.808 75.573 75.723 75.97 77.985 82.3 78.983 79.89 76.18 75.358 77.168 82.448 85.618 86.978 84.485 77.405 76.15 79.858 76.095 77.59 81.405 76.538 74.833 75.42 77.61 76.13 86.963 88.875 88.378 88.08 79.245 73.848 75.653 73.825 73.768 74.98 75.74 73.965 73.455 73.433 73.965 73.685 76.108 75.913 77.835 80.728 76.438 72.928 72.898 72.893 75.808 78.703 79.188 76.625 73.785 72.825 72.82 72.773 72.773 72.748 72.74 72.755 73.805 74.288 75.468 70.785 69.918 71.4 75.333 75.788 76.1 76.388 76.03 75.543 74.54 70.965 69.97 70.378 69.82 69.863 69.888 69.91
