ncols 426
nrows 32
xllcorner    526044
yllcorner    188188
cellsize     2
NODATA_value -9999
71.803 74.191 72.458 74.081 74.371 75.496 76.081 75.396 71.983 71.516 71.471 71.423 71.431 71.518 72.041 72.283 72.081 71.433 71.231 71.173 71.208 71.181 71.008 70.991 70.938 71.161 71.511 70.913 70.908 70.956 71.011 71.023 70.976 70.868 70.796 70.886 71.508 70.786 70.841 75.148 78.071 79.263 78.101 76.666 72.458 70.631 70.593 70.456 70.326 70.451 72.268 73.431 73.013 71.781 70.498 70.428 70.261 70.148 70.118 70.143 70.121 70.141 70.146 70.181 70.221 70.703 75.508 77.778 77.681 77.968 77.593 76.593 75.846 70.531 70.373 70.456 70.371 70.256 70.171 70.171 70.193 70.178 70.183 70.338 71.123 70.803 70.336 70.196 74.091 77.826 77.291 77.711 78.098 78.048 75.161 69.981 69.961 69.991 70.006 70.013 70.008 70.031 70.056 70.063 70.078 70.263 72.463 74.553 71.843 71.786 73.211 73.476 73.193 72.873 72.836 71.541 73.541 73.176 73.418 73.236 73.268 73.661 76.626 76.961 75.796 75.191 75.573 75.153 72.096 70.826 70.873 71.021 71.018 72.051 72.966 71.173 71.788 72.093 71.423 71.253 71.251 71.296 71.353 72.273 72.811 71.486 71.783 72.811 73.696 74.141 72.713 74.053 72.626 72.871 73.426 74.271 72.896 72.871 72.916 72.983 73.258 73.273 73.373 73.448 77.788 75.068 78.051 79.316 77.096 76.626 75.776 75.341 75.378 75.421 75.776 75.996 76.578 78.513 79.763 77.331 77.196 77.841 79.158 82.328 83.631 83.143 81.033 77.896 80.391 80.793 83.723 85.271 86.198 86.198 85.253 82.491 78.918 79.248 77.661 77.696 77.678 77.688 77.696 77.721 77.726 77.718 79.836 79.616 78.698 78.551 78.393 82.125 83.937 78.898 77.689 77.627 77.616 77.565 77.529 77.461 77.49 78.961 80.51 79.245 79.124 78.922 83.388 85.722 86.271 85.368 83.871 78.89 77.711 77.688 78.198 77.791 78.778 77.888 77.401 77.348 77.336 77.376 77.441 77.446 77.501 77.426 77.408 77.466 77.533 78.381 78.048 77.613 77.581 77.541 77.486 77.533 78.718 78.423 82.676 85.353 86.776 87.078 87.068 87.028 86.283 85.018 82.698 79.886 78.986 82.118 79.768 79.293 78.823 77.811 77.176 77.181 77.018 76.946 76.961 77.214 77.329 79.866 84.546 86.119 86.261 86.029 84.776 82.364 77.589 77.351 77.379 77.409 78.934 81.046 77.599 77.194 77.126 77.181 77.149 77.071 77.006 77.094 78.889 81.066 81.069 78.689 78.539 77.661 77.671 78.196 78.564 78.056 81.699 85.274 84.649 80.599 81.381 81.166 82.696 83.361 81.844 79.199 76.794 74.879 74.184 76.309 78.211 78.229 78.309 78.946 79.929 78.899 79.041 79.174 79.719 80.849 83.129 80.819 79.951 79.641 79.744 79.884 80.234 80.159 80.289 80.409 80.586 80.769 80.941 81.106 81.274 81.384 81.599 81.534 88.499 90.461 92.256 93.006 93.761 91.739 89.374 84.806 83.191 83.491 83.184 83.519 88.494 91.009 89.436 91.196 90.504 87.094 85.451 84.231 84.439 88.404 90.699 91.561 91.701 91.041 90.176 87.691 86.646 87.809 85.766 84.356 84.526 84.951 95.084 97.186 99.846 99.019 87.756 84.686 84.626 84.839 86.304 87.604 87.119 86.056 85.276 84.141 82.326 87.824 89.541 89.561 91.074 93.536 95.706 96.471 96.421 96.596 95.704 94.869 93.129 85.234 85.599 85.941 84.781 84.774 86.799 87.376 89.864 88.931 89.121 86.839
71.803 76.863 77.343 73.818 75.003 75.453 73.641 73.526 73.026 71.628 71.533 71.438 72.983 72.571 71.506 71.308 71.301 71.268 71.246 71.198 71.181 71.231 71.083 71.088 71.031 71.731 71.743 70.926 70.933 71.061 71.091 71.078 71.048 71.023 70.866 70.818 71.286 71.088 70.836 73.086 77.478 79.276 78.966 77.543 76.666 72.301 70.598 70.623 70.568 70.431 70.361 73.473 74.163 72.038 70.611 70.308 70.163 70.143 71.393 70.713 70.153 70.156 70.668 70.286 70.231 70.806 76.073 78.776 78.956 78.921 78.348 78.366 76.613 70.741 70.316 70.346 70.351 70.296 70.168 70.233 70.213 70.236 70.188 70.326 70.966 71.441 71.743 71.608 71.953 71.351 70.538 71.371 73.831 72.658 72.578 71.496 71.258 71.378 70.703 70.438 73.411 71.428 70.288 70.393 70.438 70.563 73.693 73.141 73.736 71.746 70.758 72.041 71.001 70.893 70.713 70.883 76.111 77.246 77.176 77.111 77.021 74.283 76.091 77.253 77.273 77.256 77.201 77.148 73.741 70.866 70.916 70.878 70.928 73.618 73.251 72.376 71.623 71.453 71.356 71.246 71.301 71.363 71.658 73.316 73.811 73.263 73.573 75.288 73.516 72.768 72.473 73.121 72.608 72.693 72.748 72.801 72.856 72.926 73.233 73.413 74.926 74.071 73.423 73.496 73.853 75.018 77.878 79.096 77.253 76.073 76.423 76.713 75.833 75.536 75.528 75.583 75.941 79.496 81.161 77.651 78.421 83.093 84.601 85.763 85.003 84.043 84.076 78.828 79.868 80.603 82.338 84.908 85.926 86.263 85.608 84.553 79.476 81.003 78.008 77.741 77.858 77.853 77.776 77.776 77.781 77.898 78.498 80.611 80.043 79.081 79.743 80.323 80.635 77.96 77.673 77.65 77.635 77.705 77.849 77.909 79.141 80.558 78.963 78.114 78.01 81.259 85.07 86.114 85.437 86.235 85.694 84.289 80.206 78.062 78.278 79.138 78.121 77.586 77.521 77.501 77.451 77.371 77.396 77.458 77.478 77.461 77.416 77.461 77.553 77.748 78.643 78.111 77.636 77.546 77.541 78.233 80.191 80.096 83.886 86.146 87.051 87.078 87.093 87.028 87.026 86.236 84.678 79.721 78.998 78.961 78.201 79.891 78.848 78.221 77.568 77.341 77.291 77.098 76.946 77.216 79.851 83.809 86.029 86.479 86.294 86.124 83.614 79.256 77.899 77.411 77.454 77.481 77.509 77.469 77.329 77.206 77.216 77.184 77.176 77.066 77.106 77.971 81.019 81.136 80.239 77.996 78.229 77.744 77.794 77.916 79.066 80.769 84.726 85.894 86.919 87.264 84.869 79.774 82.884 84.569 84.209 83.686 78.346 76.739 75.139 77.954 78.451 80.416 81.354 80.149 83.194 80.846 79.206 79.319 79.411 79.699 81.304 81.209 81.649 80.341 79.934 80.021 80.281 80.984 80.519 80.674 80.739 80.931 81.119 81.276 81.446 81.554 81.671 83.531 86.804 87.596 92.084 91.066 92.981 94.189 92.559 85.449 83.134 83.534 84.216 83.139 83.504 84.926 83.466 88.524 91.184 90.911 87.996 84.199 86.836 90.284 91.106 91.876 92.304 91.974 91.281 90.586 89.339 88.576 88.204 86.584 84.414 85.551 95.241 97.146 95.579 93.276 84.644 84.731 84.719 84.666 86.096 88.689 89.706 87.211 86.221 84.774 85.779 89.914 90.161 89.626 89.746 92.224 95.931 96.291 96.496 95.984 94.984 93.951 89.736 85.361 85.374 85.121 85.276 85.209 85.401 86.924 89.076 91.331 89.299 86.021
72.293 73.321 77.013 74.853 72.736 72.348 72.011 71.863 72.908 72.661 71.543 71.623 72.848 72.088 71.856 71.441 71.388 71.331 71.263 71.516 74.006 75.781 73.381 71.108 71.193 71.643 70.946 70.958 71.053 71.121 71.128 71.121 71.106 71.076 71.033 70.838 70.841 71.241 70.841 70.843 76.178 77.966 79.238 78.456 78.073 75.041 70.708 70.711 70.688 70.536 70.446 71.921 72.986 71.256 71.311 72.081 70.206 70.208 73.858 77.813 71.646 70.203 72.133 73.028 70.246 71.483 76.918 78.783 78.898 78.891 78.898 78.363 73.418 70.333 70.343 70.393 70.403 70.338 70.241 70.256 70.293 70.288 70.268 70.361 70.396 70.461 71.128 70.743 74.633 76.466 76.141 75.811 76.346 75.638 73.583 71.881 71.941 72.363 72.191 71.891 73.603 72.531 72.688 72.058 71.773 72.511 75.268 73.998 73.063 71.523 70.921 71.903 70.801 70.623 70.666 70.793 74.711 76.646 77.013 77.456 78.068 75.033 72.346 73.996 74.306 74.516 75.751 74.526 71.693 70.943 71.006 70.948 70.993 72.131 72.391 71.611 71.326 71.268 71.293 71.311 71.343 71.386 71.468 72.931 72.961 72.623 73.486 72.703 72.101 73.153 73.291 74.753 74.456 73.116 72.826 72.871 73.226 73.488 73.468 73.513 74.743 73.748 73.483 73.536 74.388 75.901 76.806 75.881 75.218 75.011 77.881 77.773 76.023 75.626 75.626 75.931 76.591 77.813 78.653 77.716 78.996 84.008 85.361 86.458 85.868 85.408 85.648 81.776 79.806 80.803 80.798 84.203 85.441 85.706 85.271 84.511 81.833 81.126 78.748 77.881 78.421 78.061 77.878 78.191 78.111 78.338 79.528 80.066 81.858 79.981 79.364 78.176 77.775 77.752 77.742 77.672 77.61 77.827 77.775 80.011 80.324 79.241 78.264 78.044 77.974 78.23 82.68 84.82 84.388 85.002 85.912 84.918 83.443 78.748 79.133 79.031 77.771 77.988 78.041 78.296 77.646 77.521 77.421 77.396 77.458 77.501 77.523 77.513 77.498 77.643 77.643 78.403 77.703 77.633 78.668 80.331 78.941 77.956 79.191 84.381 85.958 86.983 86.693 85.976 86.448 84.833 78.923 79.303 81.506 79.208 77.898 77.996 78.388 79.248 78.928 78.048 77.301 77.258 77.209 78.234 82.611 85.349 86.621 86.594 86.549 85.944 83.546 80.174 78.019 77.421 77.491 77.539 77.541 77.449 77.281 77.279 77.261 77.234 77.186 77.114 77.269 79.711 81.186 81.226 79.881 78.799 78.519 77.799 77.871 78.276 83.471 84.721 85.426 86.494 87.449 87.241 86.184 85.304 79.279 80.399 84.274 84.259 83.526 82.909 80.394 79.119 78.804 82.469 80.916 81.904 83.404 84.051 81.606 79.474 79.544 79.629 79.696 80.214 80.859 82.401 81.299 80.201 80.334 82.656 83.811 82.996 80.894 81.084 81.264 82.529 81.546 81.629 81.689 87.011 87.676 87.699 86.876 90.291 89.569 94.866 94.391 87.266 83.146 83.119 83.279 83.136 83.111 83.106 85.639 91.974 94.354 92.794 90.411 84.801 84.326 85.824 90.356 91.016 91.759 92.251 92.199 91.514 90.761 90.154 89.429 90.196 86.899 87.581 92.179 88.231 88.444 88.424 84.679 84.746 84.751 84.746 87.151 88.116 88.289 85.094 85.104 85.469 84.756 87.246 90.079 89.896 90.329 92.886 94.631 95.796 96.501 96.424 95.561 91.291 85.896 85.184 85.254 86.159 85.296 86.104 85.031 84.454 87.536 86.936 84.919 84.199
74.951 72.728 74.091 72.066 71.806 71.768 71.796 71.828 72.731 74.093 71.961 73.288 73.591 72.071 71.448 71.826 71.396 71.351 72.418 76.398 77.251 77.926 76.888 71.726 71.103 71.756 71.781 71.016 71.083 71.183 71.173 71.171 71.146 71.123 71.103 70.988 71.018 71.981 70.931 70.868 72.668 77.028 78.596 79.873 79.318 76.756 71.038 70.736 70.683 70.633 70.681 72.291 73.048 71.283 71.796 73.483 71.091 70.923 71.636 75.636 74.936 72.133 74.686 73.251 71.661 71.353 77.026 78.143 78.348 78.473 78.698 77.906 73.043 70.398 70.411 70.586 71.271 70.396 70.318 70.318 70.376 70.338 70.333 70.508 70.643 71.066 71.178 70.518 74.413 77.886 79.173 78.943 78.838 78.361 76.078 70.541 70.631 70.633 70.748 70.456 71.033 71.351 70.361 70.743 70.776 71.418 72.673 72.756 70.521 70.676 70.546 70.853 70.621 70.688 70.713 70.931 73.291 73.766 75.966 77.453 77.978 75.798 72.443 71.038 71.428 71.401 71.683 71.333 71.013 70.991 71.043 70.996 71.053 71.213 71.618 71.513 71.298 71.341 71.353 71.398 73.741 75.326 76.603 79.543 72.871 71.868 72.208 72.083 72.113 72.628 72.956 74.203 75.583 74.866 72.918 72.963 73.228 73.816 73.581 73.603 74.113 74.936 73.521 73.621 73.713 73.816 75.251 74.418 74.476 74.601 77.581 77.138 75.836 76.208 78.116 78.811 79.603 80.573 76.798 77.826 83.888 84.683 85.321 86.503 86.523 86.488 86.461 84.543 78.231 80.028 80.538 83.578 84.623 84.653 82.133 80.658 79.556 79.548 79.913 77.851 77.861 78.203 79.138 78.196 79.898 79.813 81.933 80.673 78.568 78.301 78.126 77.94 77.846 77.801 77.725 78.327 78.128 78.198 80.083 79.899 79.191 79.076 78.293 78.039 78.071 78.856 80.804 84.605 85.36 84.714 84.627 84.82 83.883 80.135 78.751 79.287 77.923 78.736 78.043 78.503 78.438 77.778 77.563 77.493 77.461 77.543 77.568 77.611 77.566 77.563 77.646 77.688 77.726 78.828 80.503 79.621 78.836 78.383 78.233 80.083 82.738 85.583 85.491 84.763 85.046 81.756 78.018 79.871 78.891 78.083 77.911 78.476 79.996 78.773 78.543 79.153 78.611 77.696 77.551 80.826 84.214 86.209 85.766 86.539 86.621 86.569 85.216 81.799 78.459 77.479 77.521 77.821 77.589 77.444 77.299 77.331 77.369 77.319 77.196 77.236 77.769 80.994 78.224 79.314 79.086 78.294 77.846 77.834 78.091 81.499 85.651 85.614 86.034 87.074 87.494 86.954 85.784 80.101 78.269 78.471 79.599 80.684 84.071 84.796 85.579 84.144 79.831 81.739 80.126 84.699 85.811 85.046 83.351 79.576 79.664 79.749 79.856 80.041 80.239 80.971 82.484 81.976 82.214 81.151 85.356 83.364 82.654 83.659 82.551 87.269 81.609 81.689 81.751 84.564 87.019 87.416 85.471 84.411 89.094 93.799 93.171 85.971 83.154 83.134 83.141 83.154 83.111 86.276 88.716 93.399 93.279 92.429 89.784 85.479 84.309 86.489 90.001 91.106 91.641 91.464 92.076 91.561 90.659 90.211 90.449 90.984 90.589 87.446 86.381 85.409 84.754 84.741 84.676 84.759 84.851 84.924 84.924 84.884 85.231 84.971 85.051 85.269 85.606 85.306 86.024 89.339 92.229 93.249 93.764 95.111 95.696 96.194 95.681 91.809 88.261 85.204 85.181 85.474 85.301 85.471 86.476 85.674 84.481 84.471 84.421 84.214
72.968 72.633 71.973 71.841 71.811 71.793 71.808 72.141 73.823 73.908 72.066 72.091 72.093 71.603 71.721 71.436 71.593 71.518 74.063 77.468 78.491 79.331 77.531 73.833 71.146 71.313 71.931 71.043 71.096 71.231 71.233 71.223 71.206 71.161 71.136 71.098 70.943 71.811 71.508 70.886 71.071 73.018 77.188 79.486 80.148 78.428 73.751 70.806 70.698 70.678 72.833 72.943 71.821 72.928 72.986 71.616 71.576 72.216 75.093 77.596 78.021 74.868 74.786 73.756 71.551 74.656 75.996 74.548 73.961 74.841 76.398 77.278 71.211 70.408 70.771 71.821 71.191 70.438 70.348 70.388 70.431 70.386 70.428 72.491 71.926 70.488 70.588 70.988 75.218 78.191 79.293 78.376 79.608 77.908 75.053 70.568 70.471 70.448 70.418 70.406 70.428 70.458 70.421 70.406 70.463 70.596 73.338 72.568 70.581 70.581 70.578 70.596 70.676 70.716 70.736 70.833 71.396 72.428 76.233 78.011 77.916 76.716 74.706 71.501 71.908 71.191 71.166 71.251 71.086 71.056 71.108 71.056 71.128 71.311 71.528 71.493 71.338 71.361 71.403 74.886 76.741 75.293 78.193 75.686 72.018 72.026 72.116 72.161 72.161 72.163 72.228 72.546 73.978 73.681 73.046 73.046 73.058 73.398 73.618 73.663 73.673 74.968 73.828 74.388 73.983 73.901 74.146 74.491 74.703 75.891 75.931 76.948 78.293 79.331 80.146 81.271 82.326 83.516 80.651 77.733 82.978 85.731 86.101 86.273 86.826 85.816 85.113 84.533 79.578 79.683 80.611 81.798 81.701 79.303 77.996 77.441 77.463 78.088 80.981 77.876 77.923 81.393 78.783 80.131 80.951 81.201 80.423 78.443 78.467 77.988 77.921 77.896 77.829 77.788 79.064 80.472 79.564 80.526 79.886 78.4 78.254 78.241 78.167 78.089 78.066 78.352 80.385 82.803 85.235 85.9 84.952 84.096 80.864 78.383 80.364 80.935 78.586 78.896 78.023 78.111 79.023 78.921 77.981 77.601 77.516 77.446 77.543 77.611 77.626 77.581 77.563 77.618 77.753 78.623 79.893 78.376 78.798 77.846 77.993 77.821 77.806 82.398 83.533 80.603 81.358 78.543 80.781 81.921 78.803 77.968 78.221 77.921 78.258 78.908 77.833 77.786 78.403 80.048 80.526 80.001 82.174 85.181 86.229 86.606 86.631 86.144 83.936 78.526 77.974 77.551 77.996 77.869 77.561 77.449 77.379 77.441 77.411 77.336 77.219 77.321 79.109 79.901 77.584 77.894 78.254 77.849 78.576 78.636 78.839 84.149 85.964 86.326 86.704 87.566 87.099 86.439 84.991 78.321 78.484 78.564 79.209 79.106 79.584 83.404 85.499 84.756 83.466 84.264 80.469 82.146 85.734 86.046 83.321 79.644 79.731 79.834 79.941 80.071 80.179 80.416 80.701 84.719 87.151 82.981 81.316 81.414 84.306 83.904 84.099 83.229 82.254 81.734 81.809 84.869 82.734 83.244 85.144 85.374 83.981 87.844 86.214 86.434 83.589 84.319 84.539 83.149 83.141 85.844 93.301 92.011 90.564 90.354 88.521 84.979 84.316 85.734 89.261 90.609 91.016 90.599 91.141 90.896 90.164 90.181 90.861 91.211 90.171 85.876 85.516 88.909 88.579 85.274 84.841 85.031 85.506 85.776 85.626 85.414 85.149 85.156 85.246 85.664 85.804 86.159 86.006 85.466 90.606 93.239 94.091 94.974 94.699 94.206 92.959 89.536 85.686 85.184 85.174 85.184 85.149 85.236 85.254 85.959 86.176 84.561 84.461 84.259
73.293 72.091 72.023 71.918 71.888 71.851 72.048 72.273 74.338 73.691 72.403 71.853 71.943 71.753 71.533 71.501 71.586 71.343 71.233 74.756 77.638 79.433 78.688 76.941 71.833 71.156 71.436 71.163 71.081 71.201 71.286 71.266 71.248 71.198 71.161 71.131 71.063 70.988 70.953 71.041 70.848 70.781 74.356 78.411 80.608 79.428 77.126 71.676 70.666 70.703 71.001 73.486 71.936 73.966 72.573 71.221 70.876 75.121 78.541 73.371 74.481 74.113 72.946 74.553 72.531 72.818 73.296 72.046 72.508 71.733 71.183 72.018 71.433 71.536 71.896 71.556 70.943 70.503 70.386 70.428 70.463 70.591 72.673 74.028 72.023 70.746 70.596 71.818 77.121 78.521 79.418 79.441 79.501 77.226 70.596 70.966 70.486 70.478 70.458 70.446 71.083 70.478 70.473 70.463 70.496 70.541 73.003 73.141 70.816 70.626 70.638 70.656 70.703 70.736 70.753 70.758 70.903 72.093 76.658 77.653 77.823 76.598 74.766 71.303 71.268 71.321 71.286 71.601 71.191 71.093 71.168 71.126 71.186 71.871 71.368 71.628 74.571 76.573 74.366 78.073 78.493 76.916 72.373 74.286 72.366 72.156 72.216 72.253 72.281 72.276 72.328 72.716 75.533 74.296 74.036 73.091 73.086 73.388 73.701 73.726 73.738 75.076 74.526 74.153 73.951 74.003 74.358 74.963 75.046 76.936 76.881 77.336 81.453 82.251 83.323 83.886 83.833 84.496 84.671 77.206 81.126 85.086 84.886 85.471 86.781 85.976 84.453 83.153 80.628 78.511 79.801 78.298 77.796 77.496 77.951 77.563 77.583 77.661 79.538 78.338 78.313 80.761 81.683 81.013 79.606 78.428 78.176 78.924 78.818 77.978 77.944 77.874 77.778 77.717 78.098 81.157 82.2 79.947 78.844 78.347 78.309 78.298 78.227 78.338 78.152 78.058 79.542 79.483 81.822 84.734 85.589 83.047 78.549 80.291 82.42 81.954 79.796 78.063 77.926 77.933 77.976 78.161 78.798 77.746 77.666 77.591 77.531 77.556 77.668 77.683 77.671 77.658 77.648 77.778 77.948 77.996 78.623 78.091 78.303 78.391 77.718 78.526 79.216 80.453 78.533 79.478 79.546 78.896 78.306 78.158 78.076 77.911 77.876 77.858 77.793 78.363 78.013 79.113 80.896 81.251 79.394 79.916 84.756 85.906 86.394 84.861 81.034 77.609 78.941 77.904 78.079 78.959 78.581 77.471 77.486 77.441 77.446 77.341 77.294 77.416 77.541 77.631 77.586 77.654 77.739 77.869 78.601 77.971 78.784 82.106 85.224 86.186 87.211 87.456 86.501 85.584 84.569 80.716 78.434 78.594 78.646 78.574 78.769 79.951 82.819 86.806 86.621 86.299 81.371 81.594 83.519 87.106 80.074 79.716 79.826 79.911 80.006 80.126 80.271 80.386 82.479 87.744 83.594 82.094 82.601 81.686 84.089 85.939 87.651 88.696 85.114 81.781 81.849 81.966 82.316 83.946 84.539 84.426 83.631 88.096 86.644 85.994 84.269 85.739 83.519 83.471 83.561 83.604 90.536 92.371 91.324 90.566 90.909 84.351 84.381 84.419 85.591 88.339 90.171 87.944 89.436 90.321 90.226 90.656 91.214 90.591 86.416 86.144 91.279 92.524 91.221 89.526 85.851 85.859 86.161 86.211 86.256 86.139 85.786 85.596 85.934 86.019 86.024 86.044 85.984 85.861 85.641 89.244 93.071 93.796 93.709 89.654 87.566 85.409 85.174 85.174 85.161 85.146 85.119 85.119 85.104 85.071 85.219 85.364 84.846 84.299
76.118 72.823 72.048 71.953 71.978 72.066 73.268 74.303 74.416 73.151 72.693 72.131 72.056 71.726 71.566 71.528 72.753 73.053 71.241 71.726 75.608 78.516 79.611 78.301 74.463 71.198 71.228 71.363 71.093 71.136 71.298 71.286 71.283 71.256 71.216 71.188 71.151 71.006 70.936 71.053 70.903 70.806 71.086 76.853 79.556 80.273 78.846 75.701 72.241 70.678 71.538 71.516 71.301 76.221 74.326 71.138 70.553 70.906 74.681 75.346 72.593 72.753 73.003 72.403 71.211 70.913 71.551 74.906 76.998 76.601 76.411 76.516 73.406 71.123 71.173 71.281 70.876 70.518 70.398 70.461 70.498 71.026 74.256 75.291 72.836 71.468 70.566 73.121 78.263 78.686 79.008 79.141 79.086 77.206 70.663 70.606 70.521 70.526 70.513 71.078 76.026 73.751 70.523 70.533 70.568 70.866 73.998 73.301 70.731 70.688 70.656 70.693 70.731 70.751 70.751 70.888 70.893 73.171 77.348 77.803 77.746 76.593 74.196 71.086 71.311 71.333 71.313 71.323 71.213 71.156 71.198 71.141 71.226 71.346 73.436 76.753 78.718 77.326 74.258 74.908 77.436 74.468 72.508 73.166 73.198 73.246 72.298 72.326 72.356 72.586 72.741 72.858 74.728 76.323 73.801 73.153 73.181 73.818 73.986 73.798 73.811 74.258 75.821 73.878 74.463 74.706 75.001 75.618 76.393 78.061 79.863 77.923 83.593 84.118 84.313 84.778 85.053 84.891 84.023 79.201 79.196 81.978 80.786 84.921 86.286 86.066 84.761 82.628 79.378 78.738 77.698 77.293 77.388 78.163 78.008 77.666 77.716 77.851 78.946 80.121 78.511 79.593 78.338 78.203 78.191 78.056 78.018 78.142 78.053 79.101 79.793 77.938 77.822 77.856 79.045 81.038 81.714 78.449 78.465 78.357 78.341 78.3 78.255 78.255 78.275 78.071 78.135 79.112 79.707 81.534 84.312 78.96 78.983 83.296 84.595 83.648 79.204 78.431 78.368 78.133 77.911 77.891 77.828 77.783 77.708 77.771 77.621 77.551 77.628 77.686 77.726 77.731 77.688 77.658 77.808 78.086 80.128 80.383 78.101 78.056 77.876 77.716 77.693 77.818 78.956 80.523 79.038 78.046 77.908 77.943 77.938 77.943 77.951 78.193 77.726 78.193 78.021 79.403 80.649 81.174 81.099 79.319 77.589 82.171 84.804 82.314 78.124 77.676 78.221 78.276 78.294 79.224 79.784 77.549 77.536 77.511 77.439 77.371 77.471 78.036 77.526 77.621 77.699 77.736 77.854 77.921 78.229 78.509 79.454 83.291 85.759 86.776 87.626 86.946 86.321 86.236 85.689 82.819 79.244 78.444 78.646 78.764 79.116 79.151 79.381 85.781 85.546 84.286 82.186 83.301 81.709 79.684 79.724 79.844 79.936 80.031 80.114 80.251 80.366 84.456 82.674 82.381 82.471 86.004 84.886 83.001 82.671 81.736 85.296 85.386 82.699 82.261 81.989 82.336 83.234 84.969 84.776 83.419 83.854 85.201 84.631 84.459 84.214 85.901 85.499 86.504 85.896 83.284 83.536 86.204 91.929 92.076 90.479 86.801 84.971 84.481 84.491 84.804 86.509 85.654 85.599 85.991 89.024 90.724 90.834 88.029 85.789 91.376 93.344 93.881 93.354 92.474 88.206 86.491 86.281 86.306 86.469 86.506 86.251 86.079 85.839 85.976 86.041 86.051 86.124 86.244 86.089 86.124 88.636 92.309 90.326 85.221 85.269 85.189 85.179 85.156 85.141 85.141 85.121 85.086 85.074 85.071 85.051 84.986 85.289 85.434
77.826 73.016 72.221 72.198 72.911 74.241 74.558 73.843 72.206 71.813 71.888 72.476 72.538 71.646 71.591 71.738 72.521 72.391 72.338 71.288 72.601 77.386 79.336 78.963 76.848 72.726 71.156 71.368 71.248 71.133 71.253 71.316 71.311 71.271 71.271 71.223 71.196 71.153 70.998 70.953 71.243 70.891 70.896 75.521 78.251 79.903 79.713 77.981 76.338 70.726 70.681 72.623 70.796 72.768 75.921 72.011 70.528 70.551 70.561 70.556 72.538 70.983 72.816 73.786 74.998 70.768 71.426 75.603 78.438 78.786 78.738 78.031 73.541 70.986 71.411 70.726 70.576 70.541 70.448 70.548 70.581 70.796 72.878 73.911 73.206 72.141 71.573 72.333 72.958 75.273 74.838 76.381 75.296 75.566 70.686 70.676 70.678 70.608 70.563 71.833 75.541 73.696 70.588 70.643 72.411 73.483 76.133 71.993 70.781 71.406 70.708 70.743 70.768 70.778 70.771 71.101 70.866 73.926 77.398 77.643 77.386 76.131 72.873 71.143 71.271 71.326 71.346 71.796 71.308 71.263 71.291 71.271 71.343 72.748 76.846 77.741 75.686 76.666 74.066 72.681 72.396 72.426 72.023 72.223 74.071 72.896 72.563 72.721 72.811 72.931 72.968 72.996 73.143 76.388 74.073 73.288 73.488 75.391 75.591 73.896 73.871 74.761 75.703 75.011 75.668 76.786 78.806 80.118 80.916 81.388 81.783 78.931 83.633 84.991 84.933 84.438 83.938 83.371 82.861 79.556 77.948 77.438 78.553 84.351 85.221 84.591 81.406 79.206 77.111 77.608 78.291 77.501 77.526 77.586 77.651 77.801 78.191 77.991 77.973 78.066 78.043 78.058 78.221 78.946 78.411 78.241 78.073 78.038 78.017 79.737 83.035 79.513 78.206 77.98 78.807 80.915 79.73 78.488 78.912 78.376 78.34 78.288 78.282 78.265 78.254 78.235 78.148 78.046 78.609 78.609 78.981 78.704 82.604 85.443 86.188 85.273 83.887 81.541 78.296 78.151 77.971 77.936 77.851 78.478 78.673 79.033 77.718 77.713 77.633 77.653 77.756 77.771 77.793 77.746 77.701 77.846 78.011 79.191 79.091 78.043 77.863 77.793 77.901 79.838 79.993 79.511 78.293 78.003 77.916 77.921 77.943 77.918 78.211 78.646 77.971 77.838 78.641 80.111 80.824 80.734 80.866 79.351 79.394 78.536 80.204 79.906 77.429 77.554 77.651 77.889 80.121 79.416 77.666 77.581 77.599 77.536 77.414 77.641 79.106 78.126 77.966 77.836 77.919 77.924 77.956 78.109 78.969 78.856 82.281 85.284 86.351 87.399 87.354 86.769 85.491 85.821 86.269 81.516 80.266 78.301 78.284 80.574 79.899 79.201 79.266 80.386 81.369 83.359 82.161 81.686 80.616 79.754 79.816 79.926 80.049 80.146 80.216 80.334 81.424 84.899 86.464 84.626 82.064 87.396 85.891 82.526 85.041 84.664 82.924 83.216 86.351 86.204 82.636 82.631 84.914 85.749 84.529 83.446 84.366 85.226 83.586 83.544 84.066 85.569 88.474 88.279 87.994 87.129 84.541 84.431 87.221 91.814 90.759 92.054 91.611 84.624 84.596 84.601 84.661 84.909 84.679 84.616 85.096 87.689 89.039 85.849 89.896 93.734 94.441 94.641 93.514 91.286 87.309 86.936 86.546 86.386 86.329 86.511 87.326 86.784 85.986 86.041 86.086 88.091 86.726 86.299 86.299 86.514 85.764 87.069 87.116 85.956 86.694 85.719 85.161 85.436 85.556 85.219 85.201 85.099 85.069 85.061 84.999 84.939 84.869 84.979
79.503 73.208 72.321 73.346 74.796 74.103 74.561 71.856 71.806 71.786 72.068 73.443 73.736 71.703 71.696 71.668 73.401 74.148 73.803 72.148 71.496 75.446 78.231 79.616 78.161 75.021 71.261 71.171 71.386 71.143 71.208 71.348 71.318 71.303 71.313 71.273 71.246 71.211 71.071 71.013 70.983 70.916 70.841 72.391 77.483 78.916 79.091 77.638 76.481 71.776 70.723 70.718 71.776 71.721 72.128 73.826 70.981 70.566 70.573 70.586 70.581 70.571 70.581 70.628 71.013 70.583 70.888 75.948 79.191 78.956 79.008 78.436 72.558 70.591 70.598 70.828 71.223 70.611 70.518 70.598 70.623 70.553 70.656 71.118 71.686 71.713 71.468 72.013 72.323 72.186 71.926 71.643 71.708 72.193 72.263 72.031 71.851 73.418 73.431 72.123 72.613 72.636 73.523 72.221 73.411 75.716 77.836 71.906 71.226 71.481 70.811 70.816 70.836 70.826 70.813 70.788 70.818 71.216 73.381 77.123 74.023 72.296 72.251 72.506 72.421 73.491 73.758 73.588 71.466 71.278 71.318 71.336 71.391 72.761 72.636 75.008 75.938 75.891 71.838 71.901 71.928 71.981 71.936 72.148 73.586 72.688 72.923 72.968 73.001 73.063 73.081 73.096 73.063 75.853 74.326 74.473 75.143 75.361 75.098 74.583 74.761 77.063 77.128 79.048 80.141 80.796 81.403 81.738 82.141 82.548 82.761 79.041 81.043 83.968 83.406 82.868 82.366 81.306 80.421 78.401 79.456 82.571 77.323 82.391 77.523 77.658 77.121 77.158 77.253 77.426 79.221 78.586 77.661 77.918 78.718 80.651 78.451 77.966 77.918 77.958 77.963 78.006 78.033 78.088 79.268 83.843 79.506 79.564 77.959 79.648 81.591 79.332 78.571 78.107 78.261 82.134 85.024 80.109 78.434 78.306 78.312 78.31 78.314 78.261 78.258 78.252 78.495 78.378 78.965 78.951 78.417 82.08 85.022 86.58 86.242 86.68 85.684 84.455 80.243 79.398 79.778 78.028 77.903 79.793 79.433 78.571 78.176 77.861 77.798 77.761 77.693 77.726 77.838 77.843 77.821 77.813 77.888 77.973 78.373 78.096 77.983 77.936 79.411 81.758 80.861 78.526 77.916 77.931 77.948 77.908 77.908 77.911 78.088 77.906 77.828 79.921 82.318 82.076 80.711 80.496 80.694 80.574 80.506 79.596 78.046 78.194 77.659 77.616 77.736 77.831 77.831 77.759 77.661 77.671 77.624 77.561 77.486 79.394 82.684 82.889 78.569 78.109 78.361 78.196 78.144 78.126 78.384 79.669 84.296 85.916 86.944 87.541 86.784 85.989 85.016 84.884 82.474 81.486 78.629 78.279 78.286 78.541 78.834 79.209 79.349 79.456 83.879 80.514 80.761 85.201 83.719 83.006 80.691 80.021 80.144 80.229 84.634 82.294 83.864 88.524 87.366 87.756 89.326 88.791 84.161 83.819 89.014 90.224 85.654 83.546 83.939 85.634 87.366 84.674 84.321 84.234 84.114 84.529 85.299 83.951 83.566 83.574 85.126 85.321 86.176 86.499 86.626 89.201 89.114 88.324 88.371 86.571 90.256 93.271 93.299 89.854 84.754 84.779 84.814 84.839 84.826 84.789 84.724 85.379 87.966 87.804 92.719 94.276 94.869 94.089 93.299 93.169 90.524 87.541 87.204 86.734 86.389 87.891 88.746 86.066 86.084 86.119 86.319 92.041 94.061 88.576 86.356 86.861 88.426 86.896 86.939 92.359 91.711 88.484 86.406 86.454 87.406 86.349 85.616 85.884 85.356 85.471 86.029 85.199 84.854 84.806
79.043 75.231 74.648 73.946 74.071 72.923 72.783 72.573 71.933 71.823 71.828 72.766 74.623 72.828 71.796 72.048 72.081 71.681 72.351 71.443 71.298 73.446 77.461 79.046 79.361 77.548 74.418 71.161 71.423 71.333 71.198 71.286 71.373 71.338 71.336 71.323 71.306 71.253 71.208 71.051 71.008 71.098 70.908 71.108 75.416 77.781 79.333 78.983 76.893 72.443 70.721 70.678 70.648 70.641 70.686 73.021 72.753 71.313 70.696 71.443 71.086 70.911 70.821 70.846 70.573 70.613 73.208 76.501 78.241 78.748 78.781 77.741 72.611 70.618 70.671 71.151 71.308 70.703 71.408 70.643 70.643 70.663 70.741 71.281 71.116 70.708 70.851 74.523 76.836 77.193 75.233 73.686 72.351 71.091 71.201 70.738 70.938 74.858 75.513 72.798 71.361 72.528 73.488 74.663 75.126 74.098 75.291 72.488 72.851 70.958 70.838 70.853 70.851 70.841 70.826 72.088 71.236 74.188 73.916 77.066 74.686 73.971 74.071 74.003 74.148 73.671 72.763 73.546 71.976 71.388 71.368 71.393 71.461 72.216 72.633 72.036 72.883 72.721 71.891 71.926 71.976 71.986 71.986 72.003 73.203 73.468 72.971 73.048 73.088 73.156 73.178 73.171 73.166 73.696 75.268 74.876 75.231 76.223 77.758 78.266 79.331 80.348 78.601 79.146 81.736 82.133 82.496 82.753 82.836 82.701 82.373 81.161 77.111 82.381 81.103 79.986 79.193 78.486 78.421 78.021 78.346 79.508 77.411 77.068 76.941 77.051 77.128 77.203 77.328 77.423 78.448 78.516 77.721 77.908 79.211 82.333 81.158 77.883 77.908 77.948 78.016 77.978 77.986 78.058 79.673 84.231 81.248 84.366 79.173 79.217 78.814 78.696 79.156 78.515 78.162 79.906 83.541 79.071 78.307 78.289 78.302 78.27 78.261 78.25 78.187 78.252 78.272 78.957 80.037 79.503 78.665 83.806 85.988 86.892 86.977 86.486 86.718 86.05 84.763 82.233 81.943 80.483 78.361 80.003 78.541 79.018 78.001 78.251 78.008 77.848 77.808 77.741 77.768 77.851 77.893 77.891 77.841 77.876 77.951 78.006 78.478 78.946 79.503 79.996 80.881 78.426 78.001 78.001 77.943 77.933 77.898 77.883 77.903 77.923 79.918 85.096 86.576 84.521 81.336 80.471 80.936 80.506 80.351 78.416 78.679 79.166 78.679 78.481 77.874 77.851 77.764 77.684 77.739 77.691 77.664 77.601 77.784 80.531 83.719 84.371 82.796 78.991 80.281 80.001 78.624 78.266 78.839 82.436 85.379 86.516 87.474 87.251 86.276 85.864 85.766 85.154 78.846 79.966 78.391 78.341 78.299 78.299 78.299 78.656 79.451 79.594 80.151 79.796 80.726 84.234 82.441 82.954 81.644 80.106 80.244 80.356 87.154 84.419 85.539 88.679 90.451 91.431 88.831 83.071 85.001 88.754 90.701 90.979 86.364 86.121 86.729 85.981 87.219 86.599 83.899 84.179 83.471 85.764 86.466 86.496 85.141 83.741 83.581 83.584 83.779 85.026 85.484 87.974 89.556 91.114 89.946 84.979 86.626 92.066 93.321 91.779 88.171 85.231 84.974 85.009 84.986 84.961 85.496 88.474 88.614 91.706 93.549 94.714 94.996 94.861 94.056 93.119 92.429 93.916 92.304 94.349 90.489 89.656 88.559 88.411 86.159 86.414 90.124 94.686 96.049 94.499 89.884 87.661 88.679 88.624 88.286 91.589 89.011 88.509 88.614 88.551 86.101 86.306 86.964 86.931 87.239 86.751 86.716 86.589 85.554 85.286
76.386 76.641 74.838 73.098 73.183 71.728 72.761 74.253 73.268 71.843 71.826 73.191 74.488 73.826 73.756 71.893 71.826 71.801 71.676 71.561 71.443 71.803 77.931 78.036 79.551 78.843 76.213 72.008 71.236 71.641 71.873 71.323 71.393 71.418 71.401 71.376 71.353 71.291 71.266 71.163 71.033 71.028 71.086 70.908 71.851 77.198 79.738 79.111 77.778 74.688 70.743 70.698 70.688 70.658 70.666 70.881 73.221 72.378 71.703 72.273 72.293 72.151 72.508 72.516 71.658 71.878 71.536 73.621 75.893 76.293 76.836 76.876 72.431 70.676 70.961 71.461 71.371 70.923 71.576 70.743 70.708 70.703 70.816 71.386 70.776 70.758 71.023 75.856 78.443 79.468 78.171 77.931 76.811 71.413 70.826 70.666 70.663 70.678 72.411 71.306 71.043 71.186 72.278 72.808 73.348 73.463 73.611 72.666 71.706 70.868 70.876 70.866 70.851 71.516 72.331 74.546 74.953 79.976 77.983 77.338 77.016 73.461 72.256 71.926 71.781 72.788 75.353 75.091 71.891 71.468 71.446 71.456 71.533 71.636 72.263 71.801 71.821 71.891 71.926 71.976 71.988 72.008 72.006 72.073 72.241 73.856 73.061 73.141 73.171 73.196 73.193 73.313 73.683 75.123 75.013 77.211 77.983 78.916 80.478 81.153 81.338 81.748 81.266 76.746 82.308 83.236 82.698 82.378 82.003 81.641 81.266 80.868 76.678 78.363 78.438 78.428 78.046 77.266 76.431 75.738 75.926 80.703 78.263 77.591 77.031 77.121 77.506 78.103 77.901 77.516 77.681 77.641 77.663 77.721 77.731 79.198 77.806 77.866 77.898 77.906 78.031 78.501 78.046 78.031 82.046 87.441 80.346 81.199 80.586 78.37 78.439 78.888 79.05 78.649 78.248 78.441 81.005 79.966 78.855 78.27 78.31 78.246 78.286 78.263 78.208 78.211 78.358 81.233 81.714 80.37 78.298 79.837 85.053 86.273 87.01 87.119 86.909 87.164 86.511 85.038 82.848 79.463 78.541 78.831 78.368 78.203 78.201 78.216 78.348 78.123 77.871 77.866 77.743 77.848 77.903 77.933 77.911 77.926 77.883 77.993 78.318 79.723 78.526 78.451 83.421 78.113 78.503 78.333 77.938 77.926 77.906 77.893 77.906 77.921 83.023 86.673 87.151 86.888 86.039 82.419 79.234 79.684 78.434 77.761 78.551 78.504 79.221 84.021 81.254 77.881 77.776 77.776 77.779 77.741 77.711 77.614 79.044 83.014 83.346 84.659 83.684 80.299 81.686 83.189 81.509 78.921 78.461 83.719 86.034 87.066 87.591 86.689 86.081 84.979 85.119 82.431 80.694 79.214 78.331 79.811 78.879 78.301 78.579 78.934 79.606 80.396 84.384 81.186 82.839 84.269 84.009 86.396 83.264 83.481 81.849 80.519 84.451 83.984 86.641 84.701 90.141 83.961 87.694 81.381 87.521 89.246 88.216 88.499 86.911 85.344 86.319 88.339 86.536 84.641 84.811 84.116 84.819 86.309 86.529 86.501 86.499 86.411 85.204 83.756 83.634 83.819 83.701 84.389 86.784 88.269 89.154 89.696 90.176 86.799 92.404 93.174 92.851 89.961 86.104 85.209 85.174 85.339 87.749 88.954 87.049 88.056 92.326 93.944 94.641 94.994 94.976 93.941 93.459 93.594 94.624 95.231 91.501 86.981 88.461 89.124 88.671 88.076 87.459 91.376 95.196 96.086 95.114 90.619 88.989 88.849 88.824 88.621 88.521 88.536 88.086 86.384 85.841 86.709 86.631 88.181 88.194 87.779 87.646 87.249 87.334 86.969
77.496 78.368 74.146 73.041 72.238 71.768 71.941 73.541 72.226 75.018 74.621 74.393 73.131 75.523 73.068 73.136 71.823 71.776 71.696 71.583 71.516 71.328 75.088 78.231 78.763 80.086 77.876 74.333 71.171 71.256 72.108 71.753 71.331 71.453 71.426 71.446 71.386 71.333 71.288 71.276 71.101 71.523 71.618 71.008 70.876 75.736 77.623 79.213 78.398 77.698 72.846 70.798 70.711 70.683 70.696 70.743 72.383 73.068 71.638 71.463 71.056 70.793 71.001 70.823 71.053 71.798 74.048 72.706 73.136 73.061 72.083 72.798 71.986 72.008 72.023 72.318 71.178 70.866 71.168 70.786 70.751 70.776 70.861 71.346 70.778 70.776 70.776 75.283 78.663 79.526 77.468 76.251 75.418 70.861 70.823 70.703 70.708 70.738 70.751 70.768 70.723 70.766 70.753 72.203 71.423 71.591 73.976 71.093 70.981 71.811 70.941 70.988 72.216 73.538 75.056 75.363 75.818 81.156 78.913 74.241 73.336 71.461 72.098 71.908 71.393 71.783 71.621 73.998 72.978 71.568 71.543 71.588 71.573 71.701 72.393 72.548 71.876 71.923 71.943 71.981 72.181 72.756 73.021 73.211 72.773 73.948 73.461 73.146 73.263 73.411 73.633 73.596 74.128 76.178 75.453 79.763 80.821 81.556 82.388 82.491 82.706 82.983 81.726 76.521 80.856 82.031 81.638 81.286 78.896 78.553 78.858 77.958 77.313 78.331 77.746 76.443 75.828 76.288 75.838 75.966 76.226 78.466 77.428 77.021 78.031 78.521 78.228 77.983 77.561 77.453 77.513 77.536 77.603 77.691 77.738 77.766 77.813 77.871 77.913 77.923 78.341 78.566 78.188 78.183 78.376 83.123 81.398 79.623 82.61 78.785 78.801 79.029 78.384 78.486 78.403 79.661 81.809 82.004 81.334 79.564 78.211 78.276 78.293 78.281 78.536 78.9 80.181 81.259 81.677 80.389 78.33 78.378 78.818 83.492 86.1 87.025 86.275 86.852 86.773 84.751 79.686 78.233 80.348 80.838 79.221 78.253 78.211 78.316 78.458 78.311 78.268 77.953 77.878 77.826 77.793 77.921 78.003 78.013 77.941 77.928 78.041 78.501 80.018 79.341 79.536 77.938 77.976 77.933 78.123 78.363 78.251 77.911 77.943 81.176 86.336 87.106 87.091 87.243 87.171 86.504 83.201 78.159 77.676 78.381 78.494 78.199 78.036 78.439 79.246 77.909 77.796 77.864 77.846 77.799 77.691 77.744 81.546 83.594 83.186 84.006 82.461 80.579 79.549 80.384 82.824 81.409 79.264 79.411 80.754 86.616 87.084 86.109 85.521 84.946 83.601 81.229 82.261 81.699 80.549 78.524 78.304 78.321 78.309 78.311 79.181 80.319 83.541 80.609 85.461 86.026 84.871 83.944 82.894 84.739 83.554 81.926 80.941 82.239 86.384 83.921 90.081 86.386 85.076 85.296 83.626 87.626 89.706 87.686 83.171 84.664 86.441 88.216 87.679 86.179 84.021 83.526 85.749 86.479 86.511 86.566 86.514 86.489 85.374 83.611 83.606 83.614 83.716 85.371 86.621 85.244 89.654 91.216 88.781 85.929 86.181 93.041 93.619 89.374 85.521 85.231 85.254 85.591 87.981 88.816 86.011 85.411 87.176 91.806 93.656 94.279 94.536 93.756 94.596 93.779 95.754 95.546 90.899 90.881 89.106 89.169 89.269 89.271 89.761 92.639 95.539 95.616 94.789 90.326 88.864 88.849 89.201 88.699 88.539 88.601 87.191 85.946 85.901 85.866 86.084 85.796 87.601 87.854 87.314 88.799 87.959 91.751
80.576 80.271 76.238 72.598 72.018 71.788 71.803 72.253 74.271 75.698 75.498 74.608 73.706 74.836 74.618 72.661 71.776 71.731 71.728 71.641 71.598 71.418 71.998 76.566 78.281 79.491 78.813 75.681 71.186 71.261 71.806 71.656 71.298 71.416 71.448 71.458 71.446 71.381 71.343 71.321 71.221 71.156 71.833 71.298 70.946 71.943 76.196 78.268 79.261 77.428 73.663 70.816 70.753 70.728 70.746 71.323 73.508 73.191 70.991 70.796 70.816 70.801 70.788 70.793 71.021 72.361 77.908 78.501 78.263 78.321 78.106 77.173 71.918 71.016 71.521 71.311 70.941 70.776 70.776 70.818 70.788 70.823 70.931 71.518 70.841 70.833 72.281 76.298 78.873 79.393 77.183 73.746 73.548 71.126 70.811 70.751 70.758 70.786 70.786 70.798 70.786 70.798 70.806 70.781 71.186 71.783 73.611 71.071 73.823 72.906 71.556 72.693 74.691 74.621 74.168 73.018 73.991 72.266 77.428 71.488 71.421 71.268 71.271 71.388 71.416 71.441 71.526 73.326 73.213 71.681 71.593 71.641 71.646 71.763 72.146 72.828 71.971 71.988 71.986 72.283 72.691 72.866 72.691 72.781 72.793 73.186 73.573 73.488 73.546 74.268 76.321 77.981 78.503 76.943 74.228 80.033 82.068 82.623 82.953 83.003 82.748 82.323 81.716 77.761 78.311 79.378 78.653 78.713 76.176 75.251 76.716 77.123 76.796 78.368 76.753 75.801 77.176 76.646 77.516 76.193 76.471 77.643 78.311 77.443 77.178 77.276 77.263 77.408 77.313 77.366 77.448 77.516 77.606 77.656 77.718 77.768 77.781 77.818 77.911 78.006 78.111 78.351 78.656 78.743 78.588 80.396 81.171 83.886 82.128 80.891 81.226 78.561 78.401 79.314 78.427 80.142 79.653 83.233 81.643 79.01 78.231 78.288 78.318 78.278 78.241 78.572 81.333 82.424 79.347 79.674 78.511 78.318 78.585 78.427 82.399 86.075 86.965 86.983 85.348 80.173 78.323 80.788 81.548 81.556 79.626 78.331 78.301 78.276 78.326 78.353 78.266 78.151 78.463 77.981 77.976 77.911 77.998 78.011 78.058 78.023 77.966 78.031 78.308 79.406 79.191 78.211 78.026 77.936 77.916 78.551 78.286 77.858 79.346 85.296 86.976 87.113 87.098 87.116 87.161 86.684 82.799 77.854 77.759 77.839 78.061 78.024 78.074 78.074 78.016 77.891 77.886 77.871 77.901 77.824 77.759 78.111 81.841 83.341 82.824 83.739 81.844 83.321 81.859 79.231 79.694 80.864 81.741 81.994 82.409 81.829 85.656 85.584 85.769 85.866 81.324 82.121 83.301 80.196 79.674 81.209 80.094 78.424 78.314 78.319 78.709 83.581 82.799 88.374 85.796 86.199 85.296 83.834 84.536 85.746 83.166 84.061 83.501 88.251 83.386 83.666 89.506 85.156 86.761 84.491 84.629 83.249 83.874 84.274 82.016 84.036 87.259 87.276 84.239 85.436 86.289 86.314 86.389 86.666 86.559 86.521 86.569 86.331 83.901 83.576 83.611 83.666 85.139 86.354 89.306 87.106 85.394 89.269 92.646 92.204 87.476 86.466 86.569 85.494 85.181 85.161 85.171 85.269 85.536 86.054 85.436 85.544 85.409 86.476 90.019 92.766 93.694 93.024 93.034 91.451 96.086 92.941 90.329 88.526 88.949 89.234 89.269 89.469 91.941 94.666 95.091 95.154 94.611 89.151 86.489 88.641 89.046 89.566 88.569 87.131 86.364 86.149 86.066 85.979 85.901 85.884 85.744 85.581 85.426 86.544 90.201 89.639
81.546 80.513 78.866 74.576 72.791 73.383 73.006 73.326 76.121 76.523 75.603 75.333 72.056 73.316 75.383 74.108 72.426 71.751 71.751 71.701 71.663 71.571 71.776 76.398 78.391 79.701 79.838 77.973 72.083 71.253 71.391 71.666 71.411 71.378 71.483 71.496 71.488 71.446 71.388 71.348 71.321 71.173 71.106 71.356 71.178 70.908 73.306 77.091 79.148 78.583 76.403 71.733 70.766 70.751 70.768 71.246 71.561 73.938 73.143 70.826 70.833 70.808 70.783 70.823 70.956 73.118 77.858 78.703 79.926 80.036 79.861 78.333 72.226 71.608 72.386 71.411 70.888 70.766 70.836 70.833 70.861 70.856 70.996 71.353 70.903 70.851 73.106 76.811 79.106 79.223 77.118 73.763 72.563 71.276 70.831 70.791 70.798 70.823 70.836 70.826 70.826 70.836 70.961 71.391 71.306 72.573 73.228 71.856 73.211 74.486 74.651 74.668 73.338 72.256 71.411 71.761 72.921 73.391 71.673 71.446 71.658 71.556 71.593 71.988 71.906 72.101 71.763 71.998 73.481 71.741 71.668 71.736 71.751 71.776 71.903 72.518 72.068 72.188 72.341 72.611 72.718 72.796 72.888 72.923 72.981 73.068 73.311 75.201 77.718 79.451 80.196 80.541 80.931 77.101 75.963 77.721 82.116 82.848 82.388 82.276 81.698 80.983 80.131 77.481 75.811 75.221 75.783 77.578 76.391 75.228 75.208 75.221 75.248 77.566 78.211 75.953 76.496 76.893 79.111 76.781 78.336 81.606 79.701 79.018 76.996 77.221 78.036 77.541 77.301 77.368 77.483 78.741 78.461 77.658 77.683 77.741 77.883 77.981 78.046 78.171 78.603 78.581 78.461 78.468 78.488 80.031 81.916 79.586 80.966 81.408 81.42 79.253 78.459 79.037 78.47 79.515 80.62 80.987 82.16 80.076 78.842 78.266 78.289 78.239 78.216 79.159 81.655 80.308 78.896 78.767 78.761 78.556 78.401 78.286 78.295 83.696 85.467 85.653 80.736 78.368 79.738 83.856 82.183 82.086 79.841 79.733 78.403 78.273 78.853 78.768 78.243 78.141 78.301 78.593 78.063 77.968 77.941 78.011 78.048 78.078 78.043 77.991 78.038 78.186 78.618 79.313 78.573 78.513 77.933 77.871 78.031 77.996 82.661 86.831 87.093 87.066 87.106 87.118 87.084 83.859 79.969 78.321 77.834 77.926 77.996 78.349 79.769 78.141 78.006 77.931 77.954 77.914 77.891 77.814 77.926 80.126 80.846 79.979 80.739 82.214 81.834 82.184 81.669 80.489 79.794 80.084 80.466 82.911 84.254 84.321 84.231 80.961 84.676 82.054 81.111 82.101 80.986 79.691 78.889 79.099 80.044 81.206 79.146 79.051 80.801 86.189 83.184 84.541 83.596 84.306 83.414 83.429 87.766 87.924 85.731 83.479 83.881 85.266 83.914 83.591 89.121 94.156 91.021 86.304 88.719 85.796 84.866 82.999 82.146 85.741 87.581 86.164 83.941 88.874 89.686 89.366 87.359 86.636 86.701 86.556 86.591 84.444 84.014 83.631 83.634 84.531 88.066 89.696 88.249 87.286 85.701 84.989 87.134 92.751 93.564 88.566 85.181 85.094 85.139 85.199 85.279 85.294 85.291 85.399 85.496 86.219 86.534 85.776 88.076 91.989 93.071 91.449 89.111 87.139 94.776 92.901 87.226 86.194 86.681 89.039 89.331 91.289 94.234 95.411 95.034 94.644 92.724 86.946 86.441 88.906 89.711 90.714 89.946 87.441 86.834 86.754 86.274 86.279 85.984 85.886 86.806 86.954 86.474 88.709 91.196 86.581
81.313 80.386 78.391 77.058 73.321 73.931 74.211 72.993 75.001 75.393 73.211 72.948 72.011 72.396 74.236 74.383 74.003 71.883 71.861 71.788 71.698 71.586 71.481 74.673 77.828 79.638 80.763 79.286 75.863 71.278 71.323 71.851 72.398 71.548 71.491 71.513 71.498 71.471 71.453 71.403 71.348 71.288 71.161 71.501 71.803 71.013 70.903 75.693 78.498 79.443 77.701 73.878 70.818 70.793 70.798 72.361 71.408 72.301 72.826 72.333 70.843 70.828 70.828 70.853 70.873 71.313 72.076 78.293 80.088 80.151 80.078 78.098 71.216 70.931 70.986 70.963 70.966 70.846 70.926 70.963 70.881 70.861 70.991 71.023 72.031 71.701 70.921 71.543 75.781 76.701 75.003 73.871 72.483 70.988 70.863 70.876 70.868 70.876 70.883 70.878 70.883 70.863 70.868 71.643 71.118 72.546 73.501 73.698 75.621 76.631 73.981 71.631 71.371 71.373 71.393 71.376 71.523 74.298 71.663 71.631 72.153 72.106 71.978 72.063 72.973 72.703 72.903 74.026 73.186 72.233 71.741 71.773 71.811 71.828 71.946 72.553 72.963 72.353 72.711 73.083 73.316 73.628 73.086 73.121 73.931 74.526 73.181 78.666 80.588 80.943 81.341 81.623 81.996 79.431 75.973 75.983 81.316 81.566 81.033 80.583 78.743 77.918 76.773 75.948 77.403 76.403 75.253 75.408 75.833 75.478 75.416 75.353 75.411 76.101 77.921 76.121 76.333 76.581 76.576 76.498 76.623 76.688 77.808 79.466 76.938 77.038 77.136 77.211 77.288 77.366 77.506 80.051 81.926 77.688 77.788 77.918 78.281 79.511 78.403 78.226 78.356 78.456 78.491 78.508 78.543 78.691 79.633 79.853 80.235 81.43 81.627 81.101 79.991 78.466 78.882 81.036 83.817 84.526 80.912 79.536 79.105 78.214 78.236 78.451 78.862 80.253 80.035 79.178 78.84 78.809 78.811 78.746 78.591 78.382 78.306 79.744 83.087 80.12 78.873 79.478 83.773 85.916 85.208 84.493 81.251 78.911 78.676 78.343 78.346 78.458 78.588 78.548 79.101 78.568 78.131 78.146 78.133 78.013 78.406 78.133 78.171 78.123 78.083 78.091 78.238 79.048 79.661 79.393 78.268 77.968 77.826 78.116 84.401 86.636 87.156 87.208 87.116 87.091 86.526 84.381 78.871 77.846 77.891 78.024 78.364 79.936 79.909 79.251 77.996 78.001 78.021 77.996 77.876 77.849 78.131 80.496 79.811 78.446 78.571 79.344 80.429 81.274 81.186 81.804 80.656 80.411 80.879 81.331 81.939 83.839 86.031 83.991 78.649 78.404 78.326 79.879 81.581 79.274 78.354 80.481 82.076 82.591 79.044 78.874 80.746 82.726 86.309 82.864 86.866 82.449 83.779 84.204 85.734 86.204 85.256 84.324 87.761 84.306 86.259 85.729 86.126 91.156 90.171 92.129 87.651 86.786 85.899 83.024 84.089 87.574 87.294 84.211 86.656 89.751 89.634 89.644 89.719 88.466 86.854 86.659 85.419 84.099 83.504 83.641 84.656 84.621 87.351 90.496 88.869 88.614 86.731 85.679 85.284 86.011 90.534 87.454 85.164 85.236 85.239 85.281 85.361 85.431 85.469 85.429 85.499 85.626 85.516 85.634 89.674 92.306 92.159 89.411 86.364 87.106 89.254 88.071 86.244 86.264 86.246 86.289 89.599 92.826 94.706 95.639 95.571 94.766 94.499 92.246 89.769 89.936 91.546 90.934 88.739 86.931 87.029 86.381 86.524 86.599 86.021 86.291 87.866 88.551 87.786 90.211 90.496 88.961
80.378 81.401 79.376 77.501 75.618 74.848 74.336 74.996 74.473 74.863 74.313 72.716 72.031 72.033 72.118 72.893 73.506 73.423 72.791 71.833 71.756 71.678 71.531 71.433 74.188 78.608 80.251 80.561 78.556 73.078 71.296 71.308 72.093 71.661 71.446 71.546 71.546 71.528 71.481 71.438 71.403 71.373 71.266 71.406 71.946 71.451 71.021 73.018 77.066 78.883 78.823 76.816 71.941 70.823 70.851 70.868 70.898 70.908 71.398 72.451 71.708 71.201 71.236 71.026 70.866 70.918 74.291 78.558 80.083 80.183 80.018 78.321 73.723 70.976 71.001 71.073 71.056 71.181 71.171 71.031 70.956 70.938 71.016 71.068 71.016 71.061 70.886 71.436 73.896 73.806 73.813 73.823 73.958 71.231 70.893 70.963 70.938 70.923 70.941 70.918 70.928 70.948 70.956 71.521 72.506 72.333 73.431 73.581 75.881 73.911 71.391 71.383 71.396 71.418 71.593 71.711 72.351 74.036 74.148 72.826 72.308 73.211 72.826 74.396 75.546 76.386 75.226 74.758 73.156 72.248 71.831 71.776 71.913 71.831 71.966 72.251 72.561 72.481 73.193 73.358 74.816 74.913 74.716 76.383 77.528 75.841 73.358 76.781 81.736 81.968 82.073 81.943 81.548 80.136 76.783 75.083 79.631 77.408 75.288 76.136 75.573 74.783 74.586 74.606 75.606 76.348 76.731 75.271 75.683 76.168 75.811 75.656 75.646 75.828 77.946 76.171 76.186 76.298 76.353 76.388 76.448 76.638 76.696 76.808 76.913 76.981 77.076 77.138 77.208 77.328 77.518 78.131 78.021 78.223 78.058 78.078 78.588 79.276 78.713 78.343 78.411 78.661 79.136 78.883 78.618 78.751 80.113 79.645 79.629 81.19 81.865 81.774 81.641 81.903 83.88 85.548 86.498 86.355 82.478 82.359 83.255 81.021 79.771 79.856 81.085 81.051 79.815 78.884 78.864 78.847 78.833 78.805 78.775 78.683 78.564 78.516 78.819 80.361 79.871 82.708 85.806 87.186 86.786 85.433 84.633 81.771 79.053 79.046 80.316 78.581 79.031 78.781 78.633 78.973 78.356 78.928 78.223 78.163 78.446 78.893 78.128 78.171 78.176 78.146 78.186 79.096 78.526 79.721 78.698 78.271 78.571 77.948 77.978 81.976 86.071 87.011 87.138 87.033 83.906 80.644 78.521 78.231 78.201 78.374 78.626 79.909 79.821 78.626 78.094 78.086 78.066 78.039 77.966 77.959 79.224 80.724 78.344 78.464 78.611 78.659 78.734 78.924 79.319 79.989 79.519 80.216 81.454 81.419 81.739 83.171 84.676 81.914 82.014 81.681 79.399 78.339 78.811 80.106 81.334 79.491 82.554 81.724 79.774 80.656 80.076 80.194 83.304 87.039 83.071 82.786 86.819 84.591 84.691 83.849 87.251 84.359 86.149 84.301 85.494 85.924 87.804 89.109 85.456 87.154 88.519 88.614 86.164 85.619 88.054 88.779 86.389 85.744 89.126 89.686 89.754 89.744 89.844 89.874 90.586 88.366 85.389 84.171 85.009 87.151 84.544 85.091 86.161 88.791 86.541 86.371 86.436 86.431 87.429 86.766 85.639 85.301 85.309 85.331 85.341 85.989 86.676 86.366 85.576 85.581 85.566 85.916 85.756 85.899 87.804 89.551 90.274 87.194 86.964 87.169 87.821 86.304 86.269 86.249 86.289 86.331 89.314 94.204 93.839 94.051 95.291 95.971 94.846 93.386 92.129 92.234 92.904 90.594 87.654 86.414 86.499 86.311 86.279 86.204 86.149 88.604 89.441 88.794 87.549 90.906 90.441 86.026
78.971 81.093 77.303 75.178 75.118 74.178 74.591 75.138 74.558 74.701 72.356 72.053 72.053 72.066 72.118 72.711 74.313 78.806 77.343 72.726 71.806 71.743 71.683 71.543 71.281 75.938 79.146 80.771 79.521 76.123 71.406 71.266 71.598 71.531 71.401 71.528 71.576 71.576 71.563 71.506 71.483 71.436 71.406 71.266 71.253 71.333 71.091 70.938 74.708 77.726 79.388 77.976 76.773 72.643 70.956 70.916 70.961 71.303 71.938 72.378 72.503 71.806 72.256 73.133 72.461 71.798 74.118 77.893 78.556 78.931 78.856 78.226 71.693 70.991 71.023 71.478 71.111 71.491 71.113 71.098 72.558 71.796 74.486 71.246 71.231 71.051 70.996 71.663 73.971 73.766 73.711 73.543 73.353 70.921 71.063 71.093 71.068 72.393 71.161 71.163 71.306 71.053 71.231 71.691 72.651 71.236 71.278 71.581 74.733 73.428 73.518 71.536 71.436 71.463 71.551 73.278 76.421 75.908 74.976 72.946 73.858 75.618 76.593 76.896 77.628 78.391 76.688 74.791 74.291 73.011 71.946 71.883 71.938 71.981 72.021 72.128 73.038 72.973 73.008 77.291 80.358 80.351 78.726 80.106 80.541 77.796 74.706 74.466 81.628 81.543 81.153 80.798 80.453 80.096 77.123 75.643 74.938 74.573 74.423 74.861 75.381 74.876 74.656 74.703 75.378 77.651 76.416 75.781 75.431 75.581 75.713 75.753 75.776 75.826 75.916 75.973 76.081 76.163 76.261 76.368 76.493 76.643 76.731 78.163 79.988 76.976 77.071 77.166 77.311 77.446 77.793 78.273 78.373 78.558 78.313 78.203 78.293 78.486 79.083 78.421 78.473 78.701 78.876 79.973 81.373 84.283 83.908 79.81 80.057 82.722 84.71 84.775 85.363 85.984 86.716 87.06 87.74 86.986 84.228 81.056 83.398 83.762 81.434 81.88 83.049 80.024 78.952 78.927 78.89 78.859 78.844 78.816 78.808 78.77 79.136 79.988 82.426 85.584 84.048 85.653 87.128 87.061 86.868 87.121 85.808 84.738 83.956 82.211 81.551 81.211 79.146 79.541 78.618 79.548 78.376 79.833 79.723 78.311 78.228 78.213 78.146 78.186 78.241 78.221 78.248 78.216 78.296 78.393 79.421 80.151 79.458 78.013 77.941 77.943 78.916 84.096 86.523 84.753 78.764 77.999 78.311 78.751 78.124 78.861 80.931 80.974 78.289 78.169 78.136 78.146 78.119 78.044 77.971 78.081 78.504 78.729 78.341 78.474 78.606 78.706 78.796 78.846 78.851 79.301 80.129 81.961 83.129 84.236 84.134 81.056 81.446 81.124 80.314 82.024 80.779 79.244 78.606 78.339 79.179 81.061 82.321 84.036 84.809 82.721 81.829 80.271 82.221 87.084 86.294 88.291 84.324 84.751 82.856 81.254 87.431 83.796 89.074 94.111 90.896 90.916 92.386 91.959 83.474 85.724 85.754 87.011 88.601 86.979 91.486 89.149 88.301 86.606 89.694 89.654 89.634 89.636 89.789 90.024 91.236 89.761 89.444 86.434 88.399 89.301 88.024 87.121 88.309 88.586 87.649 85.976 85.971 85.989 86.059 86.541 85.949 85.461 85.456 85.439 86.284 89.144 89.039 88.131 85.694 85.716 85.691 86.996 87.571 87.159 86.284 86.316 86.341 86.469 87.096 86.491 86.396 86.339 86.281 86.301 86.336 86.851 87.364 88.719 92.201 92.131 93.646 95.339 95.779 94.976 93.906 93.434 92.316 90.239 88.296 86.446 86.344 86.296 86.241 86.296 88.009 88.221 90.526 91.106 89.089 88.571 90.559 84.914
74.821 74.448 75.181 74.173 73.603 76.521 77.468 73.238 72.233 72.536 72.108 72.083 72.076 72.511 73.023 73.668 77.981 77.608 79.143 75.751 71.836 71.793 71.746 71.638 71.438 72.441 78.221 80.023 80.423 78.721 76.198 71.868 71.353 71.816 71.403 71.496 71.606 71.601 71.608 71.563 71.541 71.513 71.473 71.321 71.371 72.023 71.218 70.986 71.281 76.031 78.403 78.031 77.041 73.658 71.018 70.916 70.918 70.903 71.358 71.353 72.818 71.968 71.303 72.161 73.441 73.308 73.416 73.431 72.386 71.938 74.741 74.401 71.293 71.028 71.048 71.643 71.111 71.198 71.083 71.076 74.558 74.628 74.711 75.433 74.058 71.081 71.076 71.056 71.103 71.116 71.326 71.163 71.403 71.316 72.008 71.601 71.766 72.798 72.873 71.183 71.261 71.888 71.191 71.136 71.171 71.186 71.206 71.236 73.798 73.961 73.888 74.876 72.041 71.476 71.663 75.278 78.161 76.998 74.743 73.806 75.471 77.573 78.486 79.703 79.868 80.246 78.556 73.621 72.606 73.721 72.536 72.016 72.011 72.083 72.046 72.168 72.781 72.761 72.936 78.241 81.288 81.298 81.278 81.798 81.336 79.476 75.211 73.793 79.066 80.411 78.903 78.676 76.263 74.543 76.148 76.008 75.516 75.168 74.853 74.456 75.181 75.808 74.868 74.816 74.898 77.791 75.756 75.401 75.496 75.526 75.606 75.656 75.676 75.723 75.778 75.898 75.983 76.146 76.208 76.343 76.463 76.561 76.651 76.758 82.743 77.168 77.236 77.366 78.588 77.781 77.773 78.026 78.143 78.201 78.248 79.178 80.771 81.026 79.781 78.528 78.553 78.571 78.763 80.248 84.751 86.471 85.118 81.95 80.169 83.93 86.384 86.545 87.115 87.763 88.36 88.975 88.932 87.684 86.233 79.886 82.418 81.599 81.624 81.528 82.155 79.793 79.007 78.979 78.924 78.892 78.88 78.863 78.849 78.918 79.479 81.015 87.234 90.763 87.571 86.286 86.491 87.343 87.308 87.178 87.173 86.121 84.776 82.313 81.533 81.593 82.578 84.176 81.018 78.776 78.491 78.756 78.821 79.568 78.893 78.273 78.216 78.133 78.196 78.251 78.301 78.286 78.271 78.306 78.443 79.223 78.861 78.601 78.161 78.043 77.956 77.938 81.443 79.856 78.019 77.866 77.926 78.099 78.276 78.461 79.806 79.759 78.329 78.186 78.191 78.221 78.189 78.109 78.171 80.026 80.846 78.431 78.471 78.584 78.681 78.749 78.831 78.881 78.876 79.484 83.251 84.389 84.571 84.459 84.576 82.421 79.926 80.726 80.639 79.619 79.869 81.344 80.439 79.511 79.341 81.299 82.759 83.934 85.161 87.069 83.674 80.341 84.176 87.059 85.959 83.254 86.716 84.861 82.866 82.701 85.361 82.604 82.761 89.256 90.091 89.929 88.374 91.979 88.649 92.939 90.504 87.416 90.111 88.861 88.561 88.909 85.829 85.159 88.394 89.699 89.659 89.649 89.666 89.656 89.856 89.924 89.756 89.771 89.931 91.154 86.659 89.431 89.524 87.826 86.799 85.944 85.979 85.946 85.954 85.981 85.714 85.551 85.574 85.561 87.486 88.219 88.999 86.546 85.816 85.826 86.184 88.656 86.931 88.294 88.016 86.321 86.711 89.091 86.929 86.436 86.476 86.364 86.379 86.364 86.401 86.379 86.701 87.971 89.781 89.664 91.241 93.229 94.516 95.081 95.356 94.614 93.699 92.734 91.091 87.134 86.791 86.274 86.481 87.821 87.051 88.254 88.996 88.781 88.624 87.624 85.846 84.891
72.863 73.126 73.791 73.683 76.848 78.813 79.183 76.168 72.233 72.278 72.121 72.323 73.278 73.276 73.043 72.196 76.528 76.796 77.643 78.961 72.036 71.826 71.778 71.733 71.606 71.323 75.511 79.153 80.066 79.563 77.896 74.908 71.266 71.476 71.538 71.478 71.566 71.656 71.628 71.601 71.598 71.581 71.523 71.368 71.396 72.093 71.273 71.086 70.973 75.373 77.021 75.881 73.651 70.978 71.008 70.988 70.953 70.956 71.031 71.828 72.611 74.468 72.188 71.138 71.111 71.128 71.298 72.363 74.183 73.671 73.993 73.533 72.223 71.971 71.726 71.823 71.186 71.076 71.116 72.901 72.516 73.331 74.153 76.161 76.073 72.183 71.096 71.106 71.118 71.106 71.121 71.133 71.146 71.128 72.423 72.068 72.096 71.251 71.631 71.368 71.286 71.256 71.213 71.203 71.233 71.213 71.233 71.428 73.481 74.431 73.951 74.686 72.168 71.506 71.541 73.486 75.936 75.023 75.003 73.466 75.458 79.471 80.576 80.968 81.078 80.996 79.731 73.213 71.888 72.596 73.166 72.118 72.033 72.108 72.128 72.201 72.701 72.761 72.821 75.888 80.846 82.126 82.658 82.933 81.868 80.176 78.706 73.541 74.796 75.286 73.801 75.028 74.051 73.853 74.823 74.156 75.058 74.953 75.131 74.528 74.888 74.806 74.818 74.898 74.921 76.148 76.361 75.281 75.338 75.423 75.456 75.503 75.583 75.688 75.791 75.913 76.013 76.133 76.243 76.383 76.481 76.623 76.808 78.696 78.406 78.048 77.546 77.448 78.358 78.348 77.963 78.076 78.158 78.226 78.436 80.673 81.576 81.576 79.876 79.143 78.583 78.603 78.753 78.796 83.476 86.113 85.966 82.648 79.992 82.245 86.429 87.863 88.875 89.047 88.827 88.219 87.619 87.285 86.457 82.152 83.042 81.906 81.676 82.027 79.883 79.067 79.06 79.014 78.992 78.948 78.925 78.926 78.887 78.89 79.836 83.731 88.79 92.563 91.428 85.756 81.931 85.796 87.171 87.346 87.193 87.338 86.318 84.378 81.513 81.438 86.573 86.513 85.833 81.061 78.603 79.373 78.748 78.808 79.676 79.298 78.311 78.221 78.163 78.203 78.306 78.318 78.326 78.326 78.343 78.466 78.528 79.206 79.196 78.623 77.993 78.323 79.393 77.961 77.889 77.996 78.051 78.329 79.579 79.861 79.954 78.901 78.309 78.226 78.254 78.279 78.224 78.134 79.164 81.384 80.401 78.931 78.766 78.716 78.769 78.861 78.919 78.961 78.921 79.069 82.766 84.386 83.474 82.619 82.671 81.614 80.524 80.589 80.506 80.809 80.781 79.979 80.104 80.716 81.856 80.814 84.856 87.466 85.039 83.796 83.626 80.389 80.509 85.944 88.056 85.404 84.116 84.389 85.609 84.851 86.451 91.724 87.679 85.524 85.359 91.234 89.161 82.769 84.324 86.846 90.909 90.474 88.609 88.746 88.024 86.899 86.091 84.514 83.749 86.329 88.996 89.671 89.656 89.671 89.679 89.746 89.856 89.661 90.066 89.104 88.334 88.906 86.574 85.884 85.901 85.966 85.974 85.961 85.909 85.876 85.776 85.654 85.684 85.666 85.811 86.879 86.431 86.079 85.944 85.949 87.659 89.776 91.484 91.739 87.784 86.766 89.306 89.701 86.621 86.701 87.409 87.321 86.571 86.364 86.386 86.374 87.104 89.349 89.604 89.619 89.811 91.709 93.791 94.896 95.054 95.054 94.921 94.241 93.531 91.809 89.236 90.814 89.196 88.934 89.799 90.631 91.709 88.989 86.839 85.071 84.984 84.849
72.978 73.248 74.256 74.496 76.971 79.363 80.733 78.651 74.491 72.183 72.886 73.101 73.336 73.883 72.613 72.201 73.203 78.566 78.821 77.101 71.946 72.708 71.801 71.751 71.686 71.383 73.683 78.346 78.373 79.481 79.371 77.258 73.901 71.356 71.511 71.598 71.538 71.616 71.668 71.656 71.676 71.631 71.503 71.443 71.406 71.421 71.291 71.158 71.061 71.761 72.933 71.076 71.053 71.058 71.078 71.036 71.018 71.031 71.121 71.343 71.271 73.063 73.556 72.346 71.186 71.183 71.483 73.168 77.753 78.393 78.748 78.268 72.753 71.983 72.608 71.903 71.243 71.576 71.161 71.738 74.296 72.671 73.803 75.313 73.713 71.093 71.108 71.153 71.166 71.153 71.138 71.141 71.176 71.153 71.136 71.181 71.173 71.173 71.288 71.343 71.298 71.286 71.238 71.208 71.213 71.248 71.248 72.073 74.096 75.263 73.268 72.523 71.713 71.561 71.568 71.943 73.741 72.423 72.771 73.621 73.556 79.348 81.006 80.951 80.978 81.091 80.156 76.051 71.968 72.443 74.203 72.196 72.136 72.191 72.196 72.226 72.626 73.973 73.108 73.976 79.906 81.876 82.933 82.983 82.356 81.401 80.918 74.876 73.786 73.756 73.941 73.746 73.701 73.776 73.936 73.928 74.448 75.213 74.478 74.578 74.691 74.823 75.003 75.023 74.971 74.991 75.051 75.146 75.178 75.306 75.413 75.473 75.558 75.666 75.808 75.876 76.003 76.111 76.298 76.458 76.611 77.246 77.941 77.841 77.601 77.558 77.438 77.426 77.906 79.251 78.436 78.186 78.238 78.306 78.511 79.313 81.596 81.596 80.493 79.836 79.178 80.688 83.533 84.596 85.463 86.251 86.983 84.473 79.746 81.074 85.922 87.445 88.144 87.619 87.094 86.628 86.051 86.324 86.203 83.434 83.203 83.741 82.351 81.116 79.536 79.083 79.079 79.029 79.002 79.008 78.991 78.963 79.204 80.139 80.876 81.012 85.341 90.213 89.573 84.663 80.598 84.958 86.003 86.813 87.246 87.178 85.681 82.941 81.436 84.033 86.448 87.733 86.696 85.203 80.716 78.503 78.511 78.391 78.496 78.741 78.351 78.363 78.321 78.271 78.253 78.366 78.433 78.421 78.376 78.391 78.483 78.576 79.061 79.433 79.033 79.183 79.228 78.776 78.249 78.139 78.211 78.386 78.839 80.104 80.604 78.501 78.279 78.314 78.371 78.281 80.184 79.374 79.934 81.481 79.216 78.919 78.916 79.081 78.994 78.994 79.021 79.246 79.594 79.369 80.996 82.211 82.511 83.259 83.881 83.561 82.436 80.674 81.736 82.841 82.204 80.441 79.869 81.046 81.574 82.379 84.231 83.941 83.191 84.026 81.116 80.499 81.774 88.116 85.656 88.964 84.096 88.791 81.586 84.816 83.691 92.506 86.466 85.959 88.919 83.686 87.461 85.384 90.306 87.001 84.231 84.051 87.984 87.366 87.676 88.514 85.749 84.534 84.621 83.806 84.201 86.601 89.371 89.689 89.706 89.676 89.654 89.646 89.661 87.174 89.431 89.366 88.669 87.004 85.994 85.976 85.989 86.001 85.941 85.891 85.849 85.774 85.724 85.781 85.811 85.924 85.996 86.019 86.074 86.621 89.824 89.309 89.946 90.921 89.841 89.819 90.436 87.499 86.661 87.516 86.971 86.994 87.009 86.904 86.799 86.436 87.954 89.594 89.586 89.601 89.621 89.656 94.179 94.126 94.876 95.079 95.044 94.924 93.089 90.456 91.986 90.294 91.104 87.049 91.346 91.531 93.754 90.994 87.086 85.184 84.944 84.916
72.593 72.523 72.863 72.511 74.263 78.673 80.026 79.883 77.331 73.426 73.253 72.228 72.958 73.368 72.306 72.203 72.196 73.023 77.751 77.988 75.016 74.501 74.041 72.011 71.748 71.588 72.271 76.833 77.293 78.486 79.683 78.041 73.893 71.266 71.443 72.196 72.071 71.561 71.641 71.668 71.668 71.596 71.538 71.478 71.913 71.751 71.313 71.231 71.171 71.091 71.121 71.158 71.173 71.158 71.151 71.138 71.123 71.163 72.276 71.256 71.281 71.736 75.326 74.001 71.663 71.328 71.668 74.071 77.733 78.178 80.058 78.986 72.711 71.928 71.678 71.318 71.533 72.171 71.233 71.626 74.293 73.333 74.883 75.816 71.883 71.041 71.086 71.138 71.166 71.163 71.181 71.183 71.181 71.146 71.156 71.221 71.213 71.221 71.226 71.256 71.301 71.283 71.233 71.238 71.246 71.286 72.693 75.163 74.763 75.616 74.391 72.068 71.591 71.618 71.613 71.626 72.926 73.471 71.968 74.363 73.076 78.623 80.701 81.001 80.981 80.981 80.708 79.798 72.396 72.073 74.451 72.498 72.238 72.228 72.281 72.231 72.418 72.766 73.006 73.053 77.356 81.568 82.816 82.923 82.528 82.146 81.398 77.261 73.621 73.913 73.873 73.863 73.821 73.871 73.998 74.101 74.221 75.761 74.673 74.558 74.716 74.793 74.796 74.813 74.806 74.853 74.966 75.078 75.146 75.266 75.341 75.463 75.526 75.646 75.811 76.276 76.421 76.233 76.533 77.076 76.726 77.158 77.416 77.323 77.416 77.471 77.486 77.553 78.026 79.301 78.958 78.836 79.678 79.923 79.773 81.148 83.086 81.398 79.863 79.848 80.271 85.586 86.323 86.876 87.481 88.023 88.186 88.073 82.091 80.147 83.737 86.772 86.774 85.945 83.569 81.693 81.518 84.421 84.18 81.904 82.015 83.153 82.421 81.979 80.877 79.162 79.251 79.104 79.072 79.171 79.047 79.139 79.308 80.433 80.699 81.266 85.543 84.381 81.048 79.278 78.541 81.376 81.511 84.591 86.503 86.348 83.368 81.471 83.541 86.111 87.573 87.686 87.728 87.236 85.473 83.016 80.003 78.408 78.408 78.428 78.456 79.991 78.426 78.363 78.361 78.346 78.408 78.468 78.443 78.458 78.436 78.503 78.593 79.258 80.526 80.728 80.321 80.363 78.891 78.314 78.384 78.584 78.974 80.219 78.919 78.471 78.354 78.389 78.409 80.794 82.436 83.769 80.881 80.431 78.929 78.934 78.944 78.939 79.051 79.081 79.116 80.324 81.546 82.829 82.134 82.314 82.881 83.851 84.651 84.234 83.109 82.056 82.471 83.386 82.009 80.766 80.139 79.979 80.071 80.841 83.301 84.114 82.726 82.016 81.231 80.594 80.706 83.624 85.226 84.726 85.064 82.424 85.589 86.326 88.114 89.044 81.629 90.511 88.231 87.431 90.144 89.976 88.021 83.089 83.929 83.344 85.224 86.144 86.781 88.056 85.161 83.646 84.206 83.616 83.594 83.636 83.821 87.539 89.549 89.686 89.711 89.674 88.501 85.501 85.849 89.266 90.271 89.541 87.204 86.019 86.036 86.049 86.006 85.956 85.951 85.904 85.834 85.889 85.944 86.011 86.056 86.156 86.201 86.211 87.479 89.831 88.886 88.071 90.019 90.639 87.311 86.649 86.886 89.834 88.849 89.354 88.166 88.729 87.391 88.446 86.844 88.426 89.601 89.626 87.821 86.546 88.051 91.744 93.606 94.734 94.826 93.571 90.911 89.401 90.784 88.191 93.726 90.916 91.596 91.669 89.179 89.346 86.331 85.054 84.984 84.971
72.636 72.543 72.446 72.403 72.536 74.893 78.871 80.538 79.011 75.388 72.296 72.266 72.246 72.318 72.293 72.348 72.376 72.946 76.943 78.503 78.141 81.843 80.583 73.938 71.781 71.731 71.501 71.718 76.406 78.226 79.226 79.103 76.976 73.036 71.366 71.938 71.778 71.538 71.573 71.603 71.591 71.621 71.588 71.536 72.341 71.883 71.426 71.271 71.241 71.236 71.263 71.341 71.306 71.276 71.336 71.278 71.251 71.251 71.263 71.341 71.293 71.253 74.501 74.971 72.141 71.436 71.416 74.673 77.673 78.353 80.248 78.703 75.101 77.098 73.851 71.866 71.481 71.613 71.351 71.271 71.968 73.243 75.103 75.813 74.821 74.823 71.593 71.198 71.251 71.226 71.188 71.193 71.211 71.203 71.223 71.273 71.246 71.258 71.291 71.306 71.303 71.393 71.298 71.458 72.461 73.451 74.243 74.536 72.381 74.023 74.643 71.901 71.633 71.651 71.661 71.663 71.733 71.753 71.863 73.476 73.853 77.208 80.011 81.063 81.078 81.033 80.598 79.321 73.018 72.133 73.201 73.408 72.298 72.296 72.326 72.308 72.416 72.581 73.026 73.441 75.538 80.793 82.028 81.806 81.281 80.771 79.361 76.351 73.466 74.048 74.608 74.273 73.953 73.996 74.111 74.233 74.338 75.333 74.543 74.478 74.516 74.603 74.653 74.693 74.776 74.881 74.913 75.021 75.163 75.256 75.301 75.411 75.578 76.353 75.911 76.098 76.526 76.328 76.523 78.118 76.998 77.021 77.156 77.396 77.411 77.516 78.098 77.566 78.111 78.258 78.978 83.361 84.926 83.951 84.618 85.633 85.541 82.321 79.486 78.983 79.811 86.668 88.073 88.153 87.798 87.051 86.981 86.671 82.948 80.336 82.403 86.009 86.217 83.613 79.095 78.938 78.947 80.724 80.154 79.374 80.689 83.899 83.742 85.04 85.812 79.944 79.384 80.183 80.641 80.643 79.506 79.498 79.772 81.236 79.944 80.016 79.603 79.603 79.078 79.103 79.013 78.558 78.543 78.568 82.741 83.773 81.163 82.186 85.631 87.481 87.763 86.738 87.728 87.728 87.186 86.371 84.713 80.551 78.443 78.428 79.368 79.303 78.661 78.526 78.471 78.428 78.381 78.456 78.503 78.521 78.531 78.466 78.543 78.686 81.946 84.558 84.576 81.656 79.526 78.491 78.541 78.609 78.971 79.759 78.601 78.479 78.446 78.459 78.441 81.314 83.034 81.184 81.519 79.369 78.986 78.956 79.029 79.014 79.149 79.149 79.214 81.221 85.279 85.281 85.079 83.369 83.119 83.659 84.254 84.014 83.734 83.496 83.481 84.109 82.854 81.501 80.131 80.134 80.229 80.604 82.444 86.294 81.366 82.689 83.504 83.661 82.984 81.414 80.966 81.201 87.884 85.234 83.024 88.146 83.056 88.616 81.686 88.061 86.941 93.259 90.754 86.619 87.216 82.979 82.911 84.836 86.634 86.826 89.369 87.979 84.089 84.064 84.381 83.636 83.634 83.609 83.614 83.564 85.389 88.376 89.724 89.674 88.956 87.166 88.009 89.686 90.234 89.066 86.169 86.764 86.106 86.119 86.104 86.059 87.641 88.469 87.879 86.269 86.006 86.104 86.166 86.259 86.331 86.314 87.494 89.359 88.419 89.364 91.421 93.344 87.999 86.729 89.041 88.416 90.006 95.411 92.526 88.026 87.071 87.791 87.051 86.489 87.951 87.674 87.721 86.666 86.739 86.471 90.699 93.196 93.849 90.916 88.826 89.621 91.589 92.254 91.706 92.329 93.029 89.006 87.734 87.279 85.436 85.689 85.049 85.044
72.988 72.611 72.546 72.466 72.611 73.348 75.936 79.761 80.198 78.106 72.523 72.448 72.413 73.071 74.041 72.898 73.638 74.181 75.201 80.778 81.161 80.086 83.768 79.786 72.583 71.786 71.723 71.773 73.371 77.893 78.553 79.728 78.291 75.096 71.601 71.393 71.548 72.046 71.753 71.593 71.558 71.596 71.613 71.593 71.921 71.708 71.341 71.328 71.321 71.561 72.961 75.698 74.771 73.631 73.376 72.053 71.396 71.366 71.348 71.811 71.311 71.381 72.401 73.333 72.596 72.381 75.193 77.183 77.778 78.808 80.223 78.433 72.503 74.261 72.631 71.471 71.396 71.361 71.413 71.373 71.633 73.681 74.726 75.641 73.836 71.436 71.176 71.243 71.306 71.261 71.236 71.198 71.191 71.216 71.293 71.288 71.286 71.318 72.173 71.578 73.458 72.083 73.731 74.046 74.848 73.468 71.428 71.648 71.953 73.133 73.816 72.366 71.716 71.701 71.748 71.691 71.703 71.693 71.973 73.541 74.258 75.336 79.323 80.676 80.213 79.661 77.773 75.266 72.636 72.181 72.271 72.691 72.393 72.336 72.396 72.433 72.451 72.698 74.066 72.928 73.863 79.756 80.781 79.433 76.501 75.171 73.926 74.228 73.648 74.126 74.391 74.668 74.101 74.223 74.313 74.343 74.321 74.316 74.338 74.373 74.443 74.528 74.576 74.676 74.741 74.841 74.918 75.008 75.048 75.203 75.361 75.533 75.723 75.941 76.198 76.361 77.851 77.181 76.623 78.541 77.443 77.143 77.871 78.353 77.926 77.586 77.701 77.988 78.931 78.913 79.286 85.313 86.521 86.388 86.791 86.896 86.498 83.633 80.258 80.401 80.296 86.553 87.458 86.596 85.823 85.083 85.821 87.051 84.351 79.988 80.533 83.244 82.879 79.562 78.818 78.834 78.904 78.799 78.864 78.954 79.113 81.508 82.918 85.962 85.711 83.184 80.926 80.71 84.189 83.869 80.316 80.368 80.832 79.731 79.393 79.256 79.216 79.173 79.088 79.061 79.206 78.971 78.858 78.571 78.486 79.908 79.626 80.451 86.411 86.723 87.331 87.698 87.713 87.718 87.166 87.301 85.536 81.416 78.463 79.168 79.266 79.941 78.971 78.803 78.826 79.038 78.926 78.406 78.488 78.581 78.613 78.623 78.546 78.583 78.686 82.203 84.128 83.023 79.431 78.689 78.621 78.659 78.699 78.904 78.576 78.471 78.504 78.531 78.524 78.399 79.816 80.681 80.049 79.061 78.941 79.034 78.996 79.021 79.191 79.194 79.346 85.214 88.296 87.664 86.686 85.616 84.219 83.239 83.269 82.786 82.884 83.506 84.201 84.686 83.856 82.636 80.291 80.259 80.309 80.731 83.476 86.089 80.949 80.939 82.181 84.154 84.289 83.501 81.849 81.116 83.959 81.289 83.819 83.254 84.254 88.869 86.986 88.239 86.994 88.129 87.671 87.331 91.206 83.641 83.166 85.626 85.466 84.199 88.646 86.549 86.791 83.964 83.904 83.671 83.701 83.696 83.671 83.626 83.611 83.556 84.894 87.554 88.509 86.309 86.416 87.499 89.164 87.174 86.914 86.971 86.626 86.376 86.219 87.591 91.959 90.971 89.869 86.401 86.144 86.151 86.236 86.324 86.409 86.461 86.444 88.984 90.004 91.431 89.681 91.781 89.344 86.849 88.991 87.639 89.106 91.539 94.681 93.366 86.989 86.986 86.979 86.949 87.199 86.889 86.946 87.611 86.586 86.416 86.646 89.659 91.774 87.344 86.594 88.014 88.906 94.429 92.111 94.299 91.761 87.714 86.021 85.264 85.639 85.261 85.109 85.146
73.488 72.643 72.623 73.276 73.556 72.961 73.223 78.396 80.638 79.641 76.536 73.013 74.208 75.818 75.468 74.143 73.183 73.591 73.756 78.303 78.441 80.548 83.231 77.793 73.971 71.833 71.773 71.681 71.568 74.853 77.171 78.971 79.718 77.726 73.686 71.343 71.498 71.941 71.996 72.028 72.328 71.651 71.633 71.628 71.826 71.796 71.516 72.308 72.061 75.773 77.546 78.671 78.528 77.976 77.978 78.106 77.101 75.046 73.126 71.966 72.328 74.426 76.466 72.878 73.538 76.156 77.726 77.826 78.348 79.496 80.246 75.843 71.786 71.718 72.453 71.513 71.446 71.438 71.498 71.483 71.381 71.453 74.638 76.133 72.388 71.203 71.236 71.246 71.306 71.313 71.278 71.218 71.166 71.166 71.276 71.311 71.341 72.041 73.923 76.026 77.736 76.643 73.841 72.313 73.793 73.076 71.471 71.493 71.511 72.463 74.771 72.026 71.721 71.903 71.911 71.816 73.436 76.721 78.628 76.118 74.561 74.278 78.883 77.913 76.783 75.226 72.841 72.098 72.288 72.653 72.316 72.723 72.561 72.473 72.463 72.523 72.503 72.671 74.021 73.133 73.098 74.798 75.908 74.356 73.576 73.373 74.421 74.526 74.088 73.958 74.083 74.131 74.186 74.126 74.116 74.141 74.178 74.203 74.271 74.348 74.401 74.546 74.588 74.656 74.676 74.758 74.816 75.813 75.248 75.506 75.986 76.226 76.136 76.143 76.528 76.613 77.711 79.006 77.001 77.053 78.326 78.753 77.993 77.386 77.476 78.708 81.408 83.651 83.128 79.531 78.713 83.506 86.628 86.941 86.941 86.896 86.846 84.921 81.688 81.571 79.561 83.531 86.468 86.591 84.663 83.936 83.513 82.503 78.871 78.736 79.616 79.652 78.849 78.85 78.895 78.822 78.872 78.952 78.999 79.012 79.055 79.596 80.855 84.359 86.401 84.615 84.758 82.34 83.774 87.307 81.562 81.733 80.852 79.396 79.341 79.301 79.256 79.213 79.168 79.126 79.138 79.653 79.566 79.178 79.833 81.336 81.361 80.851 81.526 84.081 86.468 87.588 87.538 86.283 87.666 86.013 84.163 81.818 79.806 81.308 79.548 79.148 78.871 79.371 80.053 78.993 78.593 78.521 78.498 78.501 78.578 78.648 78.643 78.633 78.593 79.241 79.733 79.161 80.186 79.396 78.769 78.739 78.709 78.694 78.561 78.581 78.591 78.606 78.539 78.494 79.516 81.436 79.704 78.964 78.969 79.019 78.984 79.129 79.276 79.234 79.466 84.381 87.264 88.451 88.401 87.924 84.711 83.664 83.291 80.901 81.351 82.834 83.989 84.374 83.481 80.794 81.756 83.376 81.104 80.534 82.334 88.786 82.606 83.729 82.444 82.239 82.989 84.219 84.421 84.154 83.444 81.849 81.469 81.556 81.671 83.206 89.789 85.789 82.906 86.321 86.464 85.396 85.201 85.921 87.946 87.749 84.811 88.269 87.566 87.431 85.464 83.714 83.746 83.799 83.771 83.769 83.749 83.724 84.846 84.736 84.316 88.516 87.861 88.806 89.149 87.661 86.484 86.479 87.034 86.354 87.431 86.299 86.371 91.136 93.581 88.604 86.161 86.174 86.359 86.316 86.291 86.369 86.469 86.541 86.579 86.599 88.861 88.446 88.526 88.701 91.234 90.724 87.829 91.506 90.569 90.554 92.104 92.001 89.954 87.951 86.981 87.204 87.479 87.866 86.799 87.294 87.094 86.884 86.569 86.359 86.324 86.474 86.779 86.856 88.334 93.966 92.289 93.774 90.281 86.809 85.389 85.256 85.236 85.229 85.196 85.139
74.018 73.816 73.378 73.076 72.496 72.453 73.063 78.548 79.818 80.388 78.081 75.853 75.151 74.956 74.246 72.888 72.538 72.483 72.606 73.526 76.356 74.938 74.918 76.481 72.171 71.873 71.841 71.756 71.533 71.343 74.201 77.816 79.631 78.643 76.526 71.493 71.436 71.473 71.531 71.838 72.041 72.081 71.798 71.618 71.596 71.938 71.706 74.106 76.838 78.358 79.408 80.463 79.951 79.963 79.701 80.143 79.871 79.596 78.858 77.641 77.116 77.863 78.336 76.548 72.671 76.086 78.338 79.391 80.181 80.096 79.206 74.863 71.703 71.928 72.346 71.583 71.493 71.486 71.573 71.541 71.446 71.511 74.773 75.856 71.891 71.311 71.298 71.296 71.316 71.318 71.298 71.286 71.286 71.361 71.248 72.658 74.191 74.928 74.903 77.953 76.536 74.256 72.553 71.538 71.531 71.536 71.548 71.561 71.583 71.871 74.613 72.708 71.806 72.033 72.123 72.181 76.828 79.361 79.773 78.478 75.201 74.321 72.783 72.608 72.101 72.071 72.058 72.238 72.663 72.341 72.506 74.258 74.181 72.576 72.488 72.581 72.576 72.686 73.438 74.058 73.098 73.158 73.821 73.888 73.348 73.463 74.003 73.921 73.813 73.851 73.928 73.973 73.921 73.971 73.956 74.051 74.128 74.178 74.238 74.306 74.418 74.493 74.533 74.606 74.698 74.811 74.963 75.686 76.768 76.891 76.216 76.288 76.228 76.246 76.323 76.796 76.741 77.708 77.226 76.841 78.041 81.776 81.343 81.028 83.813 85.281 85.003 85.608 85.813 80.973 78.908 81.498 86.008 86.943 87.018 86.756 86.823 85.778 82.456 81.526 79.831 80.641 85.318 84.366 82.096 81.608 80.078 78.756 78.696 78.688 78.906 80.766 78.933 78.969 78.974 78.974 78.97 79.006 79.024 79.026 79.058 79.097 80.509 83.028 84.066 84.256 86.304 82.978 82.374 81.591 82.09 80.211 79.486 79.433 79.373 79.333 79.298 79.263 79.231 79.163 79.308 82.558 81.643 81.016 80.971 81.176 82.113 82.061 79.001 82.516 84.543 85.608 86.756 87.556 86.381 84.463 82.776 79.791 81.666 85.523 84.503 79.813 79.253 79.056 79.481 78.821 78.643 78.611 78.551 78.503 78.561 78.593 78.651 78.711 78.656 78.638 78.723 78.808 79.649 79.971 84.254 81.399 79.751 78.691 78.609 78.644 78.656 78.631 78.529 78.591 80.539 81.551 79.189 78.964 78.994 79.021 79.066 79.254 79.191 79.224 80.019 84.824 87.496 88.401 87.209 86.709 83.836 83.084 80.979 80.061 79.766 80.919 81.074 83.019 82.396 80.004 84.644 83.241 88.496 80.561 80.631 80.804 81.481 82.326 87.151 86.039 85.069 83.691 84.081 84.889 84.516 84.649 83.061 81.754 81.784 82.899 85.854 87.754 88.069 91.006 91.971 88.381 84.559 88.204 88.546 85.146 84.746 85.616 87.154 86.209 87.001 83.779 83.791 83.809 83.811 83.804 83.794 84.854 87.606 86.436 87.406 87.746 88.196 90.456 93.376 93.324 91.439 89.361 87.469 86.704 86.701 86.381 89.384 90.534 89.176 86.061 85.886 86.254 87.161 86.879 86.454 86.426 86.466 86.609 86.666 86.669 86.701 86.874 86.994 88.079 91.829 92.034 89.681 88.159 89.981 88.819 87.766 87.174 88.514 88.201 87.249 87.219 87.061 87.281 87.034 87.074 87.186 87.146 87.094 87.229 86.599 86.986 88.009 89.939 92.369 90.276 90.016 89.886 88.254 85.716 85.361 85.306 85.319 85.296 85.269 85.174
73.296 74.588 72.816 72.636 72.543 72.506 72.513 73.948 78.006 77.641 76.143 74.078 74.658 73.921 73.491 72.566 72.341 72.328 72.306 73.343 78.193 74.071 77.928 81.333 79.528 71.868 71.898 71.853 71.703 71.486 71.998 76.648 78.693 79.473 77.726 74.586 71.376 71.491 71.473 71.488 71.551 71.701 72.213 71.726 71.681 71.728 72.088 73.468 77.721 79.523 79.511 78.353 77.988 78.623 79.581 80.891 81.513 81.421 80.651 79.246 78.778 79.843 79.383 77.651 73.103 74.076 79.271 79.856 79.158 77.298 73.068 71.753 71.766 72.393 72.863 71.603 71.516 71.576 71.633 71.581 71.558 71.718 75.466 75.511 71.363 71.446 71.438 71.413 71.413 71.393 71.343 71.328 71.356 72.713 74.308 75.051 74.953 73.996 72.598 75.223 75.101 77.028 74.118 71.598 71.688 71.658 71.608 71.636 71.641 71.906 74.761 73.368 71.808 72.601 73.716 75.666 78.018 79.066 79.851 79.368 78.521 74.511 72.136 72.168 72.388 72.038 72.108 72.646 73.951 73.563 73.653 74.876 74.358 72.666 72.626 72.666 72.678 72.701 73.133 74.528 73.216 73.206 73.276 73.808 74.196 75.296 74.663 73.816 73.741 73.708 73.771 73.778 73.853 73.891 73.926 73.988 74.071 74.143 74.183 74.281 74.361 74.498 74.628 74.876 75.731 75.743 75.076 75.208 76.193 77.146 76.463 76.308 76.303 76.376 76.611 77.026 77.543 78.086 80.583 80.556 77.783 82.503 84.258 84.906 85.698 86.488 86.713 86.846 86.418 84.321 79.563 79.218 85.143 86.336 85.613 84.611 85.296 84.576 81.771 80.161 79.208 79.861 78.903 78.736 78.711 78.766 78.746 78.738 78.796 78.853 78.953 80.586 79.621 78.991 78.995 78.979 78.988 79.019 79.041 79.047 79.076 79.081 80.055 81.89 83.067 82.866 83.268 82.632 81.644 82.978 82.943 81.511 80.416 79.501 79.446 79.403 79.353 79.331 79.286 79.248 79.641 82.573 81.231 80.386 80.913 79.696 80.033 79.043 78.651 79.238 80.408 80.221 85.136 86.736 84.653 83.086 80.471 81.168 85.031 86.503 86.441 85.428 82.701 79.166 79.063 78.786 78.823 80.038 78.903 78.646 78.566 78.538 78.596 78.693 78.691 78.713 78.723 78.783 78.984 79.561 82.064 82.931 80.054 78.736 78.679 78.701 78.714 78.669 78.566 78.679 79.136 79.641 79.044 79.004 79.064 79.059 79.276 79.301 79.201 79.321 83.466 88.564 88.376 87.859 85.986 83.679 83.306 82.936 81.704 79.769 79.781 79.774 79.919 80.599 80.766 81.429 85.336 88.299 87.929 83.034 87.044 88.364 85.606 84.984 88.599 84.034 84.451 81.376 81.639 84.336 85.284 84.484 84.316 83.419 81.911 81.996 83.664 83.034 85.086 87.186 90.014 87.204 86.614 87.739 88.371 88.001 88.404 85.634 85.241 86.051 89.359 86.316 84.696 83.864 83.869 83.849 83.844 85.854 87.594 88.599 87.161 87.159 87.766 90.361 94.031 94.776 94.869 93.604 91.219 87.889 86.401 86.511 88.229 88.824 85.406 85.506 86.189 86.799 87.669 87.641 87.201 86.831 86.591 86.601 86.729 86.751 86.821 86.866 86.951 88.421 91.744 89.239 90.576 91.474 93.394 89.954 92.029 88.664 87.056 87.336 87.164 86.996 86.971 88.639 88.984 87.344 87.299 88.324 87.244 87.174 87.759 89.099 91.619 94.879 92.769 90.364 89.029 90.779 85.629 85.491 85.406 85.416 85.396 85.319 85.264 85.174
72.898 74.028 73.041 72.638 72.561 72.596 73.238 72.521 73.961 72.901 73.958 76.133 79.073 77.388 73.098 72.593 72.371 72.338 72.296 72.338 74.323 75.791 81.538 84.841 84.738 77.038 71.926 71.933 71.848 71.596 71.368 73.391 77.491 79.513 78.881 77.408 73.118 71.453 71.476 71.516 71.593 71.611 71.603 72.126 72.133 71.653 72.086 72.301 76.291 78.181 77.516 74.851 73.103 75.768 78.123 79.226 80.503 80.163 80.176 79.788 79.926 79.531 77.936 76.318 72.831 73.673 76.746 76.988 75.086 77.098 77.101 74.913 72.826 73.171 72.486 71.593 71.601 71.636 71.691 71.646 71.656 71.916 75.046 75.493 71.503 71.591 71.556 71.486 71.471 71.443 71.761 73.081 74.683 75.078 75.043 74.336 71.478 72.066 72.248 75.546 72.851 72.931 71.681 71.843 72.171 72.216 72.001 72.158 73.608 73.321 73.688 73.531 71.878 76.331 78.756 79.128 79.536 79.881 80.311 80.656 80.968 73.271 73.398 73.968 72.201 72.128 72.163 72.248 72.443 72.493 72.808 73.473 74.998 73.248 72.741 72.746 72.811 72.766 72.896 74.473 74.006 74.231 74.913 75.196 74.923 73.758 73.623 73.583 73.621 73.626 73.723 73.753 73.786 73.871 73.918 73.993 74.051 74.051 74.166 74.341 74.603 75.226 75.688 75.711 75.138 75.056 75.141 75.271 75.603 77.068 76.373 76.331 76.658 80.588 83.003 81.491 81.581 83.378 84.346 85.159 79.556 81.244 86.159 86.714 86.849 86.626 86.024 85.391 84.866 83.651 79.241 78.714 81.731 81.674 79.526 78.624 79.566 78.671 78.881 79.206 80.224 79.556 79.311 79.071 78.839 79.044 78.881 78.949 79.001 79.089 79.136 79.741 80.206 79.004 79.024 79.024 79.022 79.03 79.048 79.066 79.06 79.099 80.63 80.38 80.283 81.767 83.075 81.941 82.879 83.441 87.009 87.616 85.976 79.546 79.501 79.459 79.421 79.391 79.364 79.319 79.951 80.274 80.431 81.111 79.234 79.219 79.194 79.169 78.926 78.516 78.431 78.561 80.036 80.416 82.051 80.974 80.306 84.259 86.304 87.351 87.466 86.724 85.691 81.924 78.861 79.101 80.161 79.484 78.864 78.784 78.694 78.656 78.614 78.679 78.761 78.831 78.819 78.741 78.774 79.071 80.649 79.649 78.901 78.796 78.766 78.776 78.769 78.649 78.786 79.739 79.256 78.819 78.934 79.081 79.246 79.161 79.236 79.221 79.224 82.139 85.234 87.534 88.459 87.079 84.204 82.896 82.996 81.659 80.276 79.846 79.996 80.154 80.246 80.254 80.021 81.309 87.214 83.896 83.594 89.221 85.374 87.571 82.611 87.276 88.391 86.769 86.429 81.436 81.669 85.556 89.594 86.254 85.196 85.196 85.364 84.329 85.409 85.671 84.664 87.414 86.421 87.529 87.046 91.749 87.319 88.701 90.129 85.989 86.444 85.234 87.126 85.829 83.954 83.964 83.999 84.189 84.444 84.594 86.389 89.764 90.129 89.639 86.756 90.659 94.084 95.736 96.124 95.631 94.896 92.344 88.929 87.321 89.959 90.751 90.236 88.079 87.134 87.186 87.144 87.109 87.076 87.099 86.874 86.806 86.766 86.834 86.939 87.011 87.054 88.049 90.194 88.851 95.384 94.569 96.879 89.579 89.731 90.264 87.094 87.851 87.126 86.996 87.194 89.101 89.719 87.481 89.884 94.474 90.256 88.644 87.871 91.281 91.579 94.741 92.376 91.816 88.314 86.649 85.616 85.519 85.479 85.504 85.436 85.356 85.294 85.289
73.386 73.106 73.691 72.706 72.653 73.141 73.678 74.083 73.566 75.156 78.316 80.476 81.201 80.191 74.813 72.621 72.796 72.523 72.836 74.256 74.981 75.108 82.208 84.581 83.713 77.543 72.023 71.998 71.961 71.798 71.481 71.301 75.753 78.306 78.106 76.928 72.626 71.458 71.501 71.596 71.603 72.803 73.458 72.173 72.298 71.693 71.716 72.176 72.978 75.991 72.498 71.526 71.451 71.451 71.661 73.163 76.108 76.601 78.503 77.888 77.961 76.778 73.583 71.868 71.631 72.866 73.741 71.601 73.993 79.361 76.448 79.203 75.713 72.098 71.656 71.621 71.683 71.723 71.741 71.671 71.743 71.768 73.291 73.278 72.046 71.838 71.631 71.553 71.771 73.121 74.891 75.113 74.906 73.906 72.563 71.663 71.553 71.603 71.621 75.916 74.546 73.766 71.701 71.933 72.333 72.416 72.941 76.483 78.116 75.643 73.043 74.486 72.773 75.046 80.121 80.498 80.868 80.983 80.931 80.681 80.288 76.906 76.061 75.441 76.468 72.936 72.231 72.308 72.411 72.491 72.573 72.743 74.628 74.216 72.891 72.821 72.886 72.903 72.953 73.356 74.373 74.551 73.816 73.443 74.318 74.371 73.971 73.561 73.606 73.676 73.696 73.753 73.788 73.793 73.886 73.998 74.858 74.421 74.323 75.006 75.533 75.258 74.928 74.971 75.098 75.728 75.491 75.408 75.866 77.576 76.433 77.511 80.563 82.743 84.226 84.188 85.126 85.838 86.114 85.859 83.591 80.356 86.566 85.964 85.849 85.166 84.144 83.136 81.644 79.664 79.176 78.606 80.484 78.649 78.551 78.621 78.799 79.179 78.891 78.939 79.391 79.791 79.924 79.439 79.149 79.384 79.089 79.141 79.191 79.241 79.249 79.451 80.616 78.999 79.036 79.046 79.056 79.051 79.064 79.084 79.091 79.176 79.926 79.814 81.209 81.166 82.109 82.561 82.066 83.006 86.814 86.824 81.794 79.594 79.559 79.506 79.469 79.434 79.411 79.406 81.686 81.159 80.746 80.094 79.479 79.271 79.241 79.196 79.139 79.101 79.356 79.159 79.031 78.441 78.629 79.379 83.924 86.061 87.266 87.541 87.456 87.526 86.951 85.939 82.626 80.349 80.374 79.596 78.964 79.034 79.584 78.751 78.686 78.646 78.699 78.786 78.864 78.839 78.811 78.776 79.426 79.561 78.844 78.784 78.824 78.784 80.804 79.406 79.566 82.214 80.396 79.064 79.049 79.839 80.621 79.229 79.274 79.269 79.766 85.986 87.076 88.166 88.004 86.271 83.024 83.499 83.526 81.796 79.809 80.151 80.131 80.151 80.149 80.281 80.314 80.724 84.399 84.449 80.874 86.624 85.506 84.489 86.809 86.084 89.011 86.461 83.426 82.826 83.719 81.981 85.871 89.116 90.334 85.731 84.739 86.139 86.159 86.936 89.874 87.041 84.971 87.389 87.011 86.689 88.819 90.749 92.606 89.324 85.651 84.181 83.946 84.011 84.044 84.196 84.561 84.859 85.619 87.696 87.731 89.989 88.824 90.316 88.676 92.669 94.476 95.589 96.234 96.494 95.971 94.851 93.594 88.861 90.729 90.754 90.789 88.799 87.464 87.326 87.259 87.234 87.189 87.166 87.116 87.071 86.954 86.861 86.961 87.046 87.149 87.176 87.601 89.611 94.451 93.249 90.636 88.809 88.239 87.746 88.274 88.429 87.071 86.996 87.261 88.059 88.204 90.641 90.791 94.554 93.906 91.431 91.064 92.989 94.479 95.194 91.136 90.719 87.394 86.899 85.604 85.591 85.554 85.526 85.429 85.486 86.789 88.821
73.861 72.986 73.448 73.081 73.158 73.576 76.383 78.776 75.156 76.706 79.851 81.421 80.553 79.096 74.836 72.966 73.431 74.248 74.576 73.348 72.718 72.438 76.866 81.368 79.831 72.411 72.138 72.058 71.998 71.921 71.651 71.483 76.236 77.491 77.468 73.211 73.091 71.948 71.586 72.233 74.418 76.806 77.306 73.118 72.086 71.706 71.716 71.846 71.786 71.508 71.561 71.583 71.598 71.576 71.566 71.576 71.581 71.538 72.108 72.811 73.136 72.246 71.591 71.681 71.701 71.763 74.476 72.996 72.493 76.271 74.591 76.746 74.893 71.708 71.681 71.648 71.746 71.798 71.818 71.743 71.801 71.786 71.773 71.856 71.841 71.698 72.353 73.348 74.583 75.113 74.268 73.308 72.971 72.891 71.723 71.618 71.578 71.626 71.656 72.723 74.401 72.591 71.978 73.416 73.996 76.018 77.143 77.873 78.598 77.821 74.463 74.646 73.278 73.056 80.868 80.828 80.453 80.056 79.676 79.291 78.918 77.126 76.506 75.551 73.653 72.321 72.353 72.393 72.478 72.573 72.656 72.733 74.546 74.286 73.008 72.958 72.978 73.011 73.056 73.138 73.258 73.301 73.323 73.348 73.408 73.618 73.508 73.508 73.533 73.621 73.698 73.661 73.788 73.831 74.021 75.968 77.496 76.163 74.466 74.488 74.711 74.853 74.991 75.156 75.426 75.608 75.688 75.531 76.863 76.356 77.498 82.596 84.076 85.061 85.891 86.256 86.128 85.853 84.709 83.596 81.531 78.421 84.074 84.064 84.924 85.444 80.671 79.001 77.766 77.544 77.569 78.179 80.694 79.141 78.854 78.601 78.834 78.881 78.924 78.971 79.116 80.866 79.786 79.246 79.331 79.376 79.364 79.266 79.304 79.329 79.321 79.284 80.346 79.741 79.026 79.059 79.074 79.084 79.086 79.106 79.289 79.479 80.199 79.579 79.901 79.881 79.614 80.466 81.069 81.051 82.646 81.689 79.639 79.609 79.574 79.561 79.526 79.514 80.279 80.646 79.954 81.479 80.121 79.331 79.326 79.311 79.291 79.246 79.216 79.201 79.141 80.019 79.459 79.794 81.824 79.114 81.649 85.541 86.634 87.409 87.509 87.504 87.269 86.051 82.099 80.569 79.721 79.169 78.986 78.976 79.089 79.621 79.001 79.384 79.731 79.264 78.796 78.874 78.874 78.869 78.879 78.914 78.851 78.914 78.896 78.891 81.209 83.201 80.474 82.321 79.891 82.116 81.224 82.279 84.214 83.364 79.336 79.521 81.416 87.276 88.639 88.609 87.571 85.776 82.959 81.934 81.679 80.274 79.866 80.231 80.146 80.149 80.206 80.241 80.324 80.404 81.194 82.026 80.936 82.944 84.749 89.219 87.101 87.699 83.566 82.966 85.181 83.519 86.971 88.184 89.959 87.514 88.236 83.629 83.454 84.344 85.536 86.184 85.826 85.244 87.329 84.979 87.914 86.791 89.436 89.126 89.196 88.631 87.284 86.834 87.736 84.864 84.179 84.461 84.986 85.234 86.901 86.114 91.156 92.076 91.291 88.594 87.069 90.709 92.246 93.934 95.344 95.776 96.004 94.524 91.361 90.834 90.259 90.619 90.499 87.611 87.521 87.479 87.479 87.436 87.326 87.264 87.211 87.171 87.131 87.419 87.036 87.084 87.189 87.274 87.314 89.774 93.254 91.204 89.189 92.394 93.896 94.109 90.561 95.039 91.176 87.824 89.184 87.911 89.629 92.499 92.311 96.419 95.686 90.836 89.414 92.171 94.099 92.456 93.961 90.766 86.291 85.716 85.686 85.651 85.639 85.571 85.479 87.444 91.309 91.319
73.008 72.948 72.891 72.881 73.088 73.216 73.713 75.988 73.521 74.178 78.623 80.893 80.948 78.688 73.248 73.523 74.936 73.971 72.703 72.376 72.346 72.368 72.448 72.476 73.281 72.598 72.178 72.128 72.081 71.996 71.836 71.588 72.243 73.168 72.053 71.893 72.251 72.986 73.823 75.946 78.108 79.283 78.646 75.303 72.148 72.163 71.736 71.746 72.141 72.123 72.158 72.161 72.208 72.226 72.153 71.833 71.736 71.718 71.686 71.646 71.593 71.663 71.741 71.808 71.781 71.773 73.183 74.676 74.273 75.496 79.556 80.098 73.538 71.836 71.746 71.761 71.803 71.846 71.868 71.776 71.841 71.843 71.741 71.656 72.418 73.808 74.951 75.236 74.751 72.193 72.898 72.926 72.798 71.641 71.691 71.681 71.711 71.771 71.786 71.806 72.083 72.076 74.008 78.198 78.418 78.693 78.993 79.241 79.703 79.736 74.773 74.286 73.643 74.628 78.336 79.443 79.071 78.688 77.898 76.451 74.306 72.753 73.696 75.113 72.836 72.421 72.461 72.711 72.703 72.651 73.291 74.088 74.981 73.981 73.076 72.973 73.053 73.123 73.126 73.158 73.186 73.248 73.328 73.328 73.391 73.446 73.451 73.481 73.526 73.591 73.751 73.831 74.026 74.318 74.273 77.188 77.466 76.151 74.548 74.658 74.836 75.016 75.151 75.241 75.408 76.378 78.208 77.108 76.923 78.541 77.531 83.521 86.251 86.053 85.363 84.583 85.076 84.003 81.276 79.774 78.506 77.586 80.546 82.271 80.656 79.349 77.686 77.541 77.559 77.566 77.686 78.901 80.051 79.841 78.806 78.586 78.811 78.941 78.991 79.026 79.044 79.614 80.001 79.534 79.476 79.336 79.489 79.361 79.391 79.401 79.414 79.359 79.706 81.689 80.146 79.079 79.921 79.254 79.604 80.209 80.214 79.886 79.891 79.266 79.096 78.929 80.521 81.589 81.459 81.279 81.146 81.569 80.269 79.766 79.606 79.591 79.574 79.546 81.861 82.089 82.039 81.094 80.281 79.399 79.371 79.386 79.341 79.311 79.279 79.246 79.216 79.269 79.569 82.599 79.601 79.009 78.919 79.809 84.911 86.756 87.271 87.376 86.319 82.399 81.709 81.999 83.621 82.506 79.844 80.086 79.474 79.396 79.066 81.369 80.526 78.861 78.776 78.861 78.949 78.996 78.999 78.974 79.001 78.969 78.906 78.936 79.366 80.206 81.234 81.389 80.129 80.371 83.351 81.046 82.021 80.029 79.784 79.734 82.441 86.334 87.266 88.156 88.656 86.731 82.259 79.749 79.794 79.744 80.289 80.146 80.116 80.194 80.244 80.266 80.296 80.574 80.869 81.149 83.174 83.236 85.794 84.354 84.706 89.074 86.561 85.359 84.374 82.781 82.036 85.104 83.914 87.519 87.121 82.836 82.786 82.816 83.529 85.271 86.619 87.239 86.169 85.549 88.601 86.889 91.006 90.134 88.006 87.084 87.786 85.764 87.741 86.204 84.354 84.544 85.029 85.161 87.844 87.691 88.029 91.206 91.061 87.411 86.271 86.581 87.389 87.984 91.459 94.046 94.676 93.174 90.324 90.794 88.654 88.079 88.411 87.651 87.596 87.634 87.814 87.921 87.534 87.389 87.334 87.274 87.464 88.626 88.771 88.354 87.194 87.309 87.414 87.469 87.544 87.921 89.474 90.026 89.886 90.259 93.399 92.876 89.039 92.039 91.784 90.826 93.244 92.086 98.186 96.031 95.319 91.206 90.491 91.156 92.999 93.154 90.721 85.956 85.826 85.751 85.746 85.734 85.676 85.551 85.584 87.254 88.489 88.884
72.921 72.856 72.828 73.121 73.236 72.873 72.971 73.736 72.741 72.681 75.816 79.498 81.323 80.526 76.091 73.643 73.426 72.568 72.533 72.438 72.388 72.471 72.521 72.543 72.638 72.636 72.266 72.191 72.123 72.048 71.978 71.861 71.786 72.446 71.758 71.758 71.976 73.356 77.293 79.076 80.083 80.143 78.998 77.448 72.911 72.483 71.743 71.761 71.738 71.811 71.791 71.826 71.861 71.853 71.883 71.921 72.151 72.296 71.956 71.808 71.811 71.833 71.856 71.893 71.923 72.223 72.846 72.933 72.303 73.836 75.133 73.408 71.923 71.873 71.776 71.826 71.883 71.898 71.913 71.816 71.931 71.903 72.553 74.556 75.463 75.301 74.446 72.478 72.941 71.983 75.563 74.256 72.203 72.098 71.816 71.856 71.888 71.918 71.881 71.996 72.083 72.093 73.403 79.336 79.801 79.888 79.653 79.423 79.111 78.873 75.153 74.006 73.331 75.071 76.803 77.253 76.358 75.636 75.621 73.623 72.476 72.836 73.218 74.868 72.978 72.523 72.616 73.301 73.903 74.556 75.036 74.718 73.903 73.121 73.071 73.018 73.088 73.116 73.176 73.161 73.231 73.241 73.298 73.346 73.376 73.376 73.458 73.546 73.653 73.976 74.528 75.316 74.741 74.328 74.576 74.991 76.243 76.656 74.771 74.906 75.838 76.253 76.376 78.856 81.003 81.963 81.728 80.618 81.263 81.281 78.713 80.976 84.563 83.726 82.258 81.478 83.863 83.688 79.326 77.286 77.041 77.264 78.624 79.394 78.204 77.594 77.966 77.644 77.611 77.706 78.074 78.796 79.394 80.036 79.391 78.604 78.719 78.976 79.029 79.074 79.101 80.676 80.714 80.276 81.419 85.861 89.484 82.181 79.451 79.461 79.401 79.301 79.489 80.731 82.144 81.321 80.334 81.421 80.531 79.949 79.686 79.936 79.631 78.836 79.556 81.739 81.706 81.634 81.539 81.826 81.309 80.599 80.594 80.661 81.316 79.599 79.586 79.589 81.276 82.226 80.824 80.401 79.521 79.441 79.426 79.419 79.389 79.346 79.334 79.296 79.276 79.376 82.096 83.224 79.349 79.079 79.076 78.976 79.724 84.111 86.091 86.501 84.954 80.221 81.744 84.369 86.041 85.486 83.046 79.781 79.479 78.986 78.946 79.976 82.204 80.994 81.496 79.666 78.869 78.924 79.034 79.109 79.049 79.079 78.991 78.949 78.924 79.196 80.419 81.076 82.439 81.499 82.026 83.796 81.719 81.176 81.516 79.676 81.839 84.279 86.246 85.951 86.756 83.491 80.909 79.806 80.001 79.829 80.389 80.421 80.241 80.226 80.256 80.269 80.769 83.244 80.936 82.136 82.161 83.021 85.681 89.179 87.286 85.289 85.231 85.211 84.274 82.226 88.036 88.146 87.551 88.436 84.419 82.796 82.786 82.794 82.799 82.904 83.514 84.514 84.931 87.141 86.149 88.684 87.654 90.101 86.364 87.701 86.271 86.349 87.271 87.976 85.981 84.694 84.906 85.054 88.106 88.196 90.846 90.581 88.539 86.416 86.389 86.464 86.851 86.949 86.926 88.084 91.731 90.259 90.516 90.826 88.001 87.891 87.701 87.691 87.644 87.634 87.654 87.661 87.544 87.496 87.439 87.466 88.234 90.031 91.631 88.721 87.559 87.314 87.404 87.516 87.511 87.476 87.506 90.931 95.806 96.694 95.581 90.881 93.621 92.491 93.961 89.681 88.819 95.026 95.831 90.036 94.766 92.786 92.526 93.709 89.741 90.251 90.074 86.161 85.791 85.809 85.776 85.729 85.689 85.624 87.014 89.936 88.091 90.879
72.893 72.923 72.871 72.871 73.906 73.241 72.866 72.813 72.716 72.671 73.121 77.441 80.483 81.891 79.368 74.816 76.228 72.958 72.596 72.503 72.481 72.543 72.761 72.613 73.018 73.268 72.548 72.231 72.146 72.098 72.078 72.028 72.001 72.511 72.163 71.848 71.858 73.228 78.191 81.088 79.538 78.321 76.763 73.668 71.681 72.423 72.018 71.801 71.818 71.813 71.803 71.851 71.876 71.876 71.856 71.916 71.913 71.976 72.418 72.198 71.953 71.958 71.993 72.391 72.896 72.648 72.223 72.603 72.841 72.303 72.118 72.058 71.998 71.918 71.846 71.868 71.943 71.988 71.973 71.906 72.011 71.951 74.358 75.131 74.726 72.851 71.911 71.641 71.853 71.951 73.718 72.606 73.568 71.963 71.946 71.983 71.996 71.986 71.958 71.958 72.036 72.081 72.963 78.396 78.786 78.521 78.261 77.951 77.406 75.253 73.736 74.038 73.618 75.083 75.033 74.848 74.558 74.006 72.846 72.448 72.541 74.008 74.546 75.096 73.993 73.168 74.593 75.088 74.383 73.871 73.576 73.133 73.081 73.036 73.038 73.073 73.153 73.168 73.133 73.166 73.206 73.223 73.271 73.323 73.343 73.916 73.908 74.206 74.828 74.618 75.396 75.133 74.581 74.578 74.688 75.311 74.508 76.591 75.863 76.578 79.898 80.881 81.978 82.728 83.258 83.606 82.628 81.603 81.278 81.286 79.848 78.663 81.131 80.311 79.388 79.343 79.711 77.713 77.039 77.291 77.456 78.266 78.789 78.016 77.614 77.714 77.976 77.931 78.151 78.276 78.324 78.456 78.864 79.976 80.459 78.751 78.726 79.234 79.101 79.144 79.174 81.244 81.229 80.761 90.021 92.954 92.284 91.334 80.001 79.511 79.434 79.361 79.564 80.664 80.321 81.771 82.011 85.746 84.631 79.679 79.704 79.736 79.776 79.194 79.876 81.849 81.751 81.661 81.464 81.521 81.649 81.151 79.966 79.649 79.636 79.631 79.611 79.639 81.074 79.899 79.854 79.526 79.751 79.636 79.479 79.449 79.409 79.399 79.391 79.394 79.536 82.334 82.654 80.379 79.121 79.116 79.111 79.086 79.001 78.891 82.901 83.904 80.441 81.671 83.564 85.946 87.219 87.189 86.204 83.001 79.669 79.034 79.819 82.069 84.436 84.721 82.796 81.334 79.416 78.884 79.021 79.091 79.119 79.101 79.061 79.001 79.166 80.939 80.174 80.691 82.079 82.106 83.934 82.904 85.841 80.121 79.524 80.589 83.694 84.016 83.539 83.836 83.531 82.134 80.986 80.049 80.094 79.766 80.049 80.316 80.429 80.221 80.261 80.264 80.669 83.189 80.946 81.959 84.581 84.054 88.954 84.989 84.546 83.646 85.204 84.489 86.526 86.751 83.784 84.881 89.174 89.266 84.006 82.804 82.799 82.789 82.796 82.821 83.609 85.124 86.464 86.834 88.121 84.959 89.846 90.089 89.259 87.121 86.254 86.706 87.124 87.104 86.364 84.831 84.909 85.041 85.179 87.229 89.279 88.101 87.834 86.366 86.394 86.414 86.436 86.501 86.716 86.924 87.069 88.251 92.006 95.071 94.314 91.191 90.961 88.589 87.791 87.691 87.679 88.029 87.906 87.581 87.619 89.651 92.269 91.946 89.994 89.471 89.036 87.746 87.466 87.474 87.541 87.499 87.511 90.894 94.954 92.346 91.091 91.116 91.601 93.381 92.629 91.026 96.134 92.756 97.769 92.411 91.296 95.619 95.519 93.109 88.826 88.601 90.381 86.634 85.879 85.866 85.826 85.766 85.671 85.839 85.856 86.499 86.559 88.466
