ncols 427
nrows 31
xllcorner    526058
yllcorner    189284
cellsize     2
NODATA_value -9999
78.504 78.686 79.051 78.921 78.821 78.874 78.906 78.866 78.984 79.524 79.564 79.726 82.479 84.501 84.754 84.779 83.921 84.096 81.056 80.459 80.646 80.726 80.776 80.884 80.894 82.279 83.691 83.171 82.304 82.939 84.184 82.869 81.961 82.314 82.456 83.381 88.051 89.229 89.151 89.314 88.866 84.309 82.546 83.051 82.864 82.819 83.086 82.796 82.796 82.851 82.754 83.649 85.519 84.181 84.129 83.681 84.669 84.489 84.694 83.831 84.411 83.976 84.084 83.884 83.554 83.519 83.454 83.539 85.356 85.444 85.281 84.201 85.554 86.481 84.464 85.559 85.686 83.946 83.024 83.279 83.644 83.564 84.616 84.659 84.724 84.744 84.796 84.051 82.816 82.866 84.649 83.701 83.844 84.064 88.976 86.261 86.256 84.064 85.194 84.366 86.031 87.074 89.231 89.246 89.164 89.011 88.794 86.486 81.189 81.351 81.314 81.429 81.726 81.164 80.976 81.056 80.614 80.561 80.416 80.289 80.214 80.151 80.178 80.208 80.306 80.466 80.763 80.773 81.616 80.716 80.918 81.086 81.123 81.151 82.456 81.558 83.953 86.661 86.948 87.223 87.416 87.623 87.791 87.993 88.138 88.281 88.276 88.248 87.773 88.068 88.291 88.396 88.478 88.461 88.616 88.491 88.466 88.438 87.203 85.133 83.846 83.271 82.101 81.988 83.896 84.186 82.198 81.586 81.506 81.266 81.653 81.921 83.381 82.443 83.143 83.448 83.343 83.741 83.821 83.218 85.341 85.941 85.593 85.548 84.188 82.321 82.236 82.703 83.171 82.378 82.483 82.468 82.488 82.541 83.113 84.811 88.623 88.326 88.743 89.061 85.976 83.776 84.831 84.741 83.668 82.651 82.443 82.438 82.738 86.011 86.466 84.766 83.776 84.041 84.536 84.603 84.731 84.796 89.106 90.943 92.071 91.921 88.103 90.661 89.011 88.516 89.481 88.396 87.868 85.808 84.981 85.298 85.723 86.098 86.273 86.451 86.501 86.553 86.551 86.691 86.793 86.888 86.948 87.051 87.121 87.201 87.286 87.433 87.496 87.623 88.456 88.516 88.033 88.031 88.318 88.523 88.323 88.061 88.128 88.328 88.438 88.486 88.543 88.603 93.066 99.136 101.201 101.503 99.136 93.801 88.883 88.936 88.933 90.028 93.618 93.178 93.296 93.571 94.501 100.481 93.503 89.931 89.668 89.503 89.608 89.756 91.261 93.146 95.633 98.266 98.251 97.011 97.058 92.856 89.861 90.013 91.473 90.823 90.653 91.418 93.898 90.298 89.918 89.948 89.968 89.968 90.001 90.023 90.071 90.283 90.353 90.243 90.298 90.338 90.808 90.371 90.481 90.968 91.133 91.451 91.396 91.473 90.741 91.143 91.093 90.578 90.878 91.101 91.741 90.693 90.546 90.538 90.503 90.456 90.413 90.463 90.478 90.473 90.481 90.771 91.131 94.203 94.301 91.283 91.171 90.808 90.496 90.186 90.153 90.118 90.183 90.218 93.676 90.756 91.408 90.516 90.026 90.071 90.088 90.301 90.948 90.361 90.466 90.343 90.708 91.173 90.151 90.471 90.056 90.688 90.016 90.096 90.091 91.088 90.571 90.133 90.078 90.043 90.103 90.138 90.146 89.886 90.056 90.053 90.363 90.543 90.603 90.021 89.668 89.886 89.806 91.976 94.243 91.586 89.221 89.206 89.261 89.306 89.343 89.311 92.233 91.391 94.563 90.046 89.206 92.761 95.518 96.986 97.068 95.946 89.853 88.308 88.036 87.673 87.528 88.236 89.001 91.561 90.193 91.638 94.951 92.59 89.938 87.353 87.298 87.333 87.348
79.134 78.944 79.156 78.821 78.729 78.821 78.864 78.856 79.019 81.239 79.734 79.734 81.701 86.639 86.966 86.784 86.434 85.884 81.434 80.251 80.574 80.624 80.669 80.921 82.954 82.889 83.229 83.334 82.626 83.579 84.299 84.549 83.529 83.109 82.436 83.141 84.779 86.706 86.536 86.471 86.384 83.649 83.514 82.891 82.651 82.611 82.669 82.716 82.726 82.629 82.744 84.459 83.369 82.859 83.319 84.206 84.344 84.454 84.709 84.416 83.441 83.069 84.171 84.874 85.311 85.374 83.454 84.789 90.911 90.759 85.239 85.131 88.206 86.579 85.254 85.244 84.926 83.094 82.846 82.719 82.544 82.716 83.456 84.164 84.596 84.624 84.706 84.741 84.771 84.354 83.821 85.089 85.891 83.626 84.076 83.589 82.661 84.394 85.644 84.171 85.084 86.351 88.234 88.464 88.669 88.836 89.081 87.764 83.596 83.076 81.851 82.154 81.334 81.571 81.491 80.964 80.781 81.476 80.799 80.311 80.236 80.131 80.453 80.511 80.078 80.111 80.208 80.376 80.463 80.453 80.533 80.618 80.693 80.768 80.781 80.846 81.486 81.093 83.716 84.863 84.563 84.881 86.273 86.086 87.051 87.226 87.423 86.941 85.916 86.943 87.163 87.363 87.556 87.778 87.986 88.188 88.328 88.431 88.076 87.573 87.373 87.786 87.683 86.866 86.061 85.666 83.893 84.163 84.031 82.153 81.323 81.621 81.913 81.963 82.123 82.503 83.101 83.046 83.216 85.061 86.091 85.973 87.421 84.503 83.153 82.121 82.311 82.438 82.271 82.573 82.463 82.461 82.466 82.603 84.848 88.228 89.236 90.136 89.573 88.568 84.481 84.921 84.926 84.876 84.836 84.631 83.678 82.518 82.781 86.916 84.673 84.843 84.021 83.968 84.126 84.288 84.673 85.021 85.001 89.531 90.748 86.891 89.358 95.278 95.033 93.938 95.563 95.786 95.346 90.068 86.531 85.321 85.681 86.008 86.281 86.516 86.613 86.693 86.646 86.713 86.913 86.951 87.486 87.976 87.618 88.161 88.083 87.448 87.513 87.556 87.883 87.866 88.051 88.276 88.758 88.756 88.193 88.031 88.071 88.141 88.198 88.318 88.346 90.818 96.411 99.188 100.793 100.761 99.196 94.396 88.761 88.856 88.881 88.906 91.208 94.338 95.118 94.648 92.921 94.521 91.228 89.273 89.773 89.976 90.423 89.948 89.986 90.443 93.813 97.071 97.276 96.053 91.956 90.288 89.698 89.788 91.096 91.678 90.226 90.686 89.848 89.806 89.813 89.866 89.943 89.926 89.946 89.918 89.923 89.991 90.058 90.106 90.108 90.146 90.203 90.228 90.268 90.323 90.388 91.143 92.071 90.416 90.418 90.428 90.451 90.478 90.488 90.586 90.433 90.463 90.418 90.456 90.448 90.443 90.408 90.381 90.316 90.293 90.836 91.011 91.098 91.403 91.808 90.546 90.143 90.173 90.126 90.081 90.053 90.111 90.668 92.761 95.308 93.941 92.268 90.853 89.968 89.931 89.921 89.918 89.973 90.001 90.016 90.051 89.938 91.208 90.018 90.111 89.771 89.956 89.981 90.343 90.433 90.781 89.988 90.093 90.063 90.488 90.641 90.066 90.051 89.766 89.931 89.926 90.036 90.436 89.798 89.503 89.573 89.468 89.351 91.306 92.776 89.883 89.203 89.223 89.268 89.318 89.293 89.291 90.093 90.181 89.708 88.938 88.831 92.246 95.718 97.056 96.911 94.898 88.606 88.678 88.711 88.376 88.298 88.433 87.196 88.218 91.343 96.743 96.711 92.003 89.128 87.233 87.24 87.255 87.265
78.579 79.066 79.016 78.751 78.684 78.789 78.786 78.794 79.126 80.751 79.701 79.771 82.976 86.951 88.324 88.151 87.144 84.534 80.539 80.279 80.544 80.579 81.026 85.496 88.394 88.146 84.929 81.651 82.351 82.976 83.284 84.236 83.979 84.571 84.859 83.479 82.886 83.416 83.654 83.644 83.269 82.351 82.541 82.551 82.601 82.531 82.619 82.661 82.704 83.186 82.684 83.879 82.911 82.811 82.856 84.011 86.584 86.991 86.516 86.399 85.926 84.931 84.804 83.376 83.574 83.991 84.126 83.841 88.959 88.061 87.066 89.191 86.376 84.161 84.524 85.259 84.209 82.869 83.371 82.949 82.426 82.326 82.336 82.351 83.006 83.699 84.529 84.641 84.674 84.719 84.766 84.816 84.316 83.771 82.699 82.316 82.286 82.704 83.669 82.096 82.111 83.196 84.439 85.279 86.756 86.954 87.749 87.879 87.026 86.799 86.424 86.161 83.944 80.816 80.939 81.214 80.776 80.809 80.811 80.416 80.254 80.191 80.328 80.756 80.366 80.353 80.066 79.986 80.003 80.046 80.066 80.141 80.268 80.281 80.291 80.456 81.648 81.173 81.561 81.201 81.173 81.053 80.893 83.353 84.753 84.263 84.068 83.868 81.453 84.421 84.656 83.556 85.073 85.306 86.333 87.043 87.241 87.448 88.511 88.633 88.523 88.936 89.043 88.791 88.533 88.503 88.113 88.373 88.106 86.878 85.728 84.756 81.921 81.873 81.948 82.006 82.278 83.853 84.618 83.703 84.371 83.711 84.708 83.696 82.026 82.051 82.893 82.403 82.258 82.443 82.448 82.686 82.426 83.413 86.893 88.873 89.861 90.323 89.158 86.263 82.951 82.818 84.401 84.991 84.953 84.886 84.836 84.603 83.826 86.373 85.906 83.798 85.001 84.006 84.053 84.228 84.796 84.753 84.831 84.858 85.876 84.926 93.668 96.001 96.921 96.433 96.321 97.718 95.408 96.083 92.206 86.053 85.771 86.036 86.313 86.551 86.763 86.696 86.631 86.761 86.901 87.023 87.138 87.238 87.328 87.403 87.461 87.411 87.438 87.521 87.803 88.003 88.263 88.541 88.578 88.301 87.991 88.041 88.053 88.101 88.163 88.183 89.181 97.461 98.378 99.708 101.076 100.233 98.648 92.656 88.746 88.786 88.811 88.848 90.016 89.898 95.021 94.986 94.061 90.826 89.081 89.061 89.106 89.106 89.258 89.963 91.378 91.423 91.078 92.563 95.721 92.453 89.716 89.708 89.678 89.668 91.441 90.251 90.976 89.816 89.743 89.771 89.783 89.861 89.918 89.913 89.888 89.898 89.916 90.196 90.861 90.301 89.948 90.006 90.086 90.131 90.251 90.283 90.331 91.186 92.998 90.481 90.326 90.346 90.401 90.451 90.463 90.461 90.463 90.448 90.403 90.413 90.448 90.623 90.341 90.291 90.228 90.223 90.218 90.271 90.216 90.188 90.163 90.136 90.246 90.066 90.011 90.086 90.611 90.043 90.936 94.811 94.043 93.571 95.071 90.193 89.936 89.911 89.851 89.801 89.776 89.821 89.966 90.016 89.723 89.621 89.621 89.621 89.596 89.608 89.586 89.683 89.658 89.543 89.518 89.543 89.538 89.498 89.611 89.493 89.456 89.441 89.418 89.401 89.381 89.326 89.318 89.266 89.243 89.233 89.826 90.376 89.393 89.206 89.203 89.256 89.296 89.283 89.241 89.198 89.183 89.286 89.706 88.881 88.771 92.696 95.641 97.086 96.181 93.813 88.558 88.493 87.908 87.838 87.513 88.313 88.011 87.628 88.783 93.808 90.833 89.815 88.535 87.723 87.975 88.07 88.228
78.611 78.874 79.164 78.771 78.956 78.709 78.729 78.714 79.189 80.131 80.254 80.764 83.561 87.151 89.109 88.464 86.611 82.521 80.664 80.584 80.694 80.609 84.121 92.554 94.016 93.079 90.084 82.426 80.994 81.221 81.356 81.321 81.704 82.039 82.909 83.766 82.859 82.806 83.719 83.919 83.259 83.001 83.024 83.066 82.566 82.464 82.556 82.584 84.571 85.009 83.031 83.771 82.856 82.909 82.861 84.479 87.349 89.071 88.931 88.984 88.521 88.234 86.871 83.454 82.859 83.039 83.589 83.411 83.831 87.226 87.896 90.034 84.776 82.819 82.649 82.674 82.981 82.666 82.644 82.556 82.319 82.301 82.329 82.331 82.349 82.344 82.501 83.439 83.799 84.596 84.666 84.706 84.331 82.676 82.289 82.289 82.274 84.146 84.801 82.194 81.841 82.049 81.809 81.809 81.994 82.214 83.691 88.164 88.136 87.956 87.729 87.544 85.064 80.706 80.536 80.609 81.569 81.254 80.541 81.029 80.846 80.218 80.146 80.088 80.091 80.418 80.416 80.666 80.431 79.961 80.011 79.891 79.893 79.883 79.908 80.111 80.393 80.553 80.471 80.231 80.321 80.508 80.758 80.828 80.861 81.348 81.106 81.571 80.761 81.013 81.711 81.038 80.883 80.978 83.123 83.858 84.258 83.536 87.908 88.176 88.396 88.263 88.518 88.858 88.908 88.951 88.688 88.836 88.831 88.358 87.756 87.478 82.636 81.898 81.916 81.981 82.238 85.216 86.041 85.023 85.133 85.158 82.321 81.913 81.916 82.288 82.273 82.126 82.273 82.298 82.323 83.281 82.228 84.011 88.536 89.503 90.063 89.458 87.801 85.581 85.516 82.796 82.523 83.193 84.571 85.033 84.928 84.861 85.166 85.913 84.021 85.693 85.491 83.533 83.903 84.328 85.118 84.651 84.746 84.821 84.866 85.841 95.691 96.583 97.886 97.948 97.461 98.068 97.093 95.926 95.163 92.011 89.666 88.061 87.096 88.203 87.763 88.028 86.668 86.698 86.816 86.963 87.141 87.278 87.356 87.443 87.513 87.643 87.636 87.438 88.188 88.231 88.378 88.266 87.856 87.908 87.971 87.981 88.033 88.058 88.163 88.318 94.426 100.183 99.648 100.263 101.111 99.711 98.116 91.408 88.688 88.711 88.708 90.068 93.268 90.028 91.103 96.458 98.013 90.453 89.006 89.043 89.088 89.113 89.093 89.878 95.248 94.973 94.211 91.988 91.441 89.591 90.131 90.778 89.778 89.671 90.093 89.841 89.753 89.673 89.661 91.753 91.086 90.543 89.956 89.928 89.891 89.811 89.841 89.878 89.981 89.993 89.936 89.958 89.978 90.021 90.098 90.103 90.141 90.681 91.253 90.541 90.228 90.226 90.266 90.298 90.333 90.336 90.333 90.491 90.868 90.363 91.088 90.928 90.501 90.168 90.133 90.118 90.113 90.138 90.113 90.088 90.043 90.038 89.973 90.001 90.226 90.411 90.481 90.011 90.043 91.181 90.073 92.806 92.436 89.938 89.896 89.858 89.841 89.806 89.756 89.783 90.268 90.293 89.671 89.603 89.588 89.593 89.588 89.566 89.603 90.408 90.561 89.491 89.466 89.438 89.468 90.223 90.381 89.506 89.371 89.353 89.336 89.296 89.256 89.256 89.221 89.211 89.183 89.183 89.236 89.181 89.173 89.228 89.263 89.268 89.273 89.251 89.178 89.143 89.128 89.373 89.791 88.893 88.806 92.023 91.528 94.143 94.191 93.256 90.301 88.173 87.396 87.423 87.283 87.246 87.068 86.876 87.036 87.736 87.308 86.885 86.923 86.798 86.945 87.15 87.008
78.446 79.236 79.441 78.841 79.629 78.689 78.679 78.641 79.356 79.304 79.546 79.979 85.131 87.344 88.736 88.101 86.414 82.676 81.086 82.099 82.181 82.234 86.689 93.716 96.306 95.879 91.284 85.059 80.919 81.036 81.151 81.199 81.369 82.171 88.269 88.559 88.239 87.849 87.519 86.329 85.071 82.514 83.121 82.971 82.499 82.414 82.504 82.544 83.464 84.191 82.599 82.996 82.934 82.789 83.001 84.939 88.034 89.126 88.759 88.391 88.794 89.034 87.134 82.896 82.886 82.884 82.939 83.016 84.089 85.796 87.891 87.004 83.509 82.596 82.791 83.509 82.586 82.596 82.646 82.634 82.331 82.271 82.286 82.311 82.321 82.319 82.349 82.329 82.344 82.764 84.009 84.581 83.374 82.334 82.279 82.271 83.136 86.236 83.581 82.036 81.869 81.846 81.816 83.449 82.646 81.604 83.511 87.589 87.824 88.046 88.149 88.256 85.219 81.664 81.124 80.471 80.614 80.636 80.526 80.471 80.401 80.998 81.156 80.248 80.096 80.063 80.023 79.938 80.011 80.136 80.846 80.201 80.196 80.631 79.908 80.166 80.296 79.823 79.821 79.826 79.861 79.968 80.273 80.163 80.418 80.616 80.568 81.428 80.506 80.651 80.323 80.461 80.451 80.536 80.878 81.253 81.328 81.116 84.378 86.133 87.256 87.443 87.583 87.838 87.996 88.201 88.376 88.553 88.686 88.791 88.726 88.746 83.296 81.906 81.971 82.633 82.713 83.346 84.101 86.398 86.888 83.373 81.791 81.741 81.903 82.773 82.103 82.101 82.156 82.228 82.203 82.073 81.981 87.701 89.121 89.971 89.603 88.538 85.506 84.376 83.576 82.451 82.468 82.458 82.433 84.046 85.061 84.821 85.211 84.561 84.413 83.498 84.431 83.648 85.331 86.898 85.633 84.393 84.578 84.751 84.783 90.906 95.336 96.251 96.801 97.386 97.863 98.113 97.853 97.281 96.718 95.096 95.443 94.856 90.986 94.701 96.471 95.221 91.086 87.308 86.813 86.923 87.163 87.256 87.346 87.428 87.483 87.763 87.796 87.398 87.898 87.921 87.763 87.733 87.806 87.891 87.911 87.956 87.998 88.008 88.066 89.166 96.546 101.128 101.073 101.008 100.733 99.163 96.441 88.818 88.603 88.628 88.678 91.541 93.468 92.888 91.888 93.418 93.308 89.151 89.101 89.076 89.033 89.056 89.076 92.198 95.876 96.408 96.093 95.746 94.683 92.246 90.136 90.081 89.731 89.666 89.713 89.688 89.626 89.616 91.231 91.653 92.018 92.928 90.128 89.758 89.713 89.721 89.786 89.853 89.878 89.913 89.951 89.961 89.996 90.053 90.058 90.083 90.108 90.136 90.198 90.211 90.183 90.206 90.251 90.251 90.286 90.323 90.316 90.396 90.681 90.258 90.828 90.873 90.418 90.141 90.096 90.106 90.098 90.041 90.041 90.046 90.033 90.006 90.003 90.026 90.078 90.003 89.983 89.946 89.923 89.858 89.843 91.193 90.556 89.851 89.821 89.811 89.793 89.773 89.731 89.718 89.691 89.686 89.676 89.651 89.686 89.626 89.643 89.631 89.598 89.566 89.561 89.553 89.538 89.478 89.446 89.438 89.431 89.411 89.403 89.383 89.388 89.356 89.34 89.306 89.263 89.278 89.268 89.238 89.226 89.198 89.211 89.258 89.288 89.328 89.331 89.203 89.103 89.053 89.043 89.111 89.841 89.448 88.843 90.318 90.328 90.116 88.988 89.431 88.773 87.943 87.423 87.313 87.233 87.156 86.991 86.831 86.768 87.696 87.471 86.723 86.805 86.67 86.745 86.813 86.865
78.394 78.749 79.359 78.624 79.166 78.601 78.581 78.541 79.201 79.264 79.514 79.684 85.856 87.206 87.634 87.544 86.249 83.051 80.019 80.314 80.509 80.589 85.651 90.761 94.479 93.466 89.731 82.586 81.094 80.964 81.091 81.186 81.364 82.541 88.789 89.346 90.431 89.944 88.949 89.479 85.589 82.046 82.134 83.571 83.164 82.314 82.419 82.474 82.456 82.409 82.511 83.034 83.056 83.199 83.134 84.836 87.394 88.509 88.694 88.699 88.836 88.836 86.019 83.051 82.856 82.866 82.951 83.014 83.289 87.149 86.451 85.454 82.454 82.284 82.581 82.514 82.899 82.819 82.551 82.496 82.326 82.876 82.519 82.319 82.306 82.316 82.324 82.299 82.336 82.356 82.339 82.444 82.324 82.279 82.241 82.301 85.266 86.516 86.196 84.699 81.866 81.836 81.821 82.959 81.999 81.171 82.554 85.744 86.399 86.904 87.124 87.314 86.751 86.036 85.599 84.649 83.486 82.086 80.456 80.424 80.469 80.413 80.526 80.363 80.368 80.106 80.056 80.206 80.001 79.966 79.923 79.878 79.826 79.901 79.883 80.431 80.531 79.736 79.716 80.211 80.436 79.828 80.036 79.888 79.731 79.911 79.868 81.146 80.171 79.861 80.041 80.128 80.278 80.266 80.328 80.516 80.843 81.058 81.636 82.373 83.481 84.986 83.143 84.576 86.306 87.068 87.116 87.426 87.628 87.848 88.048 87.311 81.641 81.756 81.493 81.511 83.971 84.228 83.273 83.551 82.286 81.676 81.618 81.723 82.841 82.003 82.786 82.253 82.066 82.078 81.998 82.601 85.196 88.021 89.426 89.918 88.983 86.311 83.103 86.096 84.241 82.351 82.376 82.416 82.401 82.488 84.511 85.621 85.768 86.471 85.586 83.776 87.746 85.076 86.151 87.303 84.373 84.261 84.401 84.586 84.681 86.763 89.241 93.851 95.268 95.803 96.393 96.931 97.523 97.976 98.063 98.128 98.506 97.536 97.391 97.241 97.163 99.446 97.596 94.548 86.891 87.001 87.103 87.258 87.351 87.361 87.376 87.706 87.288 87.386 87.478 87.561 87.596 87.681 87.813 88.003 88.098 88.513 88.858 87.958 88.001 88.786 98.693 99.766 100.396 101.273 100.188 98.598 93.721 88.546 88.523 88.531 88.693 92.908 91.668 92.863 92.766 90.511 89.481 89.411 91.381 90.446 89.833 89.001 89.058 90.018 92.113 95.671 96.563 96.228 95.476 93.346 90.776 89.486 89.783 89.638 89.636 89.568 89.538 89.543 91.746 92.831 91.391 90.413 89.603 89.541 89.576 89.638 89.676 91.526 91.641 89.833 89.886 89.978 90.006 90.011 90.046 90.061 90.068 90.111 90.641 92.368 90.356 90.218 90.248 90.238 90.261 90.288 90.258 90.271 90.271 90.201 90.231 90.196 90.176 90.133 90.138 90.088 90.096 90.058 90.038 90.098 90.826 91.063 89.983 89.946 89.931 89.931 89.906 89.873 89.863 89.808 89.803 89.786 89.813 89.786 89.788 89.761 89.733 89.886 90.481 90.168 89.883 90.323 89.991 89.641 89.631 89.613 89.596 89.611 89.613 89.886 89.718 89.543 89.836 89.678 89.483 89.426 89.433 89.436 89.406 89.401 89.381 89.361 89.323 89.381 89.333 89.301 89.293 89.253 89.233 89.248 89.268 89.283 89.941 90.771 89.311 89.101 88.981 88.956 88.971 89.073 89.023 89.068 88.863 90.693 90.893 90.728 89.893 89.273 88.683 88.553 88.383 88.123 88.193 87.946 88.311 88.061 88.151 88.616 88.301 86.655 87.39 86.733 86.708 86.773 86.835
78.916 79.179 78.974 78.461 78.484 78.554 78.506 78.514 78.629 79.179 79.504 79.489 84.636 84.874 84.981 86.206 86.151 83.489 80.101 80.256 80.334 80.336 80.894 84.144 88.306 88.351 85.684 82.081 82.596 81.069 81.259 82.036 81.476 82.346 87.586 89.469 91.421 90.141 88.949 89.086 85.381 82.189 82.759 84.649 85.724 82.296 82.364 82.401 82.396 82.359 82.451 82.726 82.829 83.266 82.841 83.809 84.219 85.124 86.291 86.029 85.669 86.599 85.561 83.084 82.826 82.861 82.926 82.974 83.214 84.199 84.816 83.074 82.126 82.339 82.436 82.299 83.341 82.999 83.161 82.809 82.384 83.369 82.414 82.329 82.319 82.374 82.411 82.309 82.314 82.336 82.341 82.381 82.341 82.356 82.684 82.464 82.766 84.176 85.544 83.956 82.716 81.874 81.744 82.669 81.494 81.151 81.151 80.999 81.196 82.279 84.259 86.179 87.431 87.119 86.954 86.751 86.504 84.339 80.089 80.096 80.211 80.293 80.336 80.326 80.278 80.213 80.301 81.053 80.488 80.011 80.233 80.503 79.928 79.893 79.843 79.828 79.838 79.806 79.806 79.783 80.091 79.961 80.343 80.128 80.526 80.313 79.668 79.928 79.721 79.686 79.693 79.971 79.998 79.966 79.976 80.601 80.466 80.646 81.251 80.891 81.118 81.413 81.581 81.423 81.788 83.416 83.923 83.113 84.133 83.616 83.191 82.411 81.301 81.336 82.083 82.031 82.178 83.776 83.333 82.388 81.683 81.516 81.606 81.898 82.318 81.961 82.471 82.058 82.218 82.086 82.226 85.173 87.031 88.516 89.236 88.726 87.763 83.513 82.121 82.321 83.296 83.206 82.301 82.326 82.406 82.406 84.446 85.573 85.006 85.316 87.283 89.356 89.601 86.633 85.728 84.206 84.456 84.563 84.316 85.591 85.666 86.533 84.706 85.936 87.728 87.843 91.968 94.046 95.948 96.526 97.096 98.958 99.533 99.333 98.971 98.438 99.056 99.018 96.583 96.303 91.421 88.563 87.121 87.231 87.338 87.313 87.353 87.978 87.253 87.356 87.468 87.533 87.806 87.963 88.126 88.636 87.996 88.711 88.306 87.948 88.001 88.041 97.768 98.793 100.318 101.141 99.663 98.063 88.681 88.451 88.453 88.546 88.736 90.901 90.073 93.253 92.208 89.006 89.651 88.591 88.753 90.011 90.181 89.788 89.253 89.388 89.768 95.621 96.851 96.838 96.313 95.726 91.638 89.223 89.976 90.096 89.498 89.463 89.421 89.468 90.581 92.408 92.128 90.216 89.421 89.486 89.508 89.541 90.981 92.526 90.498 89.851 89.918 89.996 90.053 90.051 90.108 90.118 90.166 90.168 91.311 92.736 90.328 90.271 90.293 90.268 90.313 90.306 90.306 90.333 90.331 90.648 90.326 90.236 90.201 90.161 90.138 90.116 90.098 90.101 90.118 90.113 90.098 90.236 90.008 89.978 89.946 89.926 89.891 89.903 89.913 89.876 89.846 89.811 89.821 89.793 89.761 89.761 89.738 89.848 90.068 90.036 89.803 90.056 90.003 89.646 89.616 89.603 89.573 89.588 89.633 90.071 92.048 89.621 90.076 90.068 89.433 89.363 89.371 89.366 89.358 89.358 89.371 89.336 89.303 89.308 89.311 89.241 89.278 89.248 89.228 89.288 89.396 90.138 90.413 89.491 89.486 89.026 88.861 88.853 88.856 88.901 89.961 89.493 88.676 91.276 91.271 92.336 92.793 90.866 87.976 88.433 88.321 87.371 88.033 87.938 88.223 88.598 89.096 88.181 88.608 87.773 87.12 86.623 86.67 86.743 86.8
78.354 78.841 78.741 78.406 78.386 78.474 78.419 78.456 78.941 79.441 79.744 79.394 79.614 79.626 80.941 81.989 82.561 80.174 80.049 80.291 80.276 80.299 80.336 80.356 80.714 83.564 82.824 82.089 82.184 82.389 82.861 83.646 84.156 84.769 87.721 90.311 91.441 89.879 87.236 84.329 82.231 81.999 82.511 83.034 83.626 82.861 82.386 82.341 82.329 82.321 82.641 82.879 83.094 82.851 82.629 82.631 82.699 82.746 82.871 83.616 83.286 83.439 83.174 83.236 83.506 83.276 82.954 83.076 84.466 84.584 83.789 83.139 84.891 83.706 82.391 81.916 82.079 82.151 82.339 82.594 82.969 82.566 82.351 82.334 82.319 83.336 82.639 82.334 82.314 82.336 82.331 86.524 83.749 84.836 84.394 83.256 82.524 82.591 83.279 84.559 83.924 81.784 81.714 82.551 81.389 81.166 81.339 80.796 81.504 81.669 83.274 85.109 88.001 87.986 87.769 87.634 87.581 84.839 80.176 79.926 79.959 80.043 80.126 80.298 80.363 80.311 80.241 80.248 80.218 81.318 80.671 81.231 80.226 80.008 81.041 80.358 79.926 79.948 79.831 79.783 79.761 79.738 79.676 79.696 79.706 79.728 79.653 79.663 80.151 80.336 79.763 80.221 80.013 79.736 79.803 79.906 79.973 80.036 80.143 80.253 80.521 80.658 80.831 80.806 80.958 81.221 82.818 81.731 81.063 80.996 81.311 81.393 81.181 81.693 81.566 81.298 81.328 81.371 81.388 81.543 81.413 81.448 81.623 82.246 81.721 81.938 81.811 81.803 81.838 82.371 83.066 86.643 88.146 89.088 88.841 87.871 84.751 82.786 82.416 82.038 82.016 82.486 83.133 83.088 82.281 82.403 83.678 84.451 83.573 85.908 89.821 89.996 89.206 87.596 87.178 86.503 84.728 84.076 87.146 88.008 89.261 86.581 85.376 84.788 84.898 85.028 85.486 87.906 91.558 94.608 95.523 97.826 98.071 98.646 99.191 99.471 99.511 98.956 98.238 97.633 96.166 94.926 88.486 87.173 87.273 87.286 87.521 87.341 87.666 87.748 87.871 87.966 88.276 87.638 88.628 88.483 87.861 88.041 87.938 87.868 87.956 88.056 97.213 99.276 100.846 100.703 99.123 97.073 88.966 88.396 88.381 88.611 88.856 88.933 90.393 90.313 92.621 90.498 89.073 88.488 88.521 88.593 88.751 89.098 89.811 89.798 93.006 96.048 97.418 98.006 96.898 95.621 89.686 89.226 89.318 89.816 89.441 89.371 89.356 89.378 89.943 90.226 89.701 89.333 89.373 89.386 89.463 89.578 89.991 92.588 90.676 89.753 89.771 90.061 90.138 89.938 90.156 90.293 90.841 90.303 91.751 92.303 91.091 90.206 90.308 90.433 90.823 91.693 90.263 90.243 90.273 90.251 91.578 90.791 90.276 90.113 90.118 90.226 90.193 90.691 90.133 90.128 91.053 90.761 90.341 90.001 90.466 90.223 90.168 90.608 90.493 90.383 90.276 90.296 90.411 89.901 89.916 90.081 89.783 89.841 89.793 89.893 89.883 89.801 89.738 89.668 89.673 89.708 89.621 90.141 89.871 89.771 89.706 89.658 89.571 89.483 89.463 89.441 89.456 89.633 89.473 89.526 89.401 89.373 89.343 89.293 89.226 89.226 89.218 89.241 89.188 89.203 89.241 89.388 89.223 89.146 89.701 89.063 88.753 88.716 88.838 88.861 88.948 88.563 90.683 94.486 95.898 95.666 94.671 89.158 87.936 88.733 87.316 87.166 86.913 86.758 86.978 86.626 87.368 87.541 87.863 88.12 87.158 87.65 88.003 88.125 87.953
78.281 78.856 78.734 78.989 78.466 78.444 79.014 78.419 79.019 80.016 80.174 79.761 80.261 80.376 81.784 81.984 81.766 80.374 80.444 80.531 81.041 80.254 80.526 80.346 80.681 83.351 82.194 80.491 80.604 80.636 80.911 81.349 81.984 83.479 87.821 89.936 91.329 89.654 87.121 82.944 82.196 82.371 82.969 83.119 82.969 82.174 82.411 83.304 82.666 82.306 82.611 83.374 83.564 85.084 84.716 85.061 84.441 83.519 83.581 83.556 82.996 84.734 84.999 84.994 85.029 84.896 84.101 83.561 83.946 82.614 81.906 84.166 86.194 85.966 84.884 82.946 81.914 81.881 82.049 82.231 82.339 82.364 82.744 82.734 82.469 83.019 82.319 82.334 82.331 82.484 84.579 86.744 83.396 85.114 85.729 83.281 82.361 82.149 82.299 83.201 82.791 83.574 81.879 82.216 81.359 81.536 81.849 80.699 81.911 80.726 82.259 84.276 87.966 87.946 87.331 86.854 87.084 85.681 84.686 83.784 82.184 81.431 80.803 80.106 80.071 80.341 80.041 80.188 80.373 81.023 81.603 82.043 80.128 80.071 80.061 80.003 80.036 80.658 80.276 80.068 80.916 80.336 80.063 80.103 79.783 79.691 79.703 79.691 79.688 79.671 79.676 79.871 79.911 79.728 79.813 80.578 80.446 80.188 80.621 80.368 80.146 80.171 80.281 80.316 80.413 80.523 80.718 81.156 80.886 80.901 81.191 81.136 82.003 81.286 81.108 81.143 81.198 81.233 81.258 81.293 81.353 81.426 82.048 81.983 81.736 81.768 81.748 81.753 82.218 81.976 83.681 87.781 88.766 89.423 88.536 85.951 82.091 81.718 82.123 82.788 82.448 81.816 82.456 83.931 84.701 84.271 83.923 83.406 86.141 88.556 89.418 90.813 86.801 86.948 87.663 87.471 86.046 86.371 87.736 91.036 91.488 90.196 84.676 86.086 84.823 84.983 85.058 85.163 85.956 85.598 89.376 94.078 95.156 97.066 97.641 98.211 98.836 99.316 99.463 99.026 97.751 95.611 87.211 87.126 87.183 87.196 87.163 87.058 88.196 88.151 87.711 88.273 88.886 87.838 88.878 88.943 89.208 87.936 87.848 87.826 87.971 89.251 98.066 99.793 101.166 100.153 98.548 93.816 88.338 88.348 88.313 88.403 88.706 89.851 89.156 89.586 91.723 90.281 89.023 88.418 88.498 88.546 88.593 88.573 88.583 88.518 94.586 97.851 98.241 98.298 96.711 93.386 89.081 89.133 89.503 90.266 89.426 89.538 89.253 89.223 89.286 89.253 89.238 89.233 89.286 89.403 89.481 89.958 90.136 89.768 90.603 89.648 89.671 89.986 90.101 89.803 90.591 89.948 91.161 90.408 91.076 90.863 90.863 90.288 90.013 90.451 90.768 90.791 90.181 91.336 90.458 90.003 91.181 90.528 90.663 89.946 90.658 90.331 90.293 90.888 90.346 89.938 90.451 89.888 90.098 90.376 90.946 90.106 90.256 89.921 89.836 89.998 90.011 89.676 89.678 90.301 90.166 89.898 89.611 89.641 89.568 89.596 89.696 89.558 89.533 89.503 89.496 89.943 89.876 89.548 89.703 89.801 89.758 89.486 89.498 89.553 89.633 89.371 89.388 90.348 89.518 89.471 89.543 89.561 89.641 89.386 90.661 89.281 89.148 89.156 89.123 89.073 89.066 89.413 89.421 89.148 88.961 88.781 88.663 88.623 88.783 88.958 88.743 88.526 91.673 95.183 96.213 96.318 94.913 90.726 87.956 89.838 88.058 87.071 86.888 86.736 86.931 87.023 87.008 87.031 87.701 88.073 86.945 86.483 86.875 86.703 86.668
78.124 79.016 78.641 79.191 78.506 78.309 79.451 78.451 79.071 79.631 79.694 79.791 79.496 80.344 81.999 82.034 81.044 81.186 81.679 81.724 82.289 82.206 82.274 82.211 81.606 83.339 80.701 80.454 80.516 80.601 80.764 81.221 81.754 85.254 88.036 90.191 91.306 89.421 88.034 86.784 82.616 81.856 82.046 82.284 82.249 82.201 82.239 82.264 82.276 83.049 83.569 84.216 84.009 86.326 88.509 88.429 87.951 87.714 86.931 86.111 84.416 84.746 84.394 85.009 85.419 85.679 88.506 86.491 82.846 81.731 82.109 85.299 86.881 86.939 86.591 85.166 84.006 82.164 82.751 84.266 82.854 81.911 82.384 82.639 82.639 82.651 82.426 82.331 82.326 83.874 86.136 85.401 84.609 85.974 84.811 82.984 82.179 81.989 81.864 82.109 83.049 82.416 82.379 81.969 81.191 81.739 81.984 80.861 81.664 80.461 80.321 80.774 81.331 82.496 83.809 84.906 86.019 86.624 86.399 86.174 85.961 85.761 85.263 84.258 84.016 82.971 82.163 80.696 80.293 80.691 82.481 82.358 81.268 80.093 80.088 80.038 80.298 79.996 79.983 79.923 79.946 79.938 80.228 80.361 80.101 80.726 80.406 80.043 80.273 79.818 79.706 79.731 79.773 79.793 79.811 79.858 79.886 79.921 80.366 80.276 80.513 81.073 80.253 80.341 80.916 80.728 80.471 80.581 80.596 80.776 81.011 80.986 81.201 80.978 80.981 81.006 81.131 81.121 81.168 81.198 81.263 81.653 81.601 81.566 81.668 81.713 81.721 81.693 82.461 84.383 86.928 88.418 89.311 89.456 87.598 82.071 81.576 81.616 81.591 81.621 82.191 82.473 82.068 83.401 84.116 85.121 87.646 87.496 87.853 86.608 87.303 90.043 87.933 83.298 87.691 88.456 87.608 88.628 90.868 97.353 90.976 88.866 85.393 86.151 84.846 84.928 85.023 85.086 85.253 85.371 85.458 85.778 88.088 93.716 91.996 95.186 97.186 97.798 98.361 98.541 97.221 92.191 87.108 87.141 87.138 87.001 86.993 87.043 87.731 87.483 87.441 87.533 87.593 87.686 87.761 89.533 91.018 87.851 87.771 87.798 87.928 92.106 98.731 100.316 101.263 99.706 97.416 88.301 88.286 88.263 88.301 88.388 88.438 88.696 89.261 89.121 90.096 90.361 88.693 88.363 88.413 88.493 88.518 89.156 92.523 92.488 96.523 98.033 98.236 97.308 96.051 91.921 89.371 89.168 89.113 89.888 89.236 90.066 89.186 89.138 89.188 89.168 89.156 89.208 89.323 89.423 89.503 89.913 89.651 89.953 89.471 89.476 89.491 89.596 89.666 89.636 89.996 90.258 90.461 89.961 90.061 90.663 90.581 90.438 89.986 89.868 90.021 90.891 89.888 90.036 90.751 90.211 91.341 91.071 90.396 89.728 90.148 89.948 89.893 89.723 89.901 89.816 90.426 89.666 89.913 89.701 90.221 89.893 89.681 89.748 89.543 89.478 89.543 89.456 89.513 90.088 89.883 89.533 89.358 89.478 89.388 89.373 89.361 89.318 89.286 89.258 89.236 89.568 89.948 89.238 89.336 89.291 89.418 89.298 89.218 89.961 89.406 89.116 89.126 89.551 89.046 89.053 89.046 89.081 89.158 89.793 89.866 89.356 89.173 89.103 89.023 88.966 88.891 89.053 89.038 88.903 88.858 88.706 88.583 88.556 88.668 89.033 89.258 89.261 92.336 95.216 96.591 96.733 94.943 90.206 88.786 88.961 87.763 87.358 88.176 87.981 87.081 87.438 87.301 87.226 88.883 88.198 86.233 86.258 86.563 86.745 86.625
78.041 78.724 78.484 78.406 78.251 78.249 78.404 78.441 79.339 78.846 79.869 84.394 83.904 82.566 82.664 83.531 79.896 79.764 79.881 80.371 80.006 80.734 81.379 83.829 83.821 84.116 81.556 80.521 80.459 80.549 80.731 81.294 82.044 87.284 89.091 89.851 90.219 89.446 89.296 89.319 82.354 81.854 82.534 82.184 83.104 82.684 82.181 82.231 82.121 84.899 86.679 88.574 83.759 87.174 89.614 90.111 89.916 90.039 89.294 86.699 82.886 82.566 82.474 83.736 84.609 86.744 92.254 91.859 84.791 84.449 84.289 85.931 87.734 88.294 87.626 86.591 85.119 82.436 83.771 85.929 85.554 84.374 82.371 82.519 82.244 82.244 82.411 82.256 82.311 83.371 85.039 87.434 85.361 85.871 84.729 82.689 81.979 81.841 81.706 81.626 81.666 82.946 86.254 82.706 81.006 81.241 81.326 81.221 80.816 80.249 80.296 80.436 80.026 80.276 80.389 81.089 83.954 87.216 87.224 87.221 87.116 86.851 86.453 86.051 86.218 86.013 85.771 85.448 81.978 80.271 81.403 80.276 80.531 79.991 79.991 81.221 80.961 80.156 80.013 79.926 79.928 79.923 79.866 79.853 79.816 79.798 79.771 79.706 79.873 79.803 79.661 79.723 79.731 79.768 80.133 80.388 79.978 79.906 79.983 80.038 80.111 80.138 80.193 80.326 80.793 80.546 80.756 81.301 80.903 81.463 81.191 80.821 80.893 80.931 80.916 80.883 80.988 81.023 81.076 81.141 81.581 82.558 81.491 81.516 81.536 81.558 81.493 81.436 82.068 85.713 88.021 88.991 89.376 88.798 85.123 81.538 81.558 82.271 81.616 81.486 82.113 81.561 83.418 83.896 83.191 87.781 87.223 89.721 88.723 83.868 88.028 91.468 88.003 84.316 83.928 87.408 88.003 92.203 94.996 99.326 92.931 87.251 85.528 86.333 85.006 84.981 85.028 85.118 85.296 85.423 85.548 85.811 86.176 86.441 86.956 89.611 91.611 95.573 96.796 97.353 97.013 89.048 87.101 87.131 86.963 86.996 87.036 87.096 87.123 87.266 87.351 87.413 87.553 88.403 89.468 89.581 87.773 87.741 87.711 87.811 88.983 94.303 99.263 100.843 100.721 99.261 95.493 88.236 88.233 88.176 88.188 88.246 88.241 88.816 91.008 91.191 89.886 90.208 88.903 88.956 88.718 88.496 88.461 90.426 95.093 96.083 96.946 97.876 97.741 96.908 95.351 89.421 89.011 89.491 89.671 90.116 89.148 89.613 89.266 89.078 89.101 89.041 89.128 89.216 89.553 89.913 89.468 89.373 89.411 89.831 89.493 89.566 90.431 91.721 93.756 93.856 91.666 91.911 92.233 92.681 93.668 94.221 91.908 94.443 92.316 91.618 91.391 92.553 92.336 92.031 95.478 95.553 95.466 95.391 92.076 92.658 92.103 92.743 93.371 92.981 92.971 93.166 93.226 92.461 91.748 92.841 92.768 91.146 90.513 90.518 93.536 94.763 92.778 92.873 92.081 90.306 90.581 90.403 90.481 90.118 89.638 90.278 89.678 89.976 89.391 89.356 89.246 89.756 89.498 89.088 92.336 92.398 91.451 90.628 89.006 90.141 90.223 90.613 89.188 90.598 92.543 91.128 88.883 88.903 88.938 89.038 89.465 89.248 89.153 89.073 89.021 88.858 88.788 88.721 88.758 88.818 88.773 88.571 88.493 88.458 88.601 89.071 89.251 88.403 92.206 95.413 96.268 96.468 94.978 90.863 88.506 88.031 87.506 87.256 86.958 87.033 86.641 86.491 87.516 87.053 90.843 88.62 86.193 86.175 86.293 86.47 86.525
78.191 78.111 78.089 78.076 78.159 78.416 78.799 78.466 78.624 78.831 80.914 85.504 86.084 85.896 85.691 85.071 80.131 79.684 79.761 79.831 79.889 79.934 79.966 80.126 82.846 83.949 83.204 81.356 80.874 81.046 80.714 81.291 81.504 84.111 85.451 86.326 87.479 88.151 88.389 87.024 81.719 81.804 82.589 82.161 82.229 82.301 82.151 82.216 82.884 83.434 87.399 85.469 85.649 87.574 89.266 89.676 90.599 90.234 89.269 86.671 82.376 82.326 82.236 82.189 84.919 90.149 89.484 87.956 84.264 85.529 85.546 86.706 88.424 89.396 87.931 86.216 83.964 82.171 85.724 86.809 86.754 85.659 84.384 82.981 82.164 82.044 82.079 82.129 82.176 83.494 84.424 84.529 83.051 84.439 86.994 82.579 81.891 81.746 81.621 81.501 81.416 81.359 83.329 81.821 81.316 82.201 80.521 80.591 81.251 80.149 80.169 80.126 80.074 83.104 80.484 81.836 84.079 86.104 86.341 87.211 87.509 87.511 87.463 87.286 87.281 87.103 86.921 86.166 80.678 79.921 79.911 79.883 79.896 79.891 79.916 81.126 80.606 81.408 79.903 79.851 79.896 79.886 79.873 79.843 79.823 79.796 79.798 79.746 79.741 79.906 79.758 79.711 79.721 79.731 80.083 80.751 80.276 80.186 80.811 80.493 80.096 80.573 80.506 80.253 80.316 80.376 80.421 80.488 80.583 80.621 80.698 80.766 80.813 80.846 80.841 80.811 80.781 80.916 80.996 81.103 81.261 81.326 81.398 81.418 81.383 81.341 81.398 83.021 86.163 87.591 88.631 89.366 89.291 86.558 82.226 81.823 81.293 81.446 81.531 81.841 82.896 83.373 85.588 84.073 84.588 89.101 90.678 86.398 83.073 84.031 86.261 92.261 86.983 83.318 85.238 85.508 87.451 89.693 95.401 95.168 90.853 84.991 89.661 88.113 86.523 84.991 85.098 87.486 85.681 85.481 85.603 85.706 85.993 86.216 86.393 86.526 86.616 88.336 89.388 93.048 96.563 91.896 90.446 91.181 90.806 89.308 87.743 87.161 87.173 87.196 87.253 87.298 87.388 87.488 88.461 88.756 87.663 87.611 87.676 88.356 96.558 98.286 99.811 101.148 100.118 98.511 91.908 88.143 88.098 88.031 88.113 88.216 88.753 89.606 93.543 96.608 93.381 88.648 88.246 89.041 90.556 89.786 90.338 91.286 95.543 96.598 96.763 97.441 97.136 96.196 93.236 88.933 88.978 88.971 88.966 89.413 89.068 89.003 89.006 88.986 88.998 88.983 89.106 89.446 90.668 89.773 89.303 89.303 89.321 89.886 92.268 94.436 95.608 96.041 96.551 95.693 93.118 92.298 92.598 96.138 96.928 97.928 96.708 96.576 96.388 95.006 92.141 92.888 96.168 96.281 96.368 96.961 97.108 96.958 96.223 95.256 93.391 94.556 95.611 96.108 96.531 96.436 96.601 96.511 96.451 95.791 95.608 93.663 95.141 95.116 95.823 95.086 95.946 94.991 94.841 93.771 92.128 94.363 94.413 94.233 95.076 95.133 94.886 95.023 94.108 93.856 94.133 91.301 92.186 93.381 95.461 95.411 95.588 95.491 93.473 93.873 94.396 92.461 91.278 92.516 95.203 95.573 92.121 90.158 88.926 89.118 89.333 89.926 89.036 89.661 89.091 88.893 88.721 88.656 88.611 88.576 88.561 88.451 88.403 88.361 88.493 88.888 89.243 88.286 91.058 94.978 96.008 96.016 94.996 91.586 88.708 87.968 87.736 87.446 87.091 86.903 86.743 86.608 87.728 88.191 90.203 89.1 87.18 86.108 86.17 86.253 86.35
79.094 78.206 77.989 78.011 78.066 78.426 78.916 78.696 78.674 78.721 80.521 85.699 87.184 87.411 86.746 84.364 79.519 79.681 79.689 79.759 79.816 79.866 79.944 80.796 82.719 83.629 83.174 81.644 81.521 82.049 82.571 82.739 82.404 82.216 82.014 81.824 82.554 85.906 86.926 84.189 82.506 83.024 82.224 82.031 82.441 82.149 82.091 82.164 82.936 83.836 84.559 83.929 82.849 82.394 87.106 89.464 90.781 89.914 88.416 84.954 82.354 82.319 82.251 82.186 84.504 90.831 91.031 86.309 82.039 83.849 85.754 87.439 89.034 88.999 87.264 85.536 83.366 84.059 86.839 87.619 87.824 87.281 86.216 85.096 82.209 81.889 81.974 82.014 82.331 83.489 84.314 83.879 83.871 84.334 82.709 83.649 81.716 81.591 81.469 81.351 81.261 81.166 81.156 81.274 81.271 81.996 81.454 81.504 80.789 80.021 80.139 79.824 80.411 81.166 79.601 79.709 80.931 81.116 82.934 85.304 87.236 87.501 87.448 87.428 87.341 86.846 87.063 86.428 80.848 79.761 79.741 79.733 79.996 79.723 79.703 79.761 79.778 80.163 79.786 79.731 79.728 79.756 79.758 79.721 79.721 79.716 79.688 80.263 81.181 80.338 79.746 79.661 79.678 79.758 80.418 81.198 80.536 79.988 79.996 80.171 80.176 80.781 80.586 80.796 81.098 80.486 80.851 80.893 80.573 80.588 80.648 80.666 80.743 80.791 80.776 80.791 80.818 80.883 80.968 81.331 81.813 81.291 81.358 81.321 81.286 81.158 83.473 85.736 87.456 88.436 88.913 89.448 88.391 83.408 81.766 82.213 82.026 81.213 81.193 81.233 83.138 84.918 88.033 88.743 86.961 89.001 87.811 83.633 82.406 83.083 84.808 87.283 83.976 84.596 88.828 87.106 90.071 91.531 92.048 86.268 86.978 86.683 90.801 87.416 86.606 85.101 87.843 87.248 87.798 85.803 85.681 85.796 85.918 86.066 86.241 86.411 86.571 86.603 86.621 90.703 97.463 97.586 96.768 97.486 97.716 97.163 92.231 87.621 87.221 87.243 87.243 87.268 87.308 87.376 87.481 87.513 87.511 87.586 88.631 91.391 98.573 99.208 100.371 101.046 99.553 97.691 89.398 88.003 87.968 87.936 88.146 90.733 90.036 90.316 95.386 100.271 95.941 88.148 88.573 88.181 88.576 88.601 89.643 90.363 91.976 92.461 95.408 96.931 96.516 95.276 91.553 88.848 88.833 88.888 88.891 89.551 89.408 88.911 88.898 88.913 88.888 88.991 89.081 89.353 89.248 89.116 89.213 89.238 91.816 95.521 95.576 96.541 96.876 97.123 97.108 95.928 93.918 92.221 92.296 97.376 98.018 98.221 97.921 97.901 97.163 94.646 91.853 92.386 96.463 97.506 97.633 97.708 97.776 97.716 97.478 95.426 92.723 94.386 95.623 97.208 97.778 98.103 98.593 97.958 97.291 96.253 95.153 92.616 95.883 96.956 96.911 96.548 96.933 96.923 96.523 94.518 92.081 95.001 96.341 96.436 96.416 96.528 96.926 96.391 96.361 96.221 95.426 91.518 92.246 95.756 96.233 96.418 96.611 96.401 96.051 96.013 95.876 93.426 90.523 94.638 96.428 95.981 95.171 94.656 94.178 90.961 90.056 89.106 88.763 89.298 89.353 88.798 88.691 88.548 88.476 88.428 88.386 88.343 88.293 88.251 88.333 88.388 88.378 88.143 89.031 94.491 94.701 94.681 94.571 91.878 89.018 87.566 87.136 86.906 86.798 86.658 86.516 87.871 88.728 88.653 90.756 89.378 87.855 86.533 86.36 88.538 87.225
78.416 78.631 77.916 77.929 78.009 78.486 78.271 78.974 79.156 79.454 80.749 85.844 87.656 87.936 86.341 83.719 79.549 80.124 79.746 79.966 79.991 79.966 80.579 80.184 82.144 83.336 81.154 80.114 80.149 80.274 81.229 80.896 81.614 81.761 82.396 82.941 82.049 82.181 82.109 82.496 82.664 82.731 82.604 82.046 82.641 82.006 82.056 82.131 82.154 82.049 83.399 84.706 83.919 83.751 87.326 89.576 90.846 89.704 87.479 82.494 82.239 82.204 82.156 82.126 88.871 90.959 92.739 88.559 81.824 84.559 86.134 87.254 88.011 88.091 86.524 84.274 83.606 85.129 87.029 88.401 89.276 87.879 86.326 84.269 82.624 82.616 82.106 82.099 83.094 83.711 83.964 83.344 83.421 83.704 83.286 83.094 81.869 81.484 81.366 81.239 81.104 80.961 80.931 82.934 83.566 82.761 83.049 82.546 80.691 79.996 80.319 79.694 79.781 81.966 79.601 79.509 79.829 79.729 79.784 80.089 79.764 82.056 81.571 82.881 85.571 85.626 85.983 84.956 80.218 79.556 79.623 79.661 80.568 79.496 79.466 79.546 79.586 79.606 79.593 79.488 79.578 79.583 79.601 79.596 79.603 79.583 79.581 80.501 80.218 79.426 79.573 79.531 79.538 79.631 80.358 81.331 80.468 80.013 80.051 80.098 80.156 80.171 80.263 80.338 80.536 80.513 80.763 80.736 80.603 81.216 81.473 80.808 81.226 80.821 80.833 80.796 80.833 80.886 80.943 81.776 81.218 81.266 81.248 81.196 81.206 82.551 85.181 87.116 88.041 88.831 88.881 85.696 85.273 81.588 81.563 81.401 81.696 83.276 81.576 84.883 85.246 87.091 88.026 91.821 89.811 87.428 82.943 82.453 82.733 85.748 87.776 88.563 85.466 85.451 90.338 86.776 88.998 90.726 89.143 91.176 86.518 86.233 92.796 91.486 87.543 88.103 94.541 86.951 87.546 85.726 85.738 85.873 85.983 86.096 86.243 86.378 86.503 86.566 86.641 93.711 98.121 97.803 98.593 97.253 99.851 98.096 98.156 93.786 87.648 87.323 87.331 87.316 87.318 87.326 87.393 87.431 87.486 87.566 89.876 95.618 101.048 100.626 100.918 100.613 99.031 95.296 88.073 87.908 87.878 88.443 90.236 90.631 90.518 92.998 96.728 99.051 93.886 88.086 88.138 88.166 88.163 88.178 88.308 92.746 94.926 93.966 93.461 93.893 94.668 92.531 88.933 89.266 88.828 88.801 90.088 89.458 88.933 88.786 88.766 88.796 88.888 88.961 89.018 89.136 89.011 88.951 90.493 93.701 95.798 96.503 97.068 97.233 97.628 97.203 96.823 96.018 94.056 91.306 93.418 97.586 97.976 98.216 98.336 97.761 97.118 94.511 91.838 91.323 96.493 97.541 97.813 98.023 98.203 98.126 97.411 95.678 92.918 95.166 95.576 98.193 98.156 98.383 98.473 98.103 97.876 96.401 95.606 94.498 96.008 97.533 97.781 97.863 97.913 97.768 96.678 94.643 91.671 94.503 96.586 96.903 97.206 97.623 97.633 97.508 96.778 96.663 95.448 91.801 92.916 97.338 97.418 97.536 97.506 97.383 96.561 95.786 95.966 92.951 91.241 95.641 96.861 97.011 96.438 96.016 94.938 93.861 94.611 89.876 88.621 89.253 89.103 89.301 88.588 88.518 88.376 88.323 88.281 88.243 88.201 88.138 88.216 88.278 88.161 87.948 87.906 89.591 90.691 91.596 92.428 90.533 88.611 87.421 87.453 87.406 86.981 87.283 87.213 91.318 91.748 90.218 89.598 88.295 87.128 88.025 87.495 86.933 89.555
77.591 78.379 77.814 77.811 77.899 78.826 78.491 78.879 78.644 78.839 82.159 86.066 87.654 87.579 86.081 81.789 79.864 80.514 80.574 81.041 81.359 80.959 80.641 82.091 83.609 81.739 80.679 80.026 80.081 80.176 80.276 80.354 80.831 81.116 84.641 87.454 86.826 86.304 85.831 82.386 82.224 81.859 82.054 81.886 81.876 81.929 82.014 82.334 82.616 82.046 82.319 82.351 82.344 84.066 87.466 89.729 91.196 90.094 85.779 83.811 84.476 84.156 83.449 83.421 86.886 93.431 93.654 88.324 82.941 84.489 85.079 86.219 86.856 86.769 85.864 83.171 83.226 85.684 86.941 89.026 88.999 87.491 86.146 82.559 83.624 84.224 84.236 83.446 84.461 85.264 83.394 83.744 83.059 82.314 83.609 84.316 82.504 81.409 81.251 81.141 81.336 81.476 80.289 80.016 80.199 82.144 82.816 82.456 80.034 80.224 79.774 79.609 79.646 79.861 79.341 79.381 80.016 79.419 79.481 79.709 79.679 80.306 79.648 79.761 81.241 81.518 82.251 82.771 79.688 79.303 79.301 79.616 81.746 79.901 79.426 79.618 79.338 79.388 79.388 79.356 79.388 79.403 79.443 79.508 79.943 79.503 79.436 79.416 79.391 79.353 79.358 79.423 79.446 79.521 79.533 79.703 79.863 79.983 79.903 80.018 80.081 80.288 80.246 80.323 80.423 80.486 80.488 80.568 80.611 80.628 80.668 81.143 81.826 80.816 81.706 81.178 80.846 81.481 81.473 81.116 81.158 81.128 81.081 81.041 80.991 82.473 86.748 87.718 88.648 88.928 86.983 81.453 80.981 81.318 81.563 81.281 81.171 81.473 82.716 86.436 83.788 87.078 87.981 87.996 87.033 83.058 82.488 82.481 84.803 86.251 87.571 87.506 86.938 83.961 83.696 88.653 90.283 90.821 90.423 90.016 87.628 87.016 90.861 88.336 89.043 90.343 91.836 88.741 86.206 86.046 85.863 85.918 86.043 86.186 86.291 86.388 86.453 86.563 86.803 96.521 98.673 99.956 100.051 99.618 100.151 99.158 97.996 97.243 95.388 91.051 89.138 87.536 88.721 87.901 88.303 87.393 87.508 87.548 89.561 99.031 100.358 100.936 101.261 100.076 98.461 91.123 87.888 87.853 87.791 87.803 89.743 94.866 91.791 92.118 91.191 92.646 89.723 90.013 88.323 88.108 88.126 88.246 88.541 91.911 93.221 94.911 95.071 95.038 94.196 91.303 89.568 90.031 89.028 88.691 88.746 88.741 88.716 88.678 88.701 88.756 88.876 88.931 88.893 89.183 89.856 89.056 89.053 95.458 96.568 97.493 97.701 97.361 96.713 96.161 94.973 92.456 91.791 91.111 93.601 95.963 96.781 97.983 96.396 96.281 96.323 95.626 92.433 91.418 96.168 96.363 96.871 96.831 96.781 97.806 96.391 94.881 93.313 95.158 95.598 98.141 98.101 98.098 97.186 97.098 96.956 95.688 95.576 93.951 96.238 96.558 96.758 96.998 96.953 96.646 96.398 94.596 91.118 94.031 96.293 96.391 96.451 96.518 96.788 96.546 96.446 96.361 95.576 91.893 92.891 95.938 96.583 96.661 97.151 97.221 96.116 95.098 94.483 90.616 93.076 95.206 96.278 97.076 97.101 97.008 96.493 95.988 95.306 91.643 89.428 88.591 88.988 88.778 89.023 88.433 88.316 88.208 88.168 88.121 88.073 88.033 88.116 88.161 88.566 88.608 87.898 88.776 89.963 90.271 90.148 89.143 87.988 87.501 87.263 87.408 86.616 86.291 93.238 98.116 91.261 89.613 90.028 90.178 87.385 86.548 86.228 87.018 85.908
77.741 78.306 77.734 77.774 77.806 78.114 77.979 78.454 78.541 78.716 83.449 86.084 86.751 86.866 85.916 83.076 79.366 79.319 79.361 79.394 79.416 80.054 80.429 82.939 84.066 80.489 80.004 79.979 80.069 80.141 80.231 80.364 80.931 81.129 84.339 88.759 89.666 89.046 87.526 82.941 82.259 82.089 81.854 81.806 81.744 81.884 81.946 82.186 82.099 82.001 82.794 82.326 82.906 86.974 88.274 89.874 90.961 89.741 84.614 82.326 82.591 82.704 82.421 82.741 83.056 86.964 87.811 82.349 84.194 83.236 82.621 84.254 85.414 85.316 84.944 82.469 84.376 86.244 87.594 88.489 88.291 86.599 84.606 82.551 84.219 84.199 84.374 83.374 83.356 83.314 83.004 81.874 81.616 81.544 82.041 83.274 82.816 81.784 81.591 80.986 81.726 81.526 80.069 79.369 79.041 79.664 81.034 82.351 80.676 80.994 80.631 79.539 80.054 79.959 79.261 80.164 79.431 79.216 79.379 79.499 79.411 79.693 79.418 79.446 80.018 80.181 80.743 80.226 80.103 82.321 80.638 80.643 79.691 79.753 80.923 79.483 79.183 79.233 79.546 79.158 79.168 79.216 79.243 79.226 79.393 79.256 79.298 79.323 79.298 79.251 79.443 79.318 79.591 80.141 80.931 80.198 80.698 79.958 80.583 80.776 79.983 80.131 80.083 80.216 80.271 80.338 80.321 80.338 80.438 80.588 80.901 82.448 81.503 80.806 80.861 80.908 80.926 80.998 81.381 81.383 80.983 80.916 80.896 80.846 80.866 85.683 87.353 88.323 88.968 87.931 83.303 81.148 80.936 80.913 80.911 81.538 81.971 81.491 82.988 87.978 90.066 89.623 88.831 86.286 83.208 82.588 82.561 82.553 83.558 85.828 88.658 88.538 84.693 84.933 83.641 84.691 88.246 90.993 88.858 89.523 87.673 86.171 87.451 89.643 89.238 92.453 93.688 88.986 86.446 86.313 86.248 86.216 86.073 86.191 86.303 86.423 86.443 86.711 90.023 97.431 98.241 98.841 99.443 99.938 100.288 99.976 99.396 98.808 97.133 96.653 95.261 93.653 96.143 95.906 94.641 91.913 88.141 87.663 88.938 97.758 99.061 100.433 101.086 99.526 97.956 88.666 87.808 87.753 87.681 89.706 89.133 90.936 92.103 91.801 91.143 88.248 89.083 90.196 89.358 90.008 89.091 88.411 88.613 90.021 92.871 95.143 95.293 96.141 95.216 91.111 89.053 89.813 90.621 89.616 88.633 88.601 88.551 88.601 88.638 88.753 88.833 89.041 88.891 88.688 89.256 90.011 90.363 92.348 95.153 96.886 96.651 96.116 95.398 92.581 89.328 89.303 89.286 89.306 89.673 89.453 90.411 91.826 91.813 92.536 90.241 90.233 89.771 90.043 90.453 89.833 91.033 92.713 92.913 94.221 93.898 93.846 93.118 93.968 93.716 94.721 94.933 94.036 94.546 94.718 94.858 94.221 94.361 92.001 92.841 92.471 93.926 94.368 93.003 94.541 92.608 92.096 89.796 93.238 93.846 94.246 94.471 94.668 94.566 94.521 94.056 93.233 92.961 89.671 92.533 93.923 93.741 95.163 94.241 95.128 95.018 94.116 90.913 88.658 91.636 91.886 94.741 96.446 96.181 97.148 97.308 96.806 96.086 95.348 94.991 91.848 88.196 88.241 88.715 88.446 88.231 88.088 88.051 88.038 87.983 87.941 88.016 88.043 87.916 87.965 87.643 90.526 93.651 94.691 95.441 93.228 87.261 87.153 86.838 86.633 86.278 85.948 87.188 92.273 89.063 87.091 88.693 88.455 87.618 85.868 85.828 85.685 85.733
79.041 78.196 77.631 77.701 77.741 78.819 77.804 78.359 78.479 78.674 83.709 83.801 84.541 85.366 85.384 82.406 79.529 79.266 79.319 79.351 79.371 79.399 79.529 81.229 82.664 80.301 80.281 80.099 81.306 81.159 80.191 80.359 80.994 81.114 86.401 89.321 90.509 89.244 87.869 83.229 81.396 82.111 82.306 81.756 81.809 81.866 81.874 81.856 81.846 81.949 82.439 82.566 82.819 89.091 89.606 90.094 90.679 89.466 86.741 82.254 82.181 82.139 82.101 81.999 81.936 83.379 83.544 81.736 82.796 82.441 81.776 83.696 83.769 84.084 83.586 83.796 85.329 85.894 86.559 87.154 87.181 85.909 83.429 81.664 82.361 83.556 83.671 83.824 85.636 86.419 81.991 81.539 81.506 81.464 81.439 81.566 82.826 84.309 86.299 82.369 80.881 79.676 79.244 79.201 79.164 79.356 79.301 79.449 80.681 80.534 79.924 79.741 81.804 82.851 82.811 80.296 79.204 79.174 79.241 79.151 79.384 79.468 79.241 79.791 79.616 79.618 79.748 80.216 81.406 85.263 85.051 84.866 84.258 83.823 83.536 82.201 81.013 80.398 81.943 81.153 79.536 79.096 79.118 79.076 79.048 79.091 79.173 79.208 79.218 79.391 79.206 79.198 80.243 82.521 85.613 85.163 85.143 84.338 84.101 83.536 81.381 80.866 79.951 79.941 80.226 80.133 80.201 81.413 81.178 80.433 80.503 83.348 80.551 80.501 81.638 80.876 81.058 81.041 81.688 81.091 80.663 80.681 80.688 81.543 83.263 86.601 87.828 88.843 88.993 85.873 80.896 81.793 81.746 80.866 80.751 80.791 81.198 82.013 86.531 86.181 90.658 89.218 89.973 85.143 82.701 82.718 82.653 82.591 84.481 86.806 88.386 87.016 84.333 83.641 83.731 86.178 87.706 86.698 84.808 86.948 87.573 86.428 88.861 89.008 91.551 95.288 91.581 90.353 90.441 88.736 86.618 86.543 86.733 87.778 86.163 86.421 86.531 86.713 87.781 90.913 94.591 97.273 97.868 98.416 99.031 99.576 100.051 100.108 99.816 99.236 98.651 98.088 97.888 98.828 98.946 98.138 93.298 87.756 87.811 96.171 99.366 100.863 100.601 99.006 94.236 87.811 87.733 88.033 89.453 90.796 92.103 91.736 92.533 91.028 92.006 88.121 87.818 87.806 88.311 89.188 90.858 90.993 90.258 88.978 93.573 95.823 96.356 96.121 94.423 89.408 88.828 89.613 89.188 88.721 88.688 88.476 88.476 88.528 88.566 88.696 88.851 89.041 89.568 88.846 91.166 91.168 91.493 90.903 93.048 95.751 93.923 92.043 89.973 89.421 89.268 89.283 89.238 89.643 89.673 89.373 89.393 89.546 91.218 89.478 89.883 89.648 89.806 90.098 89.796 89.811 89.821 90.118 91.351 91.261 91.523 92.661 92.296 91.136 92.503 92.653 92.036 91.823 92.316 92.826 92.891 92.181 92.581 89.573 89.536 89.578 89.928 90.048 89.473 88.993 88.931 88.848 88.706 89.146 92.021 92.001 91.733 91.281 90.406 88.953 88.911 88.928 89.038 88.833 89.081 89.138 89.231 89.656 90.078 92.501 91.806 92.018 90.286 88.946 89.626 91.088 91.866 93.176 94.913 95.866 97.176 97.226 97.131 96.546 95.656 93.811 88.408 88.093 88.151 88.176 88.141 87.996 87.916 87.901 87.863 87.811 87.943 88.178 88.046 87.671 87.688 92.153 94.566 95.948 96.038 95.186 87.658 87.283 86.763 86.578 86.213 85.851 85.746 85.676 85.666 86.506 86.663 86.728 85.98 85.793 85.84 85.668 85.633
79.229 78.741 78.171 77.899 77.631 77.961 77.739 77.946 78.199 78.289 78.406 78.711 80.451 81.164 81.061 81.019 79.141 79.236 79.241 79.306 79.546 79.589 79.441 81.121 83.411 82.966 83.121 82.471 81.064 82.364 81.149 80.361 81.071 82.344 87.781 89.219 90.526 89.141 87.284 82.734 81.126 82.084 82.409 81.774 82.426 81.766 81.824 81.799 81.799 81.924 82.274 82.689 82.461 89.181 89.806 89.989 90.189 89.744 85.954 82.271 82.239 82.169 82.071 81.944 81.921 82.416 82.916 81.744 81.704 81.661 81.971 82.506 83.384 84.204 82.674 82.174 85.146 85.709 85.484 85.844 85.736 85.101 82.134 81.636 81.686 81.754 85.166 86.819 89.869 91.036 87.271 81.501 81.456 81.411 80.914 80.206 79.869 82.636 86.124 83.216 80.701 79.276 79.094 79.801 84.059 83.859 80.439 79.101 79.129 79.944 79.541 80.619 79.671 81.859 84.869 82.059 79.161 79.141 79.331 79.084 79.139 79.121 79.138 80.413 79.446 79.311 79.431 80.696 82.361 86.418 86.186 86.006 85.818 85.623 85.426 85.238 85.056 84.868 84.721 83.923 83.343 82.493 81.121 79.968 79.981 79.096 79.086 79.103 79.123 79.118 78.998 79.093 80.578 82.331 86.746 86.553 86.333 86.151 85.941 85.753 85.558 85.356 84.516 84.708 85.108 84.168 83.421 83.626 83.803 81.226 80.723 80.546 81.706 81.306 80.383 80.401 80.341 80.376 80.346 80.373 80.463 80.541 80.691 82.803 85.846 87.151 88.108 88.488 87.448 82.876 80.993 81.273 81.851 81.456 80.691 80.746 81.013 82.576 86.446 86.968 88.813 87.293 87.506 84.006 82.848 82.793 82.728 82.711 84.938 86.348 91.071 89.123 86.186 83.656 83.748 84.646 90.831 88.756 86.253 86.481 90.291 88.398 92.543 94.861 96.091 95.171 90.961 89.963 91.526 88.693 86.456 86.288 86.938 88.376 87.116 86.448 86.491 86.636 86.833 86.983 88.021 90.283 90.368 94.916 96.231 98.006 98.603 99.133 100.276 100.198 100.061 99.656 99.201 99.811 99.738 98.203 96.728 92.033 91.593 98.331 99.738 100.661 100.073 98.476 92.873 87.711 87.653 87.626 89.993 91.746 90.818 90.233 88.796 91.286 90.806 87.633 87.686 87.748 87.791 87.831 88.003 88.611 89.458 89.488 94.971 96.283 97.018 95.898 95.068 90.308 88.463 88.431 88.696 88.583 88.438 88.361 88.396 88.433 88.491 88.628 88.821 88.603 88.801 89.453 91.351 91.191 91.196 90.613 89.611 91.061 89.321 89.323 89.478 89.088 88.913 88.701 88.886 89.263 89.293 89.331 89.366 89.381 90.688 89.046 89.111 89.058 89.333 89.838 89.398 89.198 89.106 89.833 91.628 89.493 89.348 89.046 89.698 90.721 89.736 89.641 89.493 90.241 90.688 89.526 89.478 90.391 89.708 89.958 88.766 88.556 88.716 88.736 89.361 88.873 88.983 88.861 88.521 88.951 88.931 89.068 89.103 88.928 89.643 88.313 88.543 88.396 88.463 88.926 88.721 88.441 88.381 89.381 90.136 90.756 90.536 89.808 88.786 88.558 88.928 89.308 90.503 91.933 92.286 94.083 96.236 96.461 96.551 96.281 94.581 91.671 90.481 87.958 88.021 88.103 88.141 87.948 87.823 87.768 87.721 87.671 87.838 87.918 87.848 87.863 87.903 93.213 94.633 95.978 96.051 94.693 87.666 87.436 86.783 87.353 87.361 86.781 86.488 85.873 86.648 87.243 87.136 87.25 86.02 89.138 86.115 86.005 86.655
78.041 77.541 77.894 77.486 77.706 78.209 77.809 78.454 78.839 79.581 79.681 79.586 81.184 81.361 81.336 80.516 79.164 79.449 79.236 79.261 79.899 79.691 79.809 82.831 83.936 84.034 84.021 84.196 80.876 81.934 82.749 82.381 83.156 83.991 87.766 89.386 90.429 89.076 86.156 81.711 81.021 81.801 81.806 81.811 82.094 81.746 81.759 81.729 81.794 82.144 82.804 82.614 82.729 85.066 85.911 85.986 86.859 86.766 84.421 82.261 82.244 82.181 82.069 81.946 81.846 82.036 81.756 81.701 81.724 81.939 83.749 81.714 82.016 82.354 83.214 81.894 83.236 85.461 82.784 83.346 86.536 86.601 83.761 81.984 82.034 83.191 86.496 86.961 86.749 89.094 88.961 84.536 81.574 81.029 80.874 80.876 80.226 83.146 85.634 83.264 81.631 79.526 79.109 82.629 86.494 86.721 85.834 83.061 80.979 81.861 81.356 81.261 81.071 83.521 85.121 82.056 80.809 80.181 79.411 79.004 79.016 78.998 79.008 79.461 79.051 79.178 79.331 79.526 83.091 86.281 86.488 86.601 86.613 86.611 86.508 86.391 86.203 86.031 85.856 85.626 85.421 85.213 85.021 84.856 84.668 83.383 82.858 82.171 78.996 78.991 78.943 79.396 80.081 83.578 87.078 87.121 87.193 87.161 87.073 86.888 86.688 86.473 86.303 86.991 86.916 86.678 86.466 86.298 86.116 85.911 85.233 84.423 84.811 84.263 82.321 81.106 81.621 82.206 80.976 80.278 80.283 80.316 80.818 81.678 86.123 87.701 88.448 88.223 84.941 81.908 81.971 81.138 80.788 80.801 80.788 81.438 82.721 82.773 84.398 87.836 88.108 84.343 83.076 82.828 82.878 82.791 82.776 82.791 83.176 89.091 90.961 85.953 85.083 83.686 83.766 85.976 87.221 87.391 86.958 87.821 89.881 89.136 94.111 96.063 95.098 94.631 92.038 91.086 91.196 90.968 89.773 86.501 86.518 86.726 87.301 87.363 86.828 86.531 86.716 86.806 86.931 87.113 87.208 87.248 88.093 94.761 95.356 97.576 98.233 98.758 99.336 99.863 100.168 100.323 99.606 98.941 98.381 97.528 95.233 96.068 98.553 99.111 99.296 97.343 89.158 87.603 87.543 87.476 89.791 93.926 92.696 89.868 90.086 90.973 89.543 87.851 87.621 87.676 87.726 87.763 87.828 88.278 88.748 92.196 96.858 97.288 96.731 96.243 95.668 90.313 88.686 88.296 89.068 90.066 88.366 88.368 88.421 88.356 88.483 88.598 88.623 88.441 88.333 90.053 94.558 93.508 92.541 91.018 88.921 88.958 89.268 88.771 88.703 89.886 88.511 88.451 88.476 88.888 89.091 88.716 88.768 88.946 89.993 88.833 88.731 88.646 88.876 89.183 88.706 88.688 88.666 88.686 89.991 88.681 88.683 88.668 89.661 90.738 89.963 89.506 89.103 89.091 89.686 89.018 89.078 88.958 88.963 89.996 88.428 88.378 88.403 88.798 88.976 88.428 88.323 88.381 88.343 88.513 88.643 88.656 88.771 88.828 88.298 88.066 88.063 88.031 88.646 89.083 88.256 87.913 88.013 88.611 89.983 88.536 88.411 88.376 88.378 87.758 88.033 88.548 88.838 90.291 91.59 91.788 92.601 93.646 95.273 95.461 92.698 91.231 91.691 89.296 87.918 88.596 88.138 87.848 87.741 87.678 87.583 87.576 87.708 88.061 88.523 88.086 87.943 91.393 94.748 96.186 95.856 94.221 89.816 88.333 87.758 87.333 87.153 87.276 87.193 87.148 87.028 87.226 88.443 87.823 86.958 87 86.49 85.888 85.498
78.181 77.544 77.324 77.419 77.646 79.204 80.189 78.574 78.089 78.249 78.186 78.369 80.636 81.054 81.111 80.389 81.176 80.859 80.824 80.711 80.459 79.836 80.991 82.979 83.479 83.359 80.796 81.636 81.014 79.981 80.509 81.794 82.126 82.701 87.626 89.551 90.579 88.704 87.591 83.546 82.936 82.751 81.879 81.861 81.799 81.594 81.654 81.634 81.714 82.214 83.144 82.784 84.159 83.866 83.584 83.339 83.711 83.469 83.079 82.704 82.279 82.414 82.041 82.344 81.869 81.959 81.771 81.689 81.721 83.046 83.074 81.686 81.636 82.466 82.099 81.721 81.799 83.009 83.514 86.241 87.484 88.221 86.154 85.379 85.574 84.314 84.026 81.341 82.509 82.894 84.224 84.539 82.866 81.216 81.061 80.909 81.756 86.386 87.069 86.166 82.899 81.134 79.996 85.204 86.741 87.819 87.416 86.644 85.176 82.924 81.139 81.676 81.119 79.459 81.764 81.081 81.241 80.666 80.211 78.906 79.004 78.881 78.946 79.063 78.968 79.056 79.881 78.881 82.146 85.128 85.316 85.516 85.708 85.898 86.128 86.296 86.508 86.638 86.663 86.658 86.531 86.361 86.171 85.993 85.798 85.568 85.403 84.898 80.858 79.113 78.796 78.826 78.928 83.763 85.948 86.146 86.341 86.533 86.731 86.911 87.086 87.163 87.186 87.731 87.833 87.748 87.578 87.428 87.261 87.046 86.838 86.626 86.476 86.293 86.118 85.941 85.286 84.958 83.748 82.556 81.721 80.531 80.233 80.783 81.473 85.318 88.308 86.191 81.503 80.453 80.718 81.673 81.108 80.833 81.758 82.861 83.056 81.818 86.178 90.776 91.348 84.221 82.818 82.843 82.841 82.783 82.833 82.891 83.228 86.436 89.353 85.546 83.661 83.711 83.766 83.931 85.423 86.598 86.718 86.133 90.406 90.658 91.658 92.008 92.728 92.648 89.231 88.933 91.538 91.571 92.531 91.823 88.191 86.886 87.813 87.628 86.553 86.551 88.306 86.708 86.961 86.926 86.951 87.008 86.998 87.028 87.791 88.798 93.093 96.831 97.756 98.343 98.906 99.501 99.968 100.158 99.698 98.438 96.903 88.938 90.418 94.278 97.388 93.601 87.553 87.508 87.701 89.896 92.061 92.401 90.686 90.588 90.373 89.561 89.426 87.691 87.616 87.628 87.651 87.693 87.783 88.136 90.258 94.783 97.178 97.216 96.361 95.703 94.023 90.806 88.636 89.116 89.993 88.963 88.271 89.063 88.486 88.276 88.413 88.586 88.463 88.418 89.006 92.733 95.358 95.621 95.143 94.016 89.926 89.158 88.448 88.336 88.406 89.011 88.911 88.348 88.346 88.538 88.461 88.401 88.441 91.478 90.958 88.533 88.588 88.588 88.743 89.173 88.591 88.581 88.541 88.553 89.423 88.548 88.541 88.531 89.251 89.238 88.906 88.601 88.533 89.216 89.793 88.488 88.858 88.643 88.958 90.516 88.616 88.436 88.366 88.886 88.263 88.196 88.166 88.181 88.671 88.133 88.468 88.386 88.278 88.238 88.026 87.961 87.911 87.883 89.533 90.623 87.801 87.996 88.263 88.913 91.188 88.721 88.428 88.433 88.418 87.741 87.796 87.731 88.536 89.403 88.488 89.468 91.596 91.801 92.566 93.633 91.128 91.183 91.206 88.773 88.131 88.623 88.428 87.791 87.646 87.521 87.493 87.463 87.616 87.983 88.356 87.605 87.756 92.118 94.513 95.748 95.501 94.058 91.126 88.401 87.321 86.026 85.928 85.868 85.778 85.803 85.648 86.646 88.878 87.848 85.775 85.535 85.218 85.865 85.465
77.791 77.364 77.206 77.336 77.421 78.254 81.621 80.881 77.966 78.021 82.196 82.201 82.369 82.279 81.314 78.699 78.584 80.406 79.424 79.281 80.126 81.114 82.296 83.036 82.616 80.491 79.861 79.626 79.679 79.809 80.026 79.941 80.946 81.876 87.781 89.776 90.179 88.854 87.074 82.526 81.421 82.249 81.509 81.939 81.979 81.584 81.604 81.539 81.614 82.031 82.529 82.054 85.666 87.899 87.394 86.791 87.204 86.524 84.064 82.951 82.806 83.621 83.821 83.701 82.079 83.931 81.986 81.709 81.701 83.304 81.746 81.671 83.064 82.276 81.989 82.869 82.994 88.299 82.799 86.446 91.966 87.689 88.244 89.241 85.099 82.211 84.321 82.651 81.186 81.126 81.569 82.336 83.699 82.429 82.129 80.411 85.666 87.834 88.154 87.054 85.566 82.721 81.469 81.319 83.869 86.129 87.154 87.471 86.244 83.134 81.636 81.596 81.776 80.606 79.164 79.996 80.571 80.511 79.906 78.899 79.564 78.938 78.846 78.888 78.888 78.911 80.488 78.861 78.938 80.783 80.468 81.743 82.733 83.753 84.976 85.158 85.368 85.566 85.756 85.936 86.121 86.318 86.483 86.578 86.631 86.548 86.528 86.176 81.171 78.733 78.688 78.703 78.803 81.181 81.696 82.213 82.731 84.718 85.198 85.778 85.971 86.173 86.401 86.818 87.001 87.173 87.391 87.611 87.708 87.748 87.761 87.701 87.596 87.431 87.256 87.031 86.826 86.661 86.471 86.276 86.071 85.393 83.053 80.681 80.773 82.231 82.876 81.938 80.911 80.436 80.458 80.516 81.103 82.108 82.856 82.551 81.471 81.588 85.926 91.651 92.798 85.018 82.801 82.853 82.841 82.831 82.921 83.016 83.428 86.381 88.931 84.046 83.668 83.713 83.756 85.561 86.621 85.516 86.488 86.898 87.978 87.001 85.531 85.096 86.568 87.698 86.313 86.781 89.516 90.101 89.008 93.261 94.231 90.123 88.111 87.371 86.906 86.478 86.591 86.721 86.763 86.863 86.988 86.871 86.936 86.993 87.011 86.986 87.048 88.183 93.576 94.338 96.711 97.918 98.503 99.058 99.238 97.876 94.668 87.603 87.531 87.466 88.303 88.633 87.383 87.386 89.796 88.793 90.011 94.123 92.098 92.673 91.676 88.206 87.613 87.753 88.568 87.943 87.606 87.618 87.711 89.853 91.368 96.158 97.173 96.978 95.738 95.281 91.806 88.138 88.156 88.621 88.848 88.403 88.166 88.421 88.138 88.231 88.333 88.486 88.258 88.746 89.496 94.221 95.761 96.486 95.321 92.418 88.963 89.671 89.003 88.238 88.238 88.493 88.991 88.238 88.306 88.761 89.338 88.531 88.331 93.911 93.666 88.726 88.426 88.493 88.713 89.531 88.481 88.438 88.448 88.538 89.266 88.418 88.438 88.406 89.083 88.738 88.461 88.473 88.493 88.876 89.803 88.336 88.201 88.168 88.418 91.778 88.763 88.283 88.531 89.726 89.178 88.703 88.038 88.221 89.893 88.201 87.928 87.908 87.876 87.866 88.991 88.388 87.796 87.773 89.313 90.468 88.721 87.713 87.806 89.326 88.371 87.673 87.713 87.618 87.953 87.646 87.628 87.641 89.301 88.626 88.193 88.438 88.568 89.743 91.851 90.573 91.026 90.821 91.066 90.146 87.618 87.958 88.496 87.968 87.563 87.431 87.355 87.381 87.503 87.521 87.541 87.603 87.746 91.933 94.548 95.593 95.111 93.196 90.573 88.673 87.418 86.003 85.913 85.84 85.843 86.101 85.701 85.513 87.426 88.088 86.805 85.128 85.703 85.86 85.523
77.989 77.131 77.131 77.226 77.726 77.686 79.451 79.581 77.994 80.454 84.504 84.866 84.676 84.481 83.919 81.236 79.146 78.549 78.826 78.841 78.866 79.711 83.131 83.006 80.966 80.291 79.444 79.559 79.619 79.721 80.516 80.469 80.731 81.956 88.131 90.051 90.084 88.129 85.099 82.196 82.344 82.976 81.369 81.301 81.384 81.539 81.501 81.469 81.586 82.631 82.531 82.201 85.889 89.131 89.264 89.296 89.281 88.364 83.531 82.029 81.869 81.864 82.429 82.024 83.544 83.614 82.124 81.709 82.084 83.609 81.686 81.911 84.486 82.894 85.911 84.446 84.809 89.484 81.814 83.204 86.566 89.336 86.409 90.179 84.986 86.431 83.341 85.574 81.086 81.031 80.974 80.936 81.311 82.509 81.174 83.386 86.199 87.541 87.639 86.781 86.796 83.224 80.516 79.654 80.614 82.829 84.564 86.194 84.821 81.814 81.551 83.331 84.426 82.801 81.536 79.661 79.719 79.984 79.379 78.801 79.669 79.086 79.003 78.876 78.801 78.898 81.188 78.758 78.798 78.783 78.738 78.741 78.756 78.933 79.123 80.036 81.503 82.223 82.526 84.026 84.993 85.188 85.338 85.513 85.751 85.938 86.136 84.031 80.081 78.658 78.586 78.591 78.821 79.391 78.768 78.836 78.986 79.323 80.701 81.096 82.463 84.106 83.986 83.111 84.866 86.058 86.273 86.461 86.646 86.826 87.008 87.208 87.401 87.573 87.688 87.741 87.773 87.743 87.598 87.418 87.206 87.041 83.778 81.613 80.086 80.233 80.743 81.858 80.501 80.393 81.676 82.906 81.598 83.221 81.591 81.711 81.738 81.771 82.916 86.071 91.611 85.388 82.813 82.893 82.873 82.881 83.006 83.076 83.278 89.201 88.351 84.016 83.713 83.773 83.808 84.003 85.443 84.773 84.458 84.803 85.221 86.151 85.071 85.033 86.378 85.686 85.413 85.821 87.836 86.601 85.893 86.488 94.373 91.893 87.756 87.028 87.261 87.206 88.471 86.606 86.573 87.551 86.798 86.911 86.776 86.886 86.968 86.993 87.031 87.036 87.078 87.216 89.121 90.663 96.633 97.511 98.071 97.461 90.493 87.478 87.411 87.358 87.303 87.271 87.328 87.308 89.806 90.746 91.681 91.368 89.546 92.081 89.993 87.553 87.446 87.463 87.623 87.896 87.923 87.933 87.831 90.303 91.416 92.136 95.763 96.483 95.266 91.718 88.138 88.073 88.073 88.186 88.661 88.263 88.231 88.081 88.076 88.176 88.351 88.588 88.236 88.166 90.906 94.761 96.178 96.113 95.623 89.356 88.416 88.546 89.041 88.861 88.166 88.111 89.106 88.166 88.183 88.798 88.786 88.286 88.268 90.856 89.846 88.363 88.356 88.378 89.076 88.923 88.346 88.356 88.323 88.721 89.648 88.608 88.348 88.328 88.968 89.028 88.433 88.421 88.423 88.621 88.938 88.453 88.216 88.208 89.166 91.116 88.106 88.063 88.033 89.211 88.108 87.788 87.903 87.913 88.968 88.216 87.811 87.808 87.781 87.723 88.491 87.906 87.678 87.643 88.543 90.173 88.476 87.598 88.106 88.803 88.101 87.501 87.486 87.483 87.706 87.546 87.546 87.708 88.336 87.628 87.498 87.626 88.323 87.726 88.008 88.031 89.376 90.233 89.103 87.691 87.436 87.578 87.663 87.696 87.448 87.308 87.228 87.241 87.343 87.403 87.468 87.823 87.938 91.138 94.113 94.651 94.331 92.981 90.573 88.543 87.426 85.996 85.903 85.826 85.761 85.701 85.583 85.496 88.398 87.748 86.53 85.023 85.023 85.395 85.215
77.836 77.011 77.039 77.144 77.721 77.441 78.546 78.264 77.756 80.501 84.774 86.146 86.156 85.339 82.564 79.706 78.509 78.586 78.804 78.801 78.856 78.794 80.416 81.911 80.764 80.541 80.181 79.816 79.656 79.721 79.736 79.994 80.894 82.851 88.284 89.641 89.606 87.924 83.164 81.129 81.234 81.744 81.266 81.151 81.361 81.459 81.406 81.406 81.509 82.831 81.891 81.789 86.541 88.441 89.036 90.061 89.271 87.766 81.914 81.891 81.861 81.831 81.766 83.734 86.574 83.154 82.746 81.701 83.139 82.186 81.686 82.311 84.016 83.974 88.144 87.541 84.709 93.319 82.644 86.651 85.709 86.409 90.331 87.454 85.561 87.659 83.721 85.751 82.659 80.934 80.896 80.824 80.641 80.281 81.056 81.989 81.746 85.694 86.336 85.729 85.951 81.466 80.216 79.894 79.201 79.594 79.159 81.166 82.264 81.519 82.124 85.631 86.914 85.826 83.909 81.886 78.939 80.991 81.489 80.219 80.981 79.256 78.736 78.803 78.686 79.426 78.986 78.668 78.678 78.681 78.693 78.693 78.678 78.693 78.691 78.716 78.728 78.708 78.713 79.058 79.778 79.406 81.458 81.746 83.933 84.816 84.986 81.168 78.668 78.446 78.453 78.483 79.086 79.303 78.706 78.771 79.098 78.876 78.896 78.911 79.008 79.001 79.056 79.131 79.578 80.296 80.638 81.556 83.116 84.481 85.453 85.438 86.258 86.408 86.616 86.808 87.048 87.228 87.408 87.611 87.781 87.821 83.156 81.143 79.986 80.046 80.033 80.298 80.563 81.278 86.723 87.548 84.298 81.838 81.673 81.771 81.823 81.898 81.973 84.028 88.968 86.021 82.868 82.923 82.926 83.031 83.076 83.111 83.373 89.291 87.916 84.581 83.831 83.858 84.523 85.871 85.661 84.493 84.481 85.023 85.813 85.731 85.133 85.061 86.698 85.391 85.503 85.553 88.696 88.958 85.848 85.881 86.563 87.716 88.801 90.308 91.248 91.711 89.118 86.891 87.526 87.641 86.583 86.648 86.691 89.003 87.956 90.216 89.181 88.021 86.983 87.018 87.048 87.061 89.816 89.996 89.858 92.948 87.288 87.316 87.313 87.286 87.246 87.233 87.211 87.153 88.071 88.231 91.163 95.498 92.288 90.483 87.881 87.418 87.383 87.363 87.371 87.431 88.181 89.968 89.721 88.246 88.201 90.371 93.598 95.196 94.736 89.571 88.551 88.866 88.058 88.078 88.051 88.736 89.143 88.028 88.001 88.103 88.686 89.183 88.768 88.903 92.533 95.743 96.521 96.631 95.363 89.431 88.248 88.043 88.226 89.063 88.856 88.106 88.076 88.381 88.098 89.106 88.101 88.116 88.141 88.246 88.456 88.193 88.266 88.348 88.696 89.026 88.221 88.231 88.218 89.041 89.456 88.593 88.456 88.396 89.231 88.851 88.376 88.398 88.383 88.666 88.768 88.281 88.211 88.201 88.913 91.646 88.511 87.941 88.001 88.273 87.923 88.238 87.793 87.838 89.516 87.793 87.691 87.663 87.663 88.128 90.886 88.186 87.541 87.591 87.766 87.783 87.498 87.476 89.188 88.768 87.916 87.391 87.343 87.393 87.481 87.461 87.443 88.236 87.638 87.386 87.381 87.401 87.646 89.403 89.848 88.421 90.948 91.836 90.916 90.776 87.593 87.328 87.581 87.476 87.813 87.193 87.123 87.116 87.221 87.261 87.246 87.333 87.393 88.281 90.453 90.781 89.958 90.338 89.448 87.548 86.873 86.553 86.233 86.223 85.753 85.763 85.838 85.848 86.326 87.968 86.638 85.025 88.32 87.158 86.063
77.484 76.994 76.934 77.056 77.056 77.096 78.106 78.781 78.901 81.044 84.996 87.089 86.596 85.406 81.799 78.354 78.366 78.784 78.784 78.796 78.826 78.806 79.241 81.539 80.911 81.381 82.899 81.654 82.331 81.561 82.111 81.531 81.451 82.381 85.789 86.241 86.889 87.499 83.619 81.694 81.491 81.261 81.211 81.124 81.281 81.354 81.341 81.351 81.424 81.999 81.711 81.751 83.289 86.866 89.069 90.056 88.779 85.744 82.059 81.876 81.849 81.811 81.751 85.411 86.236 85.424 82.066 81.884 83.924 81.784 81.701 82.456 86.041 85.579 84.311 89.421 91.854 90.021 84.801 86.006 89.461 84.551 86.346 82.606 83.359 85.231 82.484 87.571 81.839 80.859 80.784 80.706 80.409 80.026 83.381 85.486 83.611 81.374 83.506 82.499 81.354 79.624 80.031 80.046 79.319 79.079 79.279 79.461 78.936 80.279 83.656 86.211 87.199 87.424 86.829 85.594 81.651 80.241 80.441 80.471 82.664 83.231 78.571 78.568 78.616 79.053 78.766 78.568 78.583 78.616 78.601 78.616 78.613 78.596 78.598 78.598 78.621 78.608 78.608 78.616 78.761 78.591 78.516 78.433 78.421 78.436 80.346 78.813 78.311 78.313 78.323 78.401 78.926 78.731 78.623 78.668 78.716 78.736 78.818 78.846 78.873 78.941 78.948 79.038 79.111 79.131 79.156 79.151 79.146 79.231 79.356 80.301 79.821 81.278 82.426 83.901 85.543 86.113 86.281 86.473 86.676 85.326 81.033 80.036 79.933 79.978 80.163 80.773 81.293 84.111 83.796 82.596 86.018 82.221 81.736 81.856 81.936 82.006 82.078 82.973 86.868 84.841 83.386 82.968 83.278 83.638 83.446 83.356 83.298 86.261 87.786 84.446 83.888 83.913 84.671 87.411 85.561 85.798 84.523 84.763 85.833 85.411 85.038 85.113 87.096 85.273 89.553 89.411 88.431 86.621 86.978 85.891 87.076 86.471 88.168 91.903 92.473 93.938 89.996 86.828 86.643 86.696 86.603 88.781 88.188 89.603 90.291 91.748 88.766 87.506 86.906 86.911 86.916 86.958 86.966 87.033 87.073 87.101 87.158 87.223 87.263 87.233 87.206 87.153 87.083 87.066 88.441 90.286 93.108 95.183 93.053 93.558 87.378 87.353 87.321 87.346 87.348 87.438 89.101 90.566 93.186 92.668 91.128 90.496 90.231 88.911 90.418 88.663 88.816 88.438 87.921 87.883 87.878 87.868 87.906 87.848 87.936 88.013 88.878 88.581 88.533 89.138 94.366 95.621 96.686 96.158 92.971 88.748 88.996 88.038 87.991 88.028 88.798 88.696 89.703 88.806 88.096 88.646 88.031 88.043 88.081 88.461 88.356 88.148 88.223 88.131 88.483 88.258 88.116 88.151 88.171 88.251 89.523 88.408 88.391 88.356 88.988 88.896 88.368 88.408 88.383 89.156 88.666 88.193 88.166 88.483 89.828 92.396 90.718 88.406 88.761 88.818 88.161 87.746 87.676 87.623 88.533 87.566 87.601 87.558 87.523 87.853 89.983 88.261 87.423 88.058 87.436 88.246 87.356 87.413 87.908 88.758 87.751 87.313 87.276 87.391 87.471 87.381 87.456 87.778 87.263 87.263 87.578 88.363 88.496 90.056 89.088 88.898 93.448 94.321 94.261 92.933 87.598 87.193 87.446 87.433 87.138 87.073 87.011 87.023 87.096 87.141 87.236 87.853 87.611 86.981 90.668 91.231 91.778 91.803 89.183 86.178 86.093 85.798 85.426 85.156 85.073 84.901 84.963 85.718 88.363 90.013 89.153 87.228 87.9 86.293 84.825
77.591 76.859 76.836 76.881 76.869 76.936 78.034 77.976 77.849 82.216 85.179 86.656 86.294 84.721 81.091 80.389 80.174 80.199 80.109 79.669 79.539 79.761 80.861 83.616 82.229 81.444 81.691 81.529 82.621 82.866 83.051 82.841 82.496 82.001 82.004 81.724 81.931 81.921 81.636 81.961 81.846 81.241 81.074 81.074 81.206 81.284 81.266 81.234 81.406 82.099 82.431 82.351 83.399 86.766 89.221 90.324 88.576 84.276 82.176 81.869 81.891 81.831 81.704 83.486 85.121 83.589 82.524 82.929 82.689 81.974 81.771 82.961 85.859 87.546 85.981 86.901 89.459 88.546 90.514 88.119 86.874 82.749 86.086 88.219 83.536 84.506 84.486 83.551 82.361 81.604 81.471 80.611 79.991 83.221 85.794 86.906 86.446 84.674 82.354 80.604 80.029 80.299 79.754 79.599 79.466 79.154 79.481 79.711 79.151 79.511 79.861 83.261 85.824 86.946 87.966 87.124 86.449 84.636 80.761 79.324 81.664 82.401 79.266 78.441 78.471 79.406 78.638 78.476 78.501 78.483 78.473 78.506 78.478 78.443 78.373 78.296 78.298 78.331 78.356 78.408 78.393 78.418 78.393 78.348 78.316 78.256 78.306 78.913 78.193 78.193 78.198 78.271 78.616 78.356 78.406 78.478 78.548 78.618 78.701 78.746 78.783 78.858 78.878 78.923 78.986 79.038 79.063 79.058 79.081 79.093 79.118 79.131 79.153 79.166 79.223 79.381 79.248 79.673 81.263 82.041 83.253 82.491 81.033 80.751 81.071 85.866 87.388 85.028 82.946 84.581 80.696 80.766 83.861 83.966 81.821 81.936 82.003 82.168 82.393 83.138 86.371 85.916 83.328 83.408 83.528 83.858 84.351 83.553 83.518 84.461 85.276 84.116 83.936 83.936 85.023 87.201 88.301 86.276 84.543 84.541 85.381 85.846 85.543 85.163 86.751 85.273 89.961 93.531 91.933 88.363 85.876 87.953 89.796 86.603 87.346 88.398 90.581 91.986 92.128 89.088 88.601 87.126 86.631 87.088 91.071 93.213 93.786 90.256 88.991 89.201 88.063 87.313 87.871 86.938 86.876 86.948 86.973 87.026 87.081 87.131 87.161 87.173 87.141 87.058 87.523 87.616 90.471 88.841 88.081 92.926 92.391 91.291 87.438 87.348 87.303 87.343 87.436 87.526 89.406 90.723 94.011 94.946 94.996 94.148 91.741 87.528 87.621 87.721 88.166 88.181 87.831 87.781 87.736 87.673 87.746 87.771 87.893 87.973 88.186 88.001 88.043 89.811 94.603 95.853 96.238 95.056 91.396 88.298 88.801 88.351 88.338 88.391 88.758 89.248 92.721 90.231 88.796 88.433 88.403 87.953 88.063 89.591 88.413 88.011 88.056 88.328 89.143 88.256 88.128 88.191 88.231 91.141 89.946 88.571 88.431 88.743 89.066 89.258 88.201 88.211 88.916 89.378 88.361 88.178 88.193 88.481 90.713 98.156 90.853 87.761 87.843 88.286 88.783 87.913 87.558 87.878 87.738 87.463 87.468 87.451 87.406 87.383 88.833 87.283 87.278 87.341 87.616 88.486 87.541 87.653 89.191 88.588 87.906 87.231 87.216 87.268 87.331 87.311 88.508 87.368 87.226 87.451 88.218 88.716 87.791 87.896 87.806 87.883 93.763 95.166 94.831 93.206 87.478 87.178 87.423 87.343 87.018 86.943 86.903 86.911 87.038 87.156 86.963 86.856 86.718 88.388 92.628 93.611 93.763 93.493 90.016 86.383 85.971 85.683 85.276 85.101 84.998 84.856 84.733 86.093 90.971 90.985 91.333 86.903 84.58 84.628 84.69
77.049 76.684 76.734 76.801 76.819 76.881 77.556 77.501 77.714 81.481 85.196 85.806 85.766 84.514 80.659 78.811 78.574 78.684 78.694 78.806 79.471 80.066 80.011 82.679 80.194 79.144 79.226 79.326 79.401 79.796 80.531 81.459 81.704 83.066 82.814 81.861 82.106 82.466 83.141 83.271 83.216 81.839 81.001 81.006 81.151 81.149 81.101 81.196 81.239 81.641 81.536 81.574 83.189 87.764 89.409 90.079 88.409 84.646 83.136 83.069 83.066 82.824 82.474 84.671 84.404 82.709 82.091 82.659 84.664 84.554 82.891 84.064 84.921 86.819 88.271 88.056 90.224 89.676 89.019 86.904 83.684 82.399 81.451 83.374 83.661 82.716 84.924 80.741 80.899 81.706 81.776 80.189 81.714 85.861 87.064 88.064 87.489 86.051 83.304 80.894 81.256 80.691 79.694 79.166 79.361 79.241 79.176 79.066 79.721 79.366 78.859 79.056 81.806 84.456 86.181 86.154 86.401 82.841 78.794 78.759 79.489 80.346 80.243 78.278 78.316 78.406 78.378 78.413 78.391 78.386 78.376 78.371 78.311 78.213 78.051 78.213 79.048 78.773 79.013 78.561 78.086 78.118 78.148 78.151 78.133 78.126 78.488 78.536 78.113 78.088 78.091 78.121 78.831 78.011 78.111 78.218 78.321 78.411 78.493 78.548 78.596 78.661 78.713 78.746 78.798 78.838 78.888 78.931 78.953 79.006 79.013 79.041 79.083 79.118 79.143 79.176 79.206 79.231 79.248 79.308 79.553 82.028 82.383 81.578 88.396 92.791 94.526 89.693 80.563 80.936 80.741 80.911 81.303 85.488 82.326 81.981 82.046 82.208 82.571 85.258 85.241 84.913 83.531 83.551 84.856 86.711 86.591 85.541 84.251 85.386 84.681 84.208 84.303 83.978 86.258 87.491 84.946 84.913 84.773 84.856 86.361 85.373 85.518 86.471 86.396 85.318 92.713 93.768 93.258 87.596 86.083 91.636 93.493 90.868 86.033 86.073 90.206 89.166 91.508 91.563 88.481 89.131 87.588 89.876 91.496 96.448 90.796 86.683 93.501 94.476 86.596 87.478 87.581 86.988 87.098 86.811 86.868 86.951 87.018 87.063 87.098 87.083 87.008 87.776 87.351 88.323 89.956 90.883 94.393 92.321 89.873 88.376 87.921 87.541 87.303 87.331 87.761 87.743 90.576 91.373 94.278 95.656 95.576 94.261 90.521 87.563 88.348 88.743 87.613 87.646 87.948 87.636 87.566 87.611 87.643 87.681 87.826 88.318 88.208 88.046 87.988 90.813 94.983 95.881 95.841 94.663 88.221 87.871 87.771 87.841 89.201 90.218 89.598 89.523 93.858 89.791 88.343 88.451 88.748 88.118 88.856 90.213 88.408 87.963 87.968 88.001 89.451 89.108 90.133 90.288 89.206 89.906 89.306 88.393 88.458 88.813 89.838 89.761 87.988 88.041 88.683 89.541 88.083 88.076 88.171 88.313 90.123 92.233 89.646 87.751 88.653 89.651 87.941 89.033 87.461 87.723 88.163 87.421 87.351 87.328 87.296 87.388 91.471 88.293 87.163 87.141 87.161 88.323 87.321 87.478 87.273 89.531 88.341 87.141 87.121 87.311 87.356 87.343 87.471 87.323 87.503 87.521 87.526 86.948 86.946 87.053 87.076 88.296 93.788 95.266 94.846 93.381 88.676 87.031 87.058 86.983 86.886 86.801 86.786 86.778 86.916 87.228 86.918 87.366 86.946 87.546 93.861 94.348 94.908 93.688 90.556 86.711 85.916 85.693 85.263 85.076 84.943 84.751 84.623 85.321 90.548 91.99 89.798 84.563 84.545 84.59 84.64
76.724 76.549 76.641 76.681 76.691 76.819 77.459 77.526 77.726 83.386 83.076 83.791 84.349 84.326 80.049 78.139 78.239 78.346 78.436 78.589 78.791 79.704 79.679 80.699 79.199 79.124 79.221 79.341 79.461 79.589 80.416 83.091 83.221 86.504 86.616 86.296 86.004 82.174 80.774 81.151 81.951 81.416 80.889 80.954 81.071 81.086 81.036 81.091 81.341 81.456 81.504 82.496 86.881 88.201 89.606 89.746 88.239 82.771 81.739 82.061 82.071 82.091 82.644 82.919 83.399 84.561 83.771 84.721 89.729 89.629 86.594 84.751 85.976 87.889 87.484 83.991 85.481 82.996 87.481 85.369 82.126 80.879 80.831 80.809 80.756 80.734 80.714 80.674 80.631 80.661 81.606 81.956 83.619 86.151 87.314 87.951 86.601 85.884 81.276 79.841 79.954 80.814 80.401 79.174 78.891 78.809 78.741 78.679 78.704 79.114 79.469 78.966 79.691 81.461 81.851 83.096 81.514 79.836 79.134 78.606 79.046 79.018 80.511 81.488 78.481 79.428 79.273 78.316 78.283 78.276 78.273 78.231 78.191 78.056 77.811 78.393 79.966 80.388 79.413 78.886 78.973 78.328 78.738 78.228 77.971 77.963 78.176 78.101 77.973 77.978 77.968 77.911 78.156 78.551 78.623 77.926 77.981 78.128 78.241 78.278 78.301 78.383 78.441 78.488 78.568 78.623 78.663 78.706 78.748 78.793 78.833 78.886 78.941 78.998 79.028 79.073 79.153 79.211 79.246 79.283 79.398 82.623 86.956 88.903 92.788 94.923 93.783 87.026 80.598 80.766 80.891 81.063 81.263 83.048 84.421 82.038 82.406 82.906 82.576 85.448 84.938 85.081 83.561 83.571 86.636 87.333 86.893 86.883 84.013 87.396 84.221 84.028 84.261 84.118 86.176 87.593 84.853 84.866 84.988 85.236 86.036 85.473 85.771 87.223 86.856 85.553 89.643 93.441 88.996 86.093 87.421 92.728 94.886 89.441 85.978 86.043 88.693 89.136 88.566 89.028 87.626 88.063 87.363 89.576 91.116 92.668 88.378 88.783 86.778 87.218 87.181 92.696 92.681 87.521 87.026 86.838 86.786 86.871 86.981 86.986 87.001 86.968 86.886 88.506 88.631 89.506 91.946 92.243 95.941 94.368 88.593 88.631 87.313 88.266 87.766 87.368 87.663 87.696 89.463 92.003 95.216 95.928 95.456 94.223 91.498 87.783 87.543 87.576 87.751 87.566 87.536 87.476 87.488 87.521 87.536 87.583 87.696 88.716 87.983 88.868 87.971 91.808 94.738 95.208 95.403 93.061 87.986 87.758 87.696 87.718 87.751 88.088 90.211 91.718 94.361 89.281 89.236 88.876 89.351 88.593 90.168 91.046 91.608 92.446 93.523 93.893 94.413 92.658 90.438 90.656 89.856 90.493 90.421 89.981 89.161 89.563 89.318 89.601 90.208 89.446 88.161 90.618 89.201 89.166 89.516 89.086 89.168 89.576 88.213 88.048 88.748 88.823 87.941 88.388 88.221 87.608 88.508 88.348 88.186 87.613 87.266 87.498 88.158 88.461 88.356 87.411 89.388 87.938 88.051 87.896 87.706 88.788 88.581 87.958 88.228 87.823 88.343 88.536 88.061 87.408 86.808 86.763 86.756 86.793 86.923 87.476 87.251 89.918 93.813 95.263 94.906 94.231 89.091 87.293 87.051 86.953 86.786 86.693 86.658 87.056 86.808 87.426 86.916 87.013 86.601 87.761 93.113 94.401 95.231 93.766 89.211 87.303 88.033 87.073 86.061 85.478 85.276 85.738 85.476 85.948 88.218 91.32 88.103 84.445 84.488 84.54 84.593
76.591 76.426 76.524 76.584 76.581 76.716 77.094 78.196 77.756 77.374 77.751 80.291 81.339 81.789 79.646 78.096 78.209 78.309 78.366 78.471 78.574 78.719 79.549 79.939 79.134 79.129 79.244 79.346 79.446 81.189 83.349 83.289 83.764 86.876 86.899 86.766 86.681 83.139 80.704 81.166 81.064 80.889 80.829 80.861 80.941 80.984 80.901 80.964 81.206 81.329 81.404 84.711 88.674 89.076 89.831 89.646 88.521 85.266 81.904 81.804 81.671 81.644 81.601 81.524 81.496 81.574 83.669 86.664 92.794 92.919 88.989 85.551 88.296 89.056 86.354 82.589 81.339 82.226 84.381 83.429 81.636 80.796 80.766 80.739 80.686 80.699 80.674 80.536 79.979 79.696 80.229 83.761 81.379 81.691 84.724 86.634 84.169 82.914 79.776 79.489 79.946 79.414 79.981 78.951 78.824 78.811 78.729 78.656 78.601 79.074 79.051 78.911 78.916 79.016 79.161 79.276 78.841 78.794 78.676 78.596 78.704 78.656 78.043 79.878 80.701 81.481 82.523 79.366 78.266 79.443 78.156 78.143 78.106 77.933 77.663 78.271 79.886 80.051 80.576 80.446 80.126 80.001 79.661 78.986 78.843 79.266 78.183 77.731 77.836 77.846 77.868 77.806 77.451 77.991 77.478 77.826 77.911 77.858 77.958 77.946 78.173 78.743 78.128 78.188 78.263 78.341 78.408 78.453 78.491 78.551 78.608 78.678 78.731 78.783 78.858 78.923 78.991 79.076 79.141 79.153 79.288 82.291 86.221 88.776 92.783 93.303 89.123 82.728 81.023 80.828 81.066 81.223 81.443 81.703 85.441 82.903 82.476 82.978 83.941 84.603 85.526 85.981 83.558 83.571 87.933 89.701 89.501 89.106 85.098 86.368 84.118 84.306 87.101 86.331 85.901 86.526 84.913 85.636 85.068 85.523 86.536 85.221 85.276 86.501 87.316 85.338 89.131 88.488 85.643 85.678 86.558 88.113 91.041 87.128 85.948 86.038 87.031 87.078 88.976 88.421 86.523 86.886 87.616 89.781 91.728 89.393 93.446 92.343 87.026 90.518 88.051 90.801 89.291 86.866 86.978 86.868 86.846 86.931 86.963 86.926 86.931 86.856 87.373 90.006 92.341 88.828 90.921 94.188 96.033 90.168 88.968 87.028 86.748 88.706 87.223 87.123 87.571 87.796 88.493 92.386 95.118 96.216 95.283 94.816 93.271 87.551 87.543 87.746 88.536 87.523 87.408 87.358 87.396 87.416 87.401 87.493 87.556 88.061 87.933 88.186 88.543 90.666 91.063 91.353 92.523 90.668 87.893 88.773 88.331 87.988 87.991 88.356 88.553 92.966 91.476 92.196 89.886 90.048 88.088 87.756 89.673 90.518 91.938 96.381 95.511 96.996 95.663 93.013 92.013 92.661 91.466 89.936 91.258 91.776 91.673 91.783 88.126 87.828 89.663 89.006 87.981 89.136 89.333 88.178 88.421 89.851 89.453 88.663 88.908 88.658 88.746 88.773 88.328 88.893 90.048 89.903 88.128 88.713 88.866 88.283 87.716 88.311 89.926 89.946 89.078 89.696 90.408 89.438 87.896 88.818 91.636 89.578 90.388 89.716 90.568 92.553 91.508 91.048 90.768 89.141 87.646 87.063 87.441 89.503 89.418 87.793 87.423 89.608 93.873 95.533 95.156 94.043 87.788 87.836 88.443 87.791 86.661 86.563 86.583 87.678 86.671 86.803 87.666 86.696 86.458 87.436 93.983 94.376 94.996 93.696 91.006 86.098 85.933 86.353 85.968 85.311 85.441 86.496 84.918 86.778 90.561 92.273 88.178 84.468 84.453 85.945 84.603
76.414 76.364 76.429 76.481 76.501 77.216 78.946 80.184 80.139 78.269 78.124 80.191 80.224 80.241 78.209 78.396 78.481 78.384 78.319 78.421 78.576 79.634 81.026 80.244 79.689 79.361 79.244 79.331 79.434 79.906 80.896 80.839 82.291 87.101 88.281 87.949 87.084 84.021 80.399 80.526 81.711 80.826 80.726 80.776 80.871 80.889 80.806 80.899 81.141 81.326 81.494 85.244 88.689 89.039 89.134 89.411 88.709 85.096 82.114 81.901 81.786 81.661 81.606 81.529 81.514 81.521 82.864 88.129 92.869 91.914 87.436 91.299 91.564 89.411 88.821 82.211 81.826 85.249 83.586 83.391 81.334 81.059 80.861 80.676 80.671 80.634 80.629 80.536 79.924 79.629 82.836 86.084 85.434 83.591 81.339 84.616 80.784 80.154 79.709 79.796 79.594 79.054 78.881 78.819 78.829 78.756 78.681 78.596 78.524 78.659 78.804 78.601 78.566 81.359 82.159 82.374 81.474 79.701 79.266 78.904 79.089 79.306 77.748 77.758 78.068 80.616 82.508 81.061 80.403 79.563 78.043 78.023 77.943 77.803 79.516 79.808 79.761 79.801 79.863 79.853 79.863 79.871 79.896 79.918 79.973 80.166 79.716 77.951 77.711 77.741 77.708 78.103 77.218 77.538 77.428 77.651 77.688 77.661 77.701 77.688 79.281 78.741 79.063 79.438 78.893 78.631 78.626 78.191 78.256 78.256 78.321 78.413 78.516 78.591 78.651 78.723 78.823 78.908 79.278 79.448 79.623 82.463 83.951 86.738 86.556 83.353 80.418 80.568 81.428 81.086 81.173 81.373 81.528 81.648 82.463 83.493 82.971 84.671 87.123 85.816 85.506 85.791 83.596 83.878 89.223 90.091 90.221 88.976 86.326 85.556 86.126 86.771 90.078 89.798 85.826 86.063 85.611 88.226 87.356 87.361 86.491 85.408 85.121 87.868 86.761 85.346 85.511 86.898 85.398 85.363 85.368 85.513 88.173 85.936 85.926 85.958 86.188 88.193 89.183 88.138 86.033 86.143 86.743 89.218 94.593 90.841 88.558 90.206 88.263 87.641 87.583 88.798 88.218 86.633 86.723 88.328 86.806 87.146 86.788 86.828 86.863 86.828 88.241 89.428 90.541 91.788 88.698 89.661 90.258 91.658 88.003 86.616 86.653 86.693 86.921 86.848 86.891 87.076 87.576 92.938 95.146 96.171 95.646 94.291 91.183 88.623 88.461 88.333 87.921 87.351 87.236 87.261 87.278 87.233 87.271 87.298 87.401 87.491 87.613 88.458 88.533 89.461 90.523 89.288 87.863 88.271 88.493 89.313 88.826 88.323 87.696 88.783 89.071 94.091 94.346 93.108 90.343 88.958 87.588 88.031 90.388 91.498 91.883 93.916 95.491 95.548 94.813 92.213 88.681 90.046 89.298 90.806 91.573 89.161 91.001 92.723 90.701 88.943 88.418 87.966 87.761 87.626 87.516 87.401 87.771 89.033 88.228 87.533 87.563 88.858 88.161 87.733 87.398 87.676 88.078 87.253 88.791 89.083 89.018 88.373 87.683 90.533 90.373 88.678 89.786 88.706 87.303 87.733 87.433 87.678 91.676 88.973 89.248 88.593 90.206 94.121 92.561 91.518 90.971 90.386 89.711 86.493 86.491 86.513 86.556 86.838 87.261 89.708 93.826 95.303 94.918 94.308 88.483 86.726 86.876 86.723 86.558 86.471 86.551 86.941 86.581 86.611 86.923 87.063 86.363 86.798 92.831 93.881 94.036 93.573 88.948 85.938 85.678 85.641 85.268 89.073 92.233 90.223 84.858 85.003 89.648 91.098 86.805 84.738 85.703 84.578 84.6
76.316 76.306 76.361 76.396 76.414 76.581 76.881 78.889 79.036 77.666 78.254 79.291 79.229 79.249 79.416 80.401 80.116 80.434 79.941 79.936 79.484 80.366 81.189 80.811 80.899 81.444 79.331 79.291 79.381 79.471 79.846 79.974 83.354 87.429 89.389 89.101 87.129 83.979 80.594 80.521 81.081 80.759 80.666 80.691 80.771 80.791 80.714 80.829 81.986 82.966 82.576 83.876 85.319 85.271 84.931 85.021 87.484 83.676 82.896 83.486 84.296 82.729 84.479 81.581 81.581 81.541 84.356 85.971 88.134 82.439 90.326 92.844 91.756 90.509 88.921 83.286 82.504 82.019 83.616 85.751 82.629 80.786 80.836 80.764 80.786 80.584 80.566 80.489 80.596 82.179 85.571 86.981 87.064 86.126 84.581 81.709 81.866 80.346 79.404 79.304 79.129 78.906 78.779 78.779 78.754 78.704 78.661 79.024 78.536 78.454 79.074 78.571 80.016 84.219 85.136 85.079 84.771 83.234 80.654 80.071 79.169 79.751 78.311 77.718 77.673 77.678 78.273 78.431 81.663 82.816 78.943 77.853 78.008 77.983 81.766 79.756 77.543 78.243 78.606 78.643 79.403 79.636 79.771 79.821 79.846 79.856 79.818 77.621 77.588 77.613 77.591 79.271 79.463 79.208 79.251 78.641 78.118 77.721 77.538 77.626 79.446 80.096 80.091 79.373 79.716 79.483 79.588 79.541 79.443 78.451 78.626 78.098 78.968 78.546 78.491 78.583 78.708 78.921 81.443 80.301 80.478 79.758 80.988 81.968 81.193 80.663 80.541 80.678 81.033 81.926 81.271 81.453 81.628 81.751 81.938 82.758 83.928 84.558 88.561 86.621 82.608 84.383 83.911 83.681 89.873 91.216 90.663 88.253 84.921 85.343 89.573 90.573 90.638 89.548 86.861 87.173 88.253 91.168 89.196 88.988 87.551 89.141 88.876 86.121 87.903 86.273 86.408 86.733 85.378 87.288 86.286 86.923 88.141 85.766 85.828 85.876 86.278 88.626 89.353 87.291 86.061 86.036 86.066 89.058 88.681 90.718 90.816 94.208 90.918 88.398 88.266 89.748 86.691 87.198 88.681 87.918 87.358 86.778 86.753 86.676 86.756 86.853 88.016 87.923 87.278 91.931 91.571 91.173 90.533 89.043 86.856 86.491 86.558 86.608 86.678 86.706 86.788 87.191 87.756 92.491 95.191 95.841 94.916 94.801 90.608 87.306 87.873 87.733 87.478 87.176 87.151 87.178 87.188 87.166 87.121 87.151 87.228 87.446 87.511 87.738 87.933 88.901 88.196 88.418 89.591 87.361 87.653 87.386 87.328 87.286 87.328 89.853 91.296 90.898 91.536 87.853 89.311 87.513 87.416 87.528 87.453 93.178 95.091 94.396 92.171 92.871 90.926 90.248 87.558 87.538 87.686 89.093 89.941 88.773 88.281 90.788 89.048 87.511 87.803 87.541 88.438 87.496 87.376 87.343 87.791 88.606 87.993 87.568 87.671 89.806 88.018 87.413 87.153 87.253 87.163 86.981 87.028 87.118 88.991 87.833 88.083 87.303 87.811 87.291 88.068 87.181 87.268 87.386 87.061 86.691 87.036 87.338 89.171 87.313 87.491 88.213 88.936 90.181 88.088 89.681 88.338 86.346 86.348 86.368 86.426 86.713 87.001 89.163 93.803 94.546 94.423 93.516 88.813 86.556 86.538 86.486 86.438 86.358 86.323 86.328 86.401 86.466 86.903 87.648 87.203 86.673 91.643 91.341 91.313 91.868 89.351 86.326 86.623 86.338 85.846 95.183 100.416 97.053 88.348 87.061 89.861 89.588 85.713 84.145 84.18 84.138 84.103
76.374 76.904 76.279 76.384 76.414 77.169 76.739 76.954 77.586 79.616 79.619 81.469 81.296 81.094 81.001 80.561 78.071 78.351 78.256 78.371 78.721 79.196 80.041 80.021 79.889 80.071 79.824 80.176 80.486 80.604 80.376 80.254 84.544 87.604 89.504 88.889 87.574 84.841 80.486 80.991 81.559 80.631 80.566 80.639 80.701 80.679 80.624 80.701 82.089 82.126 80.866 83.346 83.389 82.994 84.064 83.571 82.271 82.754 83.386 83.866 85.034 84.634 85.266 85.966 83.506 81.929 83.464 84.654 82.439 81.519 85.484 91.119 90.221 86.949 83.661 80.884 81.179 82.474 84.556 84.444 84.889 86.521 82.369 80.674 80.696 80.721 80.521 80.119 82.539 84.281 86.419 87.416 87.884 86.354 81.724 79.716 79.871 80.811 80.076 79.629 79.349 78.869 78.764 78.736 78.649 78.611 78.836 79.154 78.939 79.509 78.656 78.594 80.676 83.856 85.211 86.279 86.594 85.196 82.336 79.366 80.219 81.466 79.611 79.046 78.198 77.861 77.646 77.683 81.401 82.516 81.971 78.406 78.313 79.033 80.963 82.426 79.228 77.381 77.386 77.383 77.381 77.401 77.456 78.133 78.593 78.641 79.128 77.566 77.483 77.488 77.828 79.556 79.853 79.851 79.888 79.916 79.928 79.911 79.493 79.638 79.588 80.046 80.076 80.086 80.098 80.148 80.156 80.181 79.788 79.621 79.823 80.473 81.121 80.741 78.371 78.456 78.561 80.301 81.943 80.628 81.306 80.221 79.976 83.031 82.033 80.566 80.696 80.783 81.003 81.413 81.876 81.561 81.931 82.201 84.448 83.121 86.121 88.451 89.301 88.826 84.626 83.398 84.021 85.616 90.141 91.508 90.578 87.976 86.268 86.871 89.948 91.836 91.306 89.063 85.421 87.251 87.651 91.421 90.856 90.648 90.476 91.088 90.908 86.916 91.298 90.736 88.773 87.261 88.088 89.896 88.133 86.861 87.896 85.576 85.743 85.831 85.853 87.421 87.823 85.846 86.013 86.068 86.076 86.001 86.486 92.666 94.201 96.346 92.211 90.776 88.398 87.846 86.453 88.083 89.341 90.036 89.086 86.553 86.693 86.591 86.633 87.613 90.286 89.888 87.681 90.608 95.936 92.603 91.673 88.703 87.193 86.781 86.471 86.546 86.583 86.636 86.708 87.186 88.376 93.788 94.266 94.548 94.316 92.266 88.351 87.201 87.208 87.218 87.118 87.046 87.036 87.058 87.051 87.003 86.961 87.016 87.056 87.128 87.153 87.203 87.351 88.046 89.596 92.648 92.888 89.028 87.166 87.216 87.216 87.198 87.543 90.076 90.601 88.413 87.258 88.438 87.368 87.271 87.291 87.813 89.258 92.021 94.981 93.921 93.413 89.026 91.483 90.801 87.646 87.368 87.431 87.811 87.631 87.978 87.678 88.568 87.508 87.331 87.333 87.306 87.393 87.256 87.201 87.218 87.283 87.856 87.683 87.353 87.246 88.046 87.048 86.958 86.926 86.906 86.986 87.288 86.921 86.776 87.723 87.186 87.261 88.148 87.123 86.946 86.816 86.641 87.023 86.953 86.698 86.368 86.353 87.018 87.428 86.406 87.158 87.698 86.766 87.973 88.163 87.918 86.683 87.401 86.278 86.261 86.313 86.363 86.436 87.893 92.813 92.203 91.578 90.571 87.341 86.441 86.428 86.423 86.343 86.226 86.186 86.193 86.286 86.346 86.668 87.518 87.231 86.801 89.528 89.526 89.541 89.253 89.538 87.841 87.583 86.911 86.001 97.191 101.551 99.093 90.186 87.793 89.708 90.29 86.26 84.08 84.108 84.083 84.025
