ncols 423
nrows 32
xllcorner    527108
yllcorner    189834
cellsize     2
NODATA_value -9999
88.862 89.012 90.235 89.345 89.627 89.237 89.807 89.687 89.312 89.11 89.037 90.487 93.277 92.22 94.795 95.182 95.367 93.472 91.077 88.692 91.655 95.017 96.61 96.54 96.542 95.53 94.4 93.97 93.235 90.512 88.89 87.107 86.967 87 86.97 86.972 87.257 87.412 87.932 86.582 86.565 86.615 86.757 86.755 86.757 86.837 86.869 86.949 87.594 87.177 87.277 87.362 87.399 88.147 89.264 88.224 88.372 88.549 89.612 90.732 89.127 88.767 88.777 88.812 89.969 92.094 91.687 93.782 89.724 89.689 89.422 95.504 95.579 95.009 95.044 92.289 92.189 91.412 91.117 93.037 90.359 90.294 89.904 89.972 89.812 89.644 90.289 89.537 90.164 90.907 89.502 89.517 89.562 89.664 89.689 89.697 89.709 89.737 90.389 90.924 90.939 91.622 94.309 95.317 91.912 91.369 91.732 94.677 96.014 96.079 94.432 91.279 95.612 97.589 97.642 97.522 97.244 97.214 93.304 96.772 96.462 96.152 95.689 95.297 92.147 91.362 91.929 89.262 88.717 89.437 88.662 88.512 88.954 89.464 88.954 88.887 88.804 88.429 88.432 88.479 88.424 88.487 89.034 89.057 88.897 88.824 88.454 88.569 88.679 89.027 88.744 90.609 90.114 89.967 90.784 95.114 95.909 96.349 96.759 97.184 97.482 97.347 97.044 96.869 96.232 95.807 96.439 96.202 92.759 89.387 90.709 95.192 95.369 95.207 93.189 89.807 90.222 91.197 93.694 96.554 96.552 96.512 96.459 98.949 99.427 99.354 98.579 96.577 90.692 90.584 90.722 90.707 90.709 91.264 90.859 90.922 91.282 97.262 98.537 99.552 99.674 98.002 95.699 92.499 90.947 90.884 91.327 91.634 91.679 91.817 91.369 91.259 91.379 91.842 92.912 91.464 91.009 90.989 90.984 90.959 91.147 92.044 92.224 93.227 92.712 92.552 91.219 91.154 91.049 91.057 91.014 91.187 90.414 90.462 90.602 96.002 98.159 98.684 98.339 97.394 94.252 90.662 90.747 90.012 90.059 90.042 89.846 89.859 89.899 89.881 89.901 89.976 90.651 90.146 90.156 90.496 92.454 92.904 97.221 99.524 100.389 99.919 98.829 93.109 91.116 91.451 90.119 90.124 90.124 90.099 90.074 90.204 90.726 91.036 92.524 93.536 94.336 96.666 92.056 91.836 93.201 92.401 92.094 95.884 92.676 89.774 89.721 89.674 89.694 89.954 90.766 92.061 91.889 90.904 90.384 90.521 93.286 97.889 99.006 99.564 99.799 98.879 98.264 97.626 93.476 90.754 90.964 90.734 90.641 90.656 90.194 90.201 90.286 90.339 90.696 90.524 90.619 90.856 91.009 91.241 91.886 92.319 92.046 94.054 96.839 98.466 98.144 96.674 95.019 93.004 92.259 92.249 92.079 91.629 91.539 91.534 92.269 91.801 92.499 92.834 91.774 91.474 91.544 91.139 91.026 93.316 95.294 95.019 98.841 96.286 95.859 92.481 94.096 90.771 90.136 91.606 90.089 90.036 90.019 90.016 89.966 89.901 89.829 89.931 91.466 91.881 90.804 94.974 96.951 96.189 96.229 97.016 96.304 91.274 89.294 89.079 88.999 90.004 88.929 89.264 88.476 88.534 88.549 88.539 88.666 88.966 89.534 89.861 90.199 90.561 92.606 98.711 98.656 97.946 96.469 94.511 92.276 92.798 92.818 92.531 92.606 92.708 92.833 92.901 93.006 93.098 93.881 95.646 97.273 97.491 96.871 95.446 94.636 94.803 97.991 96.806 96.176 95.843 92.826 94.683 94.796 90.928 90.956
89.247 89.402 90.947 89.327 89.362 89.332 89.247 89.985 89.94 90.887 94.087 95.192 95.687 95.952 96.257 96.282 96.015 94.987 93.765 89.507 92.627 94.472 96.535 96.17 95.72 93.802 91.837 91.015 89.145 87.885 87.425 87.337 86.94 86.877 86.87 86.865 86.915 87.562 86.672 86.545 86.57 86.572 86.867 86.745 86.732 86.827 86.882 86.934 87.277 87.397 87.314 87.394 87.439 87.757 90.887 89.337 89.687 88.727 89.244 91.179 91.644 88.814 88.912 88.954 90.114 92.539 96.257 92.764 92.949 92.584 91.627 95.534 93.244 95.927 91.157 89.804 89.769 89.994 91.112 89.667 89.509 89.534 89.644 90.244 89.632 89.642 90.987 89.809 89.659 92.239 89.524 89.562 89.612 89.699 89.922 90.037 91.099 92.194 92.299 92.259 90.337 95.614 96.487 96.279 93.827 90.929 91.112 93.177 95.732 96.227 96.142 95.812 93.619 97.602 97.547 96.749 97.227 96.932 95.784 92.579 95.312 94.399 91.604 90.667 89.664 89.537 89.142 88.812 88.444 88.572 88.979 89.004 88.867 89.059 88.552 88.487 88.469 88.447 88.477 88.632 89.207 88.757 88.949 88.589 88.457 88.614 88.677 88.964 89.037 89.677 91.174 93.682 94.974 95.132 88.659 96.724 97.239 97.264 97.877 97.007 96.589 96.309 95.699 93.312 91.737 94.597 95.587 95.572 94.432 90.362 89.692 94.042 95.264 95.264 95.112 90.147 90.609 90.384 90.877 96.197 96.447 96.447 95.937 96.339 99.174 100.164 99.104 97.789 92.789 90.752 91.159 91.072 90.804 90.944 90.997 90.754 90.849 97.117 98.434 99.194 99.819 97.609 90.939 91.497 92.214 91.939 91.442 91.402 91.504 91.219 91.224 91.392 92.332 92.849 95.417 93.947 92.454 91.757 92.284 92.137 93.297 92.892 92.772 91.377 91.224 91.174 91.117 91.122 91.094 91.062 91.024 90.862 90.464 90.367 90.349 94.372 97.027 97.262 96.849 96.004 93.944 90.442 90.284 90.544 90.167 90.069 89.914 89.929 89.999 89.991 89.981 90.044 90.161 90.979 92.374 91.974 90.999 93.134 96.694 99.189 100.386 100.029 99.499 95.331 91.046 91.084 90.226 90.136 90.124 90.111 90.104 90.554 90.986 91.439 93.219 93.229 96.216 96.701 90.604 91.331 91.561 92.934 92.751 93.994 92.861 90.689 90.751 90.436 91.414 91.504 91.151 90.706 90.269 90.274 90.264 90.264 91.179 96.509 99.881 99.944 99.179 98.029 97.814 94.179 90.444 90.944 91.664 91.466 91.074 90.416 90.341 90.289 90.359 90.424 90.684 90.894 90.574 90.929 92.656 92.479 92.186 91.981 93.796 99.149 99.994 99.114 98.964 99.104 96.321 94.239 92.264 92.266 93.494 93.739 93.344 93.804 93.819 92.524 91.806 91.559 91.469 91.374 91.264 91.574 92.721 95.061 94.661 96.784 98.651 93.474 94.299 91.244 90.321 90.274 90.236 90.221 90.194 90.124 90.124 90.071 90.269 90.391 90.306 91.119 91.086 90.376 91.406 95.721 97.766 97.356 97.569 97.071 95.616 90.944 89.866 89.476 89.651 89.234 89.736 89.084 88.534 88.649 88.664 88.664 88.719 89.034 89.811 89.669 90.024 90.314 91.406 95.486 97.029 94.461 93.776 93.571 95.571 92.168 91.848 92.238 92.506 92.663 92.801 92.888 93.523 93.788 95.686 95.996 96.846 96.678 94.576 93.933 94.013 94.728 100.286 97.173 95.788 97.601 95.493 95.926 94.228 90.983 90.971
89.392 89.45 90.842 90.232 90.052 91.852 92.677 93.997 90.332 91.095 93.402 95.895 96.63 96.625 97.195 97.1 96.44 95.337 94.365 91.985 89.577 92.447 93.267 91.962 90.382 88.882 88.16 87.602 87.505 87.317 87.207 87.47 87.042 86.937 86.912 86.897 86.9 87.017 86.61 86.53 86.52 86.527 86.71 86.897 86.727 86.812 86.904 86.962 87.382 87.729 87.389 87.537 87.757 87.692 89.679 91.359 88.642 89.917 91.209 93.464 94.489 89.734 88.942 88.964 89.487 92.524 97.869 95.929 93.149 92.297 90.629 94.319 93.512 92.364 90.482 90.034 89.979 89.572 89.934 90.037 89.517 89.562 89.574 90.009 89.779 89.667 89.892 90.839 89.584 91.462 90.809 89.597 89.659 89.757 91.884 92.362 92.529 92.714 92.812 92.004 90.994 94.752 96.082 96.387 95.624 91.447 90.692 95.454 96.567 97.162 97.474 97.822 95.469 96.824 96.264 96.319 96.532 96.124 93.669 89.822 90.987 89.649 88.864 88.937 88.927 88.507 88.444 88.784 89.374 88.774 88.979 88.554 88.472 88.489 88.472 88.487 88.864 88.969 89.427 89.499 88.544 88.502 89.882 90.262 88.884 88.644 89.517 90.004 91.897 95.402 96.319 96.809 97.107 97.307 89.752 93.319 97.814 97.799 97.279 95.712 95.487 95.962 95.259 92.029 88.954 93.157 95.437 95.842 95.014 90.559 90.044 91.892 95.219 95.269 94.224 90.872 90.924 90.869 90.474 93.302 93.647 92.269 91.012 93.889 100.047 100.129 99.047 98.567 93.977 90.889 90.832 90.954 90.822 90.817 90.767 90.827 90.904 94.992 95.939 95.724 95.972 94.457 93.284 93.942 95.564 94.532 91.654 91.459 91.444 91.339 91.404 91.839 94.274 95.659 99.969 98.587 94.379 92.709 91.712 91.382 92.567 95.202 91.859 91.289 91.262 91.192 91.182 91.157 91.139 91.117 91.092 91.219 90.784 90.482 90.379 92.954 95.137 94.287 95.112 95.724 95.839 90.782 90.969 91.202 90.187 90.107 90.044 90.021 90.089 90.131 90.101 90.106 90.381 91.379 91.204 90.931 90.929 94.046 97.066 98.481 99.974 100.311 98.759 96.714 91.356 91.154 90.279 90.206 90.606 90.859 91.656 93.546 92.176 91.724 91.881 97.099 94.204 95.009 91.186 90.531 90.691 90.361 91.269 90.946 91.591 91.189 90.249 92.099 91.346 90.531 90.306 90.286 90.296 90.309 90.301 90.286 90.674 93.534 98.811 98.686 98.149 97.596 96.121 92.844 90.966 91.656 91.256 90.741 90.401 90.446 90.741 90.411 90.471 90.524 90.544 90.576 90.619 91.189 92.591 91.609 91.744 92.139 93.341 99.551 100.654 100.109 100.499 100.304 98.609 95.209 92.899 92.731 93.991 94.199 93.304 93.644 93.384 92.596 91.724 91.591 91.519 91.429 91.584 92.366 93.664 94.384 96.299 96.069 100.094 98.851 93.741 90.764 90.434 90.414 92.586 90.319 90.279 90.241 90.241 90.479 91.139 90.961 90.641 90.501 90.431 90.644 90.671 93.856 97.111 98.534 98.276 96.641 92.919 90.906 90.404 89.994 89.629 89.059 88.839 88.624 88.611 88.731 88.801 88.804 88.819 89.206 89.294 89.574 89.906 90.289 90.591 91.181 93.276 92.704 95.814 97.946 98.683 95.566 91.826 91.951 92.423 92.748 93.961 96.761 95.951 94.991 96.118 96.323 95.828 95.223 93.913 95.701 94.633 94.936 101.986 100.111 97.548 95.738 95.528 94.416 93.341 91.928 91.006
89.53 91.342 92.422 93.465 95.582 95.667 96.025 96.207 92.87 90.577 92.972 95.557 96.372 97.427 97.262 96.135 95.782 95.365 94.14 92.105 88.532 89.527 88.605 87.975 87.595 88.097 88.65 87.25 87.235 87.16 87.095 86.997 87.072 86.96 86.922 86.882 86.86 87.17 87.09 86.565 86.535 86.542 86.7 87.177 86.735 86.812 86.907 86.984 87.062 88.169 87.744 87.774 88.564 89.659 87.922 89.677 89.577 91.304 91.459 93.912 95.917 93.282 91.099 91.959 90.064 93.059 98.737 94.897 90.789 90.507 89.619 90.739 90.004 89.737 90.232 89.782 89.659 89.719 89.569 90.224 90.019 89.579 89.649 89.877 89.879 89.689 89.747 90.664 89.722 91.084 91.402 89.832 89.734 89.737 91.597 92.797 92.819 92.234 93.104 93.947 92.359 92.742 95.937 97.029 98.229 98.184 90.547 95.167 97.877 97.939 97.707 97.239 95.842 94.647 95.559 94.154 92.777 93.444 90.237 89.979 89.839 89.419 88.767 88.522 88.982 89.034 88.572 88.522 88.529 88.504 88.489 88.487 88.544 88.892 89.389 88.824 88.947 88.559 89.914 89.114 89.964 89.704 89.589 90.509 91.092 93.867 95.709 96.334 89.342 97.279 97.014 97.194 96.659 96.309 92.192 90.897 97.749 95.962 92.102 90.059 94.922 95.864 95.562 93.589 89.654 90.649 95.139 95.727 93.269 91.357 89.357 89.724 93.137 92.124 89.934 90.062 90.882 91.264 90.789 91.152 91.484 92.569 93.992 95.489 99.627 100.122 99.169 98.487 95.112 90.857 90.762 91.244 90.897 90.937 91.712 90.839 91.079 93.179 95.854 99.594 100.592 100.502 99.167 100.237 100.252 96.964 92.062 91.864 92.232 92.494 93.087 92.167 92.374 95.739 95.642 99.139 94.327 91.482 91.464 91.447 94.652 95.807 92.187 91.329 91.322 91.292 91.222 91.734 91.432 92.842 94.152 92.104 91.587 90.902 91.819 94.129 96.569 97.682 98.097 98.462 97.679 95.902 90.624 91.099 91.389 90.214 90.146 90.091 90.176 90.226 90.216 90.169 90.289 90.636 91.716 91.194 90.921 97.134 98.554 98.616 99.566 100.244 99.099 97.509 92.024 91.299 90.679 91.279 92.654 92.369 91.214 91.281 90.471 90.599 90.821 90.839 92.254 92.199 92.099 90.351 90.521 90.276 90.679 92.789 93.174 91.776 90.561 90.391 90.346 90.321 90.284 90.321 90.311 90.336 90.341 90.589 90.451 92.694 95.501 97.386 95.551 93.161 93.286 94.586 90.941 91.631 91.521 90.536 90.579 91.234 91.721 90.519 90.709 90.941 90.671 90.641 90.686 90.801 91.154 91.436 91.636 91.789 91.979 96.609 100.276 101.139 101.776 100.974 100.491 95.859 93.106 92.856 92.459 91.861 91.731 91.759 92.164 91.979 91.781 91.684 91.639 91.506 92.506 93.101 93.309 93.424 100.906 102.934 102.849 98.914 102.144 93.146 93.091 94.819 94.824 96.641 91.414 90.704 91.241 90.971 90.996 90.699 90.619 90.649 90.629 90.579 90.304 91.539 96.106 97.614 96.951 94.341 90.869 92.134 90.596 89.884 89.519 89.234 89.019 88.826 88.711 88.751 88.854 88.906 88.909 88.974 89.179 89.486 90.416 90.954 90.639 91.361 94.199 96.396 98.516 99.684 99.736 98.058 94.486 91.853 92.318 94.306 95.848 96.951 96.076 93.318 93.971 94.336 96.101 94.778 97.966 96.718 96.901 96.128 97.481 95.811 97.163 95.961 94.698 95.288 94.793 94.523 92.608
94.072 95.542 96.612 96.28 96.51 96.765 97.157 96.78 94.327 91.117 94.67 95.232 96.175 96.672 96.5 95.077 94.107 93.162 90.967 91.33 90.915 87.737 87.685 87.68 87.557 90.012 89.1 87.325 87.197 87.152 87.082 86.995 87.302 86.965 86.927 86.872 86.837 87.125 86.83 86.6 86.595 86.577 86.57 86.917 86.772 86.837 87.072 86.967 87.039 87.804 87.917 87.762 87.842 88.387 88.437 89.234 91.634 93.937 93.619 94.764 95.592 92.924 92.777 96.064 91.189 92.724 95.959 93.062 89.759 89.727 89.657 90.132 89.977 89.722 89.747 89.842 89.677 89.619 89.617 90.799 90.334 89.654 89.757 89.702 90.504 89.712 89.724 89.994 89.952 89.759 91.362 92.407 89.804 89.727 90.537 92.799 92.909 94.722 95.417 95.792 94.042 95.999 97.017 97.554 98.532 98.462 95.167 91.424 97.249 96.822 96.537 95.359 93.819 90.669 90.819 89.314 89.127 89.757 89.009 88.604 88.607 88.652 89.534 88.937 88.814 88.524 88.517 88.524 88.574 88.654 88.877 89.329 89.077 88.524 88.582 88.554 88.657 88.684 88.769 89.014 89.492 91.557 90.037 95.234 96.287 96.949 97.227 97.349 92.479 96.637 96.092 95.727 95.644 95.087 93.392 90.342 95.844 94.742 89.084 89.957 94.084 95.552 95.882 94.842 89.774 89.364 91.182 90.537 89.792 89.877 89.314 89.452 89.409 89.622 90.259 90.302 90.777 90.779 90.817 91.414 95.764 96.827 96.824 96.937 98.852 99.639 99.944 98.769 96.557 91.699 90.952 91.734 91.102 91.017 91.452 91.027 91.292 94.062 99.287 99.784 100.522 100.619 100.357 100.277 100.394 98.039 92.369 91.512 91.724 91.519 91.432 91.424 91.547 91.917 94.747 98.254 97.289 92.089 91.482 92.082 95.267 92.969 92.502 92.877 93.779 92.024 92.014 93.562 92.972 93.629 93.057 91.927 91.059 91.602 93.242 96.147 98.537 98.724 99.399 99.359 98.489 98.484 92.317 90.812 90.439 90.319 90.241 90.189 90.279 90.326 90.304 90.286 90.366 90.841 90.799 90.799 90.881 95.259 97.759 97.809 98.931 98.829 98.369 97.811 93.946 92.014 91.856 91.489 91.924 91.256 90.519 90.499 90.494 90.464 90.491 90.496 90.874 91.694 92.176 90.944 90.684 91.236 90.741 91.406 90.506 90.484 90.444 90.426 90.426 90.381 90.371 90.366 90.329 90.329 90.324 90.349 91.111 91.339 92.374 91.961 95.426 97.689 98.416 96.844 91.104 90.899 90.641 90.561 90.784 91.171 92.394 90.879 94.184 91.539 90.784 90.786 90.781 90.876 91.214 91.459 91.631 92.571 92.021 95.131 99.756 100.954 102.236 101.421 100.786 98.701 94.171 92.914 92.399 91.931 91.739 91.734 91.704 92.181 92.181 91.856 95.334 93.311 91.941 92.804 92.866 93.984 100.724 106.134 103.749 101.364 101.806 97.434 93.814 94.259 97.509 95.419 93.766 92.021 92.054 90.794 90.764 90.779 90.761 90.751 90.721 90.686 90.389 90.256 93.924 94.286 91.949 93.696 92.744 93.146 93.579 90.496 89.724 89.399 89.194 89.049 88.869 88.836 88.946 89.024 89.074 89.014 89.179 89.394 90.104 90.504 90.924 90.991 94.559 97.749 98.446 99.606 100.373 98.996 96.048 92.341 93.261 93.808 95.123 94.398 93.236 93.191 93.306 93.441 95.571 96.113 97.466 98.073 95.726 96.323 95.421 94.456 96.693 96.718 96.633 95.881 94.311 91.871 94.096
96.12 96.742 97.12 97.85 97.515 97.645 97.277 96.79 95.865 89.772 94.312 94.235 95.377 94.827 93.542 91.782 90.115 90.24 88.345 90.065 91.32 88.277 87.68 87.565 87.485 88.715 90.272 87.477 87.192 87.135 87.077 87.01 87.422 87.207 86.957 86.902 86.857 86.917 87.537 88.002 86.66 86.61 86.557 86.765 86.86 86.832 86.922 87.012 87.049 87.584 88.514 89.107 89.899 89.964 89.927 90.072 90.692 90.869 91.374 91.767 91.879 92.002 91.697 90.929 89.484 90.132 89.759 89.584 89.767 89.949 90.292 89.634 89.957 89.784 89.697 90.994 89.924 89.712 89.947 90.147 90.537 90.799 90.617 89.777 90.537 89.787 89.854 90.217 90.139 90.457 93.384 94.862 90.927 89.699 90.019 93.312 94.672 96.212 96.639 97.022 96.997 93.962 98.217 98.207 97.879 97.444 95.739 90.792 95.244 92.627 92.122 89.444 89.484 89.169 88.834 88.584 88.474 88.542 88.584 89.122 89.199 88.639 88.529 88.527 88.529 88.529 88.682 89.107 88.609 89.889 88.807 88.537 88.577 88.722 89.094 88.872 88.847 90.009 91.064 91.699 95.764 96.427 93.072 94.654 97.277 97.127 96.597 96.107 93.147 91.912 94.699 94.827 94.804 94.139 89.822 88.844 93.284 95.104 90.782 90.327 92.912 94.239 93.642 89.934 89.119 89.169 89.817 89.289 89.254 89.039 89.182 89.799 89.662 89.672 90.462 89.944 91.894 91.159 90.809 90.929 94.934 96.987 96.999 96.627 97.012 98.579 99.764 99.227 98.719 93.054 91.382 91.164 91.324 91.097 91.192 91.654 91.154 92.854 98.114 99.272 100.362 100.319 100.399 100.389 100.279 98.782 91.679 91.509 91.499 91.694 91.832 92.872 92.777 92.109 95.562 100.612 100.489 93.942 91.504 92.469 94.014 92.477 91.469 93.144 95.279 93.619 92.824 92.452 92.017 91.452 91.844 91.589 90.864 90.892 91.419 94.164 98.367 99.487 99.559 98.734 97.724 97.167 92.469 90.502 90.577 90.869 90.774 90.336 90.336 90.386 90.421 90.391 90.426 91.006 90.839 90.831 91.029 92.644 95.736 97.889 97.719 96.391 94.679 94.104 91.651 91.004 90.751 90.696 90.639 90.649 90.621 90.564 90.549 90.514 90.511 90.544 90.809 92.266 94.261 93.051 91.351 90.601 90.539 90.509 90.524 90.504 90.481 90.454 90.451 90.424 90.394 90.361 90.326 90.364 90.429 91.236 92.069 92.461 91.971 95.396 98.554 99.561 99.916 98.411 94.061 92.449 91.024 90.609 90.829 91.661 92.834 91.614 90.894 92.116 90.869 90.894 90.889 90.939 91.186 92.651 91.669 92.166 92.414 93.581 98.591 100.826 102.081 102.114 101.366 100.671 95.646 94.589 93.016 92.304 91.796 91.731 91.976 92.449 92.329 93.506 98.491 97.494 92.704 91.841 92.484 92.786 94.461 102.264 105.239 106.276 99.826 96.109 95.509 95.726 96.151 94.956 94.554 93.191 93.116 90.884 90.856 90.831 90.824 90.784 90.776 90.771 91.036 91.506 91.029 93.081 96.354 96.641 95.524 96.839 96.131 94.076 89.949 89.534 89.454 89.439 89.089 88.944 88.999 89.111 89.159 89.139 89.211 89.634 89.944 90.176 90.524 90.814 93.839 98.566 98.646 98.759 100.218 99.856 98.081 95.151 94.191 92.631 92.458 92.563 93.168 94.486 94.766 95.996 96.838 96.713 100.053 95.678 94.468 94.456 94.908 95.206 94.526 95.138 95.586 94.241 93.783 92.481 93.633
95.477 96.972 98.007 98.147 97.915 97.225 96.742 96.037 94.982 90.535 89.725 90.73 89.502 90.302 89.37 90.462 89.955 88.795 88.16 88.252 88.67 89.135 87.8 87.602 87.505 87.5 90.457 87.785 87.2 87.117 87.042 87.005 86.992 87.277 86.967 87.4 86.857 86.857 87.32 87.88 86.692 86.655 86.667 88.162 89.102 86.852 86.939 87.019 87.074 87.312 88.982 89.974 90.159 90.427 89.467 89.379 90.629 89.567 89.969 90.582 90.764 90.589 91.769 91.059 89.532 89.572 89.502 89.537 89.997 90.407 90.059 89.834 90.792 90.324 90.004 90.507 90.184 89.804 90.017 90.592 91.487 92.139 90.162 89.834 90.322 89.822 90.402 92.724 92.847 94.727 96.074 96.132 94.607 93.594 90.054 93.874 97.019 97.419 97.667 97.609 97.342 93.384 97.567 97.092 96.684 95.759 93.684 89.604 89.557 89.389 88.957 88.749 88.872 88.504 88.812 89.164 89.172 89.224 88.672 88.539 88.532 88.524 88.504 88.827 89.042 88.602 88.874 88.922 88.544 88.722 89.587 89.262 89.329 88.777 90.314 91.784 93.969 96.219 95.987 92.949 97.244 97.654 95.632 92.189 96.059 95.622 95.494 94.819 93.119 89.397 91.582 94.567 95.299 94.704 92.407 88.569 90.692 95.462 92.602 89.242 89.842 91.052 91.022 89.004 88.924 89.277 89.077 89.147 89.559 89.274 89.344 89.832 89.697 89.652 90.144 90.694 93.199 91.497 91.852 91.697 94.332 96.894 96.857 96.839 95.797 98.257 99.589 100.417 99.114 94.399 91.569 91.217 92.169 91.162 91.184 91.912 91.119 91.434 94.587 99.147 99.972 99.982 100.262 100.154 98.577 96.214 91.857 91.999 92.112 92.907 92.554 92.159 91.717 91.699 92.754 98.474 99.867 95.332 91.549 91.694 91.897 91.719 92.094 91.827 92.122 91.809 91.754 91.557 91.509 91.464 91.404 91.309 90.897 90.864 90.929 93.094 98.619 99.904 100.332 98.977 97.079 94.327 93.099 91.924 92.769 92.387 91.496 90.439 91.566 90.536 90.536 90.479 90.469 90.614 90.811 90.934 91.331 92.804 94.504 95.716 95.466 97.429 96.991 94.286 91.266 91.229 90.811 90.749 90.714 90.686 90.636 90.606 90.586 90.546 90.539 90.526 90.976 91.221 92.454 91.764 90.626 92.409 92.974 94.156 91.334 92.501 90.851 90.504 90.466 90.419 90.369 90.396 90.594 91.599 91.859 92.149 91.971 92.174 92.104 92.944 97.961 100.149 100.826 99.119 97.146 97.564 94.886 91.081 90.826 91.431 91.646 92.146 90.906 90.871 90.939 91.019 91.009 91.229 91.136 92.036 91.791 92.161 93.061 94.739 97.919 100.109 101.574 101.816 101.406 101.356 97.196 94.914 93.329 92.374 92.411 92.951 92.574 93.471 95.276 95.826 97.574 96.411 92.269 91.744 92.379 92.126 91.846 93.831 97.731 98.791 96.706 94.041 93.956 95.339 95.499 94.466 93.151 93.116 91.946 90.939 90.906 90.901 90.884 90.886 90.981 91.809 92.386 91.519 91.181 95.074 97.836 98.056 97.986 97.899 96.799 92.194 90.449 90.071 90.036 89.824 89.204 89.121 89.176 89.186 89.246 89.291 89.281 89.434 89.689 90.076 90.389 90.721 91.489 95.971 94.779 97.584 99.671 101.013 100.303 95.891 94.228 94.371 92.728 92.371 93.033 94.796 95.883 99.118 97.078 98.503 96.561 94.376 94.478 94.448 95.016 95.561 96.483 96.666 95.226 94.406 93.826 93.241 93.013
95.425 96.6 97.495 97.202 97.04 96.082 95.732 94.612 90.525 89.887 90.547 89.322 89.075 88.937 88.935 90.807 89.67 88.212 88.155 88.095 89.135 88.99 89.015 87.617 87.537 87.455 89.607 88.872 87.232 87.095 87.017 87.012 86.97 87.065 87.495 87.622 86.957 86.822 86.9 87.125 86.76 86.76 86.77 87.367 88.43 87.255 87.132 88.832 87.884 87.437 89.649 89.689 89.762 90.419 88.692 88.537 89.437 90.437 89.294 91.639 90.009 89.467 89.689 90.087 89.479 89.749 90.069 89.647 89.604 91.104 90.202 90.789 90.662 90.037 90.369 90.009 91.042 89.899 90.174 91.814 93.459 94.757 92.307 89.887 90.599 92.154 95.097 95.429 96.382 95.984 97.679 97.122 96.914 96.122 89.977 92.402 97.404 97.304 96.909 96.524 95.242 92.412 94.582 93.094 91.449 89.752 89.992 89.327 88.879 88.577 88.494 88.634 89.127 89.074 88.839 88.774 88.519 88.557 88.529 88.512 88.659 89.442 88.832 90.749 88.657 88.599 88.667 88.737 88.929 88.927 89.444 90.744 91.597 94.039 95.694 96.067 96.634 96.877 97.044 95.097 94.679 97.862 97.042 89.444 94.687 94.644 94.982 93.844 91.247 88.524 88.587 94.437 95.242 94.974 93.834 88.992 89.007 92.029 91.189 88.774 89.047 89.844 89.639 89.137 88.927 89.114 89.194 89.199 89.444 89.512 89.447 89.832 89.684 89.642 90.222 92.092 91.904 90.589 90.604 90.667 91.732 95.527 93.484 91.842 91.362 97.902 100.782 100.972 100.279 98.434 91.624 91.124 91.864 91.247 91.259 91.229 91.179 91.282 94.132 99.052 99.944 99.854 99.269 95.509 93.812 93.237 92.432 93.457 91.837 92.172 92.082 91.697 91.704 91.674 92.107 94.039 95.107 92.992 92.422 93.227 91.962 91.977 92.297 92.332 91.634 91.627 91.622 91.597 91.574 91.497 91.447 91.502 91.079 90.889 91.479 91.457 98.734 99.694 100.429 99.569 98.434 94.899 92.812 91.537 90.819 90.629 90.549 90.539 91.159 90.789 90.616 90.609 90.566 90.716 91.519 91.564 91.224 91.344 95.299 98.679 99.216 98.456 97.974 98.094 93.184 91.449 91.064 90.804 90.774 90.744 90.679 90.804 91.284 92.771 92.731 91.321 93.909 92.526 92.846 92.434 93.521 95.944 92.334 93.856 92.344 93.346 93.849 90.544 90.481 90.466 91.076 91.854 91.391 92.061 91.766 91.064 91.414 91.531 91.879 91.471 96.239 99.529 100.881 99.856 98.669 98.986 97.919 91.981 90.904 90.931 91.159 91.439 91.001 90.981 91.029 91.116 91.121 92.019 91.226 92.281 96.129 98.434 95.009 93.331 94.609 99.569 101.019 100.706 101.381 101.231 97.604 95.404 94.746 92.626 97.041 97.419 94.594 93.256 95.004 92.226 92.916 91.956 91.634 91.516 92.364 92.856 93.084 93.559 95.149 96.489 97.699 96.489 97.071 94.959 92.074 93.209 96.476 94.124 91.526 91.011 90.994 90.949 91.514 96.361 97.616 94.626 91.464 90.876 90.676 91.479 96.731 98.606 99.189 97.774 95.176 91.889 91.166 90.879 89.984 89.654 89.391 89.284 90.321 89.254 89.314 89.401 89.396 89.471 89.716 90.109 90.266 90.574 90.879 92.504 93.346 96.789 99.156 100.663 100.603 98.998 95.703 95.121 94.678 92.641 93.476 96.628 99.118 96.538 96.221 94.268 94.273 94.303 94.368 94.576 97.393 95.971 96.676 97.121 96.271 95.476 94.363 94.001 94.696
95.472 96.195 96.425 95.987 95.177 92.692 91.247 89.375 89.235 89.55 90.897 89.85 89.142 89.055 88.777 88.86 90.337 88.39 88.14 88.085 89.732 92.1 89.267 87.62 87.54 87.472 88.075 90.45 87.597 87.09 87.022 86.985 86.95 87.245 87.102 86.935 86.88 86.835 86.837 87.015 87.457 87.102 87.845 91.995 87.575 87.185 87.104 88.727 88.099 88.979 89.242 90.089 90.879 90.289 88.717 88.537 89.997 94.527 89.337 89.732 90.464 89.189 89.347 90.342 89.567 89.644 90.339 89.842 89.967 91.519 90.039 90.764 91.792 91.414 91.827 90.042 91.632 90.372 89.832 93.447 96.004 95.837 93.977 92.632 93.314 92.582 95.049 98.184 98.167 98.364 98.364 98.277 97.949 98.032 91.834 89.617 95.902 96.739 95.519 92.717 89.744 89.619 89.567 89.504 89.244 88.887 88.777 88.542 88.537 88.994 89.044 88.567 88.719 88.572 88.542 88.542 88.547 88.892 88.914 89.237 88.837 89.014 88.687 89.037 88.957 88.944 89.567 88.999 90.069 92.284 94.674 95.664 96.099 96.597 96.877 97.222 98.072 96.877 96.619 96.009 92.984 97.857 97.067 90.832 90.349 94.257 94.707 95.022 93.187 88.027 88.322 93.597 94.877 95.302 94.582 89.524 89.832 89.979 89.889 89.059 88.852 89.022 88.942 89.389 89.114 89.092 89.559 89.282 89.592 90.169 89.564 90.067 91.522 91.177 90.394 90.474 90.497 90.567 91.224 91.237 91.224 91.234 91.512 93.167 93.214 98.002 100.249 100.994 100.027 97.389 91.417 91.427 92.007 91.689 91.362 91.572 91.682 91.357 93.012 99.029 99.444 98.087 95.279 93.317 95.579 98.024 98.767 97.969 91.937 92.139 92.397 91.807 92.124 92.242 94.262 97.627 97.717 94.864 94.329 94.787 92.224 91.972 91.992 91.772 91.667 91.652 91.654 91.632 91.577 91.527 91.489 91.682 91.424 91.184 91.509 93.722 97.192 99.824 100.697 100.197 98.549 96.807 96.872 91.809 90.787 90.722 91.909 91.416 90.681 90.614 90.676 90.669 90.636 90.741 90.976 91.479 92.214 91.724 92.881 98.879 100.119 99.349 99.484 98.869 94.311 91.451 91.254 90.996 91.869 92.561 93.114 93.084 91.771 92.561 92.151 93.026 92.671 92.266 92.146 94.971 95.364 94.539 96.094 95.396 94.021 95.564 92.914 90.889 91.749 91.994 91.596 91.394 91.364 91.286 91.531 91.139 90.981 91.204 91.056 91.036 92.616 98.404 100.374 100.594 99.221 97.766 95.539 91.216 91.121 91.271 91.006 91.049 91.094 91.109 91.091 91.186 91.234 91.751 91.336 91.719 96.764 98.229 93.596 92.166 92.364 97.076 100.906 101.049 99.489 98.586 96.016 93.764 94.359 93.719 96.931 97.514 92.869 92.129 92.019 91.936 91.876 91.859 93.146 91.644 92.141 92.959 97.966 96.019 95.374 96.511 97.894 96.429 96.496 91.621 92.411 96.636 94.881 92.944 91.094 91.189 91.251 91.579 95.066 99.036 99.106 94.091 91.246 91.016 90.761 91.081 94.739 97.821 97.959 96.759 93.464 91.599 92.059 90.424 90.139 89.859 89.644 90.491 91.211 89.344 89.416 89.501 89.541 89.531 89.694 90.034 90.416 91.639 92.574 94.236 93.851 95.594 98.596 100.018 100.801 100.078 95.808 94.178 95.258 93.823 95.313 95.621 94.673 94.403 94.286 94.308 94.308 94.296 94.278 99.108 98.943 99.598 100.423 97.396 96.466 95.708 95.001 95.141 95.286
93.272 93.742 93.542 91.775 89.645 90.302 89.397 89.5 88.985 89.442 90.142 89.277 89.16 88.56 88.457 88.53 90.182 89.3 88.542 88.057 88.402 90.882 89.872 87.65 87.552 87.48 87.452 87.885 87.455 87.125 87.02 87.007 86.977 86.977 87.195 87.022 86.872 86.89 86.9 87.19 89.892 88.737 94.727 97.06 90.42 88.267 88.257 87.697 87.697 88.822 88.757 88.187 89.297 89.804 88.654 88.574 88.654 90.359 89.562 89.119 90.777 89.304 89.187 90.454 90.604 89.712 89.754 90.344 89.892 90.699 90.499 92.867 94.622 94.667 93.279 90.549 91.509 91.012 89.912 92.119 95.537 96.004 95.397 91.892 93.804 93.277 93.049 98.309 98.292 98.474 98.082 97.507 97.477 97.102 94.112 89.377 92.822 92.259 90.152 89.499 89.482 89.212 89.119 89.032 88.512 88.502 89.249 89.432 88.457 88.717 88.507 88.519 88.542 88.599 88.904 88.764 89.322 89.122 88.514 88.652 88.942 88.754 89.277 89.737 89.347 89.369 92.097 93.922 95.562 96.164 96.679 97.217 97.292 97.569 97.624 97.619 97.539 95.734 96.002 96.057 90.937 95.312 93.614 88.157 88.124 92.869 94.834 95.232 94.432 89.734 88.859 90.919 94.634 94.359 90.712 89.092 89.644 88.822 88.639 88.809 89.117 89.039 89.117 90.792 89.454 89.154 90.022 89.487 89.537 90.532 89.987 90.287 92.062 90.874 90.454 91.024 90.762 91.499 91.684 91.787 91.672 92.327 96.604 97.087 97.284 98.102 98.927 100.959 100.537 99.047 92.177 92.634 91.577 91.909 91.382 91.564 91.932 91.447 92.467 95.064 95.687 97.899 99.274 99.657 98.677 98.444 98.197 97.102 93.042 92.002 92.914 92.054 91.947 92.004 93.539 97.382 97.087 96.327 94.817 94.794 92.944 91.984 91.982 91.809 91.684 91.669 91.742 91.724 91.922 93.654 92.287 92.004 91.954 92.022 92.492 94.559 96.902 100.432 100.694 100.587 99.077 98.662 98.774 95.774 90.867 90.799 90.976 90.789 90.711 90.719 90.766 90.804 90.756 90.824 91.016 91.219 91.386 91.356 92.159 98.484 100.071 100.709 100.821 99.316 96.879 92.474 94.324 93.559 94.076 93.971 92.016 92.559 92.199 91.261 91.449 91.529 91.314 92.069 91.841 94.196 97.641 99.479 98.101 96.109 94.219 94.081 92.206 92.161 91.651 91.586 91.669 91.269 91.326 91.349 91.624 91.474 91.046 91.194 91.044 90.984 91.041 97.601 99.659 100.581 99.349 97.556 94.659 92.644 91.861 91.444 91.396 92.301 92.154 91.184 91.186 91.246 91.349 91.366 92.009 91.461 92.656 94.844 94.276 93.256 92.649 93.921 98.981 99.571 98.581 95.301 95.409 97.056 98.234 96.296 95.051 92.909 92.764 92.199 92.084 91.999 91.936 92.961 92.591 96.061 95.369 95.546 95.981 98.266 98.441 96.434 96.209 98.671 98.906 96.671 94.381 93.534 94.059 91.314 91.354 92.504 93.199 91.824 91.701 93.204 92.011 91.356 91.321 91.171 90.846 91.146 93.211 95.161 94.199 93.454 94.341 96.271 95.129 92.526 90.289 90.071 89.861 90.669 89.529 89.446 89.521 89.556 89.646 89.649 89.711 89.961 91.049 91.261 91.471 91.711 94.314 98.839 99.218 99.476 100.353 99.816 97.333 94.571 94.546 94.291 93.936 93.921 93.903 94.173 94.293 94.323 94.326 94.308 95.401 98.263 97.933 98.568 98.213 96.031 95.156 95.023 95.233 95.888 97.653
92.227 91.552 90.305 89.527 89.54 90.88 90.18 89.632 88.762 88.685 89.645 89.472 89.622 88.45 88.36 88.537 89.572 91.712 88.097 88.067 88.015 88.082 88.31 87.782 87.597 87.515 87.487 87.487 87.515 87.182 87.142 87.94 87.042 86.995 87.117 87.092 86.917 87.247 87.16 88.807 88.705 88.242 94.337 96.207 90.102 88.085 87.322 87.709 87.634 87.769 88.472 88.627 88.227 88.137 88.809 88.574 88.672 89.114 89.834 89.072 89.639 90.014 89.249 89.982 90.934 89.947 89.857 89.929 89.832 90.464 91.047 92.317 94.889 95.817 93.767 92.394 90.627 91.059 90.442 90.657 95.514 96.087 96.174 96.577 95.664 94.827 92.624 97.947 97.729 97.472 97.052 96.654 96.274 95.054 93.129 89.609 89.417 89.449 89.167 88.852 88.607 88.602 88.672 89.177 89.172 88.624 88.702 88.527 88.514 88.492 88.512 88.892 88.889 88.952 89.147 88.619 88.582 88.987 89.227 89.389 89.497 89.449 90.894 94.779 93.129 91.434 96.147 96.537 96.989 97.207 97.177 97.892 97.594 97.599 97.602 97.427 95.017 90.232 94.919 96.354 92.074 92.524 94.417 89.614 88.287 91.932 94.594 95.362 94.702 92.344 88.827 89.679 89.289 89.642 88.974 88.187 89.172 89.509 88.667 88.634 88.757 89.077 89.042 90.594 90.379 89.489 89.734 90.069 89.957 90.757 90.924 91.477 92.242 91.784 92.057 91.677 91.374 91.172 91.019 90.982 91.364 93.019 96.192 98.034 97.957 98.097 99.242 100.552 100.794 100.102 96.547 93.424 91.612 91.639 91.467 91.489 91.779 91.522 91.839 93.024 98.977 99.804 100.562 100.324 95.902 94.884 92.749 92.234 91.907 92.172 91.947 91.867 91.872 91.867 92.254 95.919 97.329 97.027 95.037 94.827 93.372 93.564 93.217 92.429 92.027 91.759 94.097 92.724 92.109 92.324 92.899 91.847 91.992 91.647 91.399 92.939 95.259 99.027 99.739 100.774 99.447 98.359 97.562 95.292 90.907 90.877 90.861 90.844 90.821 90.791 90.856 90.939 90.881 90.876 91.076 91.419 91.836 92.024 91.549 98.584 99.776 101.354 101.419 99.829 97.866 92.319 94.889 94.971 93.129 91.816 91.551 91.391 91.384 91.341 91.329 91.306 91.719 91.704 92.841 92.181 93.114 90.936 92.401 96.831 96.726 92.611 91.671 91.439 91.471 92.399 91.874 91.494 91.764 91.756 91.551 91.081 90.976 90.856 90.874 91.021 91.079 95.449 98.911 98.991 98.269 97.274 94.979 93.521 91.744 92.424 91.809 91.319 91.306 91.274 91.336 91.349 91.424 91.446 92.259 91.759 92.046 92.851 93.559 93.194 92.751 92.971 96.754 94.819 96.009 98.334 100.121 100.809 99.886 97.006 96.201 93.454 92.826 92.296 92.149 92.056 91.956 93.196 94.509 95.479 95.581 95.124 96.269 96.634 97.396 95.904 95.959 100.244 97.121 98.621 97.869 95.411 92.006 91.719 92.704 95.721 94.889 91.661 91.399 91.404 91.429 91.449 91.369 91.334 91.421 91.996 91.339 91.849 96.441 99.669 98.434 97.844 97.984 95.206 90.966 90.239 90.024 90.121 89.674 89.594 89.551 89.676 89.719 89.774 89.786 89.964 90.354 90.626 90.894 91.954 92.726 97.841 98.398 98.508 98.458 96.418 94.528 93.916 93.086 93.263 93.393 93.883 93.698 94.091 94.303 94.316 94.406 94.863 99.513 99.423 96.346 96.303 98.211 99.591 98.181 94.933 97.291 96.538 99.193
89.687 89.542 89.5 89.417 89.33 89.837 91.205 89.197 88.727 88.63 89.267 90.17 90.217 88.4 88.362 88.652 89.107 89.81 88.387 88.07 88.03 87.97 89.99 89.865 87.762 87.932 87.56 87.517 89.332 87.407 87.332 87.342 87.142 87.045 88.035 88.53 87.19 87.705 88.22 89.127 89.162 87.14 88.98 90.367 88.405 88.065 88.297 87.887 87.737 88.504 88.627 88.952 88.887 88.154 88.969 88.687 88.699 89.269 90.314 89.164 89.692 90.209 89.692 89.539 90.062 89.907 90.112 92.192 93.652 91.159 90.962 91.487 95.782 95.864 95.529 95.302 94.864 94.302 91.482 94.277 96.589 97.002 97.349 97.589 97.342 94.402 92.004 93.997 96.624 95.894 94.759 92.692 90.827 89.584 89.237 88.787 88.907 88.759 88.579 89.062 88.757 89.234 88.777 88.607 88.584 88.517 88.519 88.569 88.772 89.512 88.912 88.862 88.664 88.729 89.102 89.134 88.977 89.562 90.312 91.002 94.244 95.729 96.994 97.409 97.012 90.294 96.847 97.204 96.964 96.504 96.089 96.012 96.317 97.057 96.869 96.784 93.142 89.127 93.324 96.379 94.797 91.362 94.699 92.307 87.922 89.834 94.304 93.662 90.522 89.572 88.607 89.829 88.074 88.299 88.984 88.212 88.232 89.342 88.677 88.659 88.694 89.442 90.542 89.707 89.672 89.737 90.389 90.302 90.132 90.279 90.392 90.474 90.694 92.689 92.379 91.079 90.937 90.937 90.964 91.029 91.674 93.529 95.004 97.692 97.429 97.439 99.877 100.454 100.982 100.172 98.452 94.032 92.072 92.094 91.767 91.549 92.304 91.769 91.747 94.187 99.317 100.132 100.849 100.437 94.224 92.679 94.072 95.369 95.899 91.972 91.912 91.914 91.974 92.692 92.977 93.104 96.624 96.542 94.894 94.854 99.217 102.009 99.447 98.494 96.652 95.329 94.214 92.897 92.609 91.937 91.897 91.794 91.532 91.387 91.297 93.339 94.804 97.549 98.807 98.697 96.769 94.382 93.519 92.317 92.129 92.074 92.454 91.446 90.929 90.846 90.964 91.031 91.046 90.981 91.104 91.324 92.574 91.671 91.751 96.141 99.451 101.959 102.081 101.151 99.881 95.134 92.476 92.431 91.749 91.491 91.489 91.456 91.431 91.409 91.366 92.284 92.126 92.276 92.816 91.374 92.329 92.576 92.349 93.986 91.804 91.286 92.086 91.814 91.521 91.516 91.401 91.621 91.354 91.186 91.109 91.071 91.134 90.849 91.049 91.049 91.269 92.919 97.504 96.379 94.516 94.034 93.221 91.976 92.496 91.591 91.434 91.409 91.416 92.389 91.424 91.429 91.511 91.561 91.574 91.576 91.669 91.786 91.981 92.894 93.564 93.764 93.799 96.529 99.024 100.281 101.674 102.126 101.584 98.771 96.374 93.979 92.934 92.459 92.591 96.449 93.664 93.599 96.189 96.869 92.324 92.509 95.131 93.159 95.426 95.021 98.509 102.051 95.371 99.049 96.319 92.999 92.959 93.064 94.066 95.904 94.481 92.964 92.766 91.941 91.451 91.446 91.654 92.011 91.764 92.024 93.266 95.751 99.729 99.776 99.144 98.149 97.859 95.621 90.829 90.369 91.261 90.819 90.171 89.754 89.686 89.736 89.844 89.919 90.679 90.136 90.454 90.666 90.909 91.499 91.974 94.024 96.576 95.728 93.721 96.448 97.861 98.051 93.271 93.006 93.288 93.663 93.716 93.836 94.406 94.428 95.911 97.413 99.083 97.751 95.733 96.026 99.238 98.168 99.143 97.328 100.701 100.743 97.403
90.43 89.87 89.487 89.575 89.352 89.315 91.802 89.585 88.697 88.605 89.947 90.235 90.095 90.74 89.962 88.912 88.702 88.925 88.695 88.09 88.037 87.992 88.787 89.967 88.84 88.555 87.755 87.565 87.61 87.87 88.557 87.115 87.705 87.112 88.435 89.207 89.955 88.66 88.052 88.52 89.005 91.295 87.487 88.822 87.927 88.487 88.907 87.899 88.542 88.214 88.159 88.689 89.862 88.547 88.562 89.462 88.714 88.819 90.992 89.404 89.554 90.914 91.117 91.272 89.669 89.864 95.124 96.099 96.034 94.342 90.074 90.502 95.099 95.962 96.972 97.434 97.892 95.514 91.944 94.727 97.634 97.767 97.727 97.329 97.002 91.459 89.667 92.359 92.379 90.189 89.952 90.194 89.187 88.884 88.747 88.762 88.822 88.524 88.629 88.927 88.534 88.534 88.494 88.509 88.667 88.644 89.052 89.232 88.747 88.549 88.837 88.862 89.517 89.604 90.522 90.069 91.712 93.389 96.167 97.039 97.464 97.862 98.107 98.414 98.819 90.942 93.367 96.054 95.802 95.914 95.119 91.607 89.819 95.524 96.819 96.762 95.137 89.574 91.907 96.059 96.004 89.949 95.044 93.929 88.267 88.332 88.677 88.144 88.764 88.342 88.169 88.547 88.167 88.219 89.209 88.667 88.452 88.972 88.894 89.102 89.197 89.552 90.029 90.517 90.417 90.427 90.619 90.144 90.354 90.217 91.614 90.352 90.282 91.204 91.582 91.067 91.697 91.602 91.237 91.674 91.667 92.059 93.877 96.694 95.619 93.139 94.979 100.107 102.257 100.717 100.529 93.734 91.532 91.729 91.802 91.684 91.619 91.547 91.827 93.287 98.799 100.062 101.042 99.682 97.839 98.559 98.769 98.992 99.182 93.024 92.032 92.269 92.412 92.324 92.054 92.054 94.589 94.522 94.322 96.772 95.809 101.812 97.147 99.404 99.047 95.464 92.267 92.022 92.034 91.967 91.904 91.847 91.727 91.347 91.294 92.092 94.312 95.107 94.267 93.904 93.747 93.729 93.782 93.027 92.149 92.134 91.894 91.409 90.994 90.964 91.036 91.114 91.149 91.091 91.154 91.684 92.254 91.911 92.254 95.576 99.536 100.946 102.161 101.211 100.291 95.699 92.016 92.066 91.899 91.571 91.524 91.499 91.451 91.431 92.709 91.814 91.516 94.446 94.764 95.296 93.281 91.511 91.414 91.371 91.334 91.326 92.569 93.434 91.201 91.221 91.189 91.204 91.214 91.204 91.154 91.079 91.426 91.056 91.046 91.381 92.549 93.634 94.431 93.874 94.059 94.361 94.361 92.004 93.631 93.449 91.856 92.154 91.489 92.949 91.656 91.559 91.596 91.674 91.714 91.659 91.756 93.239 93.609 93.451 92.956 92.869 93.204 97.644 100.294 100.486 101.571 102.741 101.626 100.224 96.641 95.564 93.731 93.106 93.264 95.921 92.839 92.579 92.821 94.826 92.674 91.971 92.626 93.339 99.864 102.719 94.956 99.651 99.384 97.664 94.089 94.521 97.529 97.384 97.556 94.571 94.934 95.949 94.674 92.774 91.606 91.704 92.044 91.601 91.321 92.574 94.284 93.476 98.384 99.756 99.679 98.341 96.439 93.106 90.971 91.001 91.944 90.729 90.379 90.014 89.786 89.829 89.929 89.996 90.556 90.356 90.221 90.629 90.824 91.224 91.539 92.039 92.526 93.231 94.583 98.516 100.523 99.236 95.223 92.776 94.851 94.693 94.976 93.911 95.711 95.591 95.991 96.518 95.721 95.938 96.468 98.386 100.628 101.011 100.541 96.946 99.366 99.456 99.413
90.967 90.39 89.49 90.185 89.78 90.225 93.455 94.105 88.637 88.555 88.482 89.237 89.28 90.435 89.067 88.612 88.392 89.285 88.597 88.125 88.067 88.03 88.49 89.515 89.525 87.94 88.105 88.405 89.975 89.192 93.312 90.997 92.112 88.16 88.99 88.117 89.152 87.837 88.082 88.497 88.22 90.372 88.765 88.067 88.165 88.032 88.727 88.224 88.372 88.079 88.079 88.192 89.262 89.519 88.769 89.964 88.722 88.819 90.919 89.727 92.789 94.392 95.672 94.244 91.064 89.822 93.514 95.909 96.784 95.222 90.484 92.197 96.622 97.024 97.874 98.649 98.919 98.677 91.982 93.454 97.319 96.954 96.762 94.632 94.639 91.819 90.142 89.497 89.212 89.017 88.747 90.019 89.072 88.854 88.577 89.624 88.769 88.517 88.509 88.509 88.514 88.602 88.832 88.872 89.207 88.734 88.604 88.852 89.257 89.679 90.052 89.539 89.929 92.187 94.347 96.192 97.029 97.514 97.879 98.352 98.814 98.804 98.769 98.774 98.739 93.467 91.394 93.012 95.222 95.884 95.254 92.264 88.949 93.122 95.727 95.844 94.479 89.802 89.232 93.644 90.662 89.107 90.297 88.792 87.847 87.927 87.962 88.079 89.684 88.442 88.167 88.614 89.169 88.274 89.207 89.379 88.939 90.704 90.234 89.902 90.434 89.884 92.044 91.522 90.024 90.617 91.282 90.067 90.282 90.189 91.987 90.424 90.297 90.609 91.154 91.399 91.957 91.292 91.054 91.472 91.422 91.382 91.824 91.334 91.519 92.039 95.389 100.814 101.347 101.032 99.722 93.899 91.847 91.617 92.257 91.729 91.774 92.174 91.759 92.952 97.657 99.827 100.722 100.027 98.927 98.577 99.577 99.707 99.714 95.074 92.167 92.359 92.009 92.024 92.089 92.282 92.432 93.187 97.037 96.589 100.007 100.419 99.244 98.229 99.392 97.209 93.962 92.077 92.012 91.982 91.929 91.879 92.557 91.607 91.737 91.474 93.199 94.442 94.437 94.374 94.392 93.789 93.847 94.272 92.129 91.434 91.811 91.331 91.234 91.084 91.084 91.194 91.249 91.234 91.254 92.224 92.191 91.789 91.739 94.014 99.219 100.456 100.999 100.461 99.679 96.974 91.976 92.039 91.866 91.619 92.064 93.414 93.261 92.839 93.294 92.044 91.941 91.974 97.211 99.026 95.914 91.629 91.431 91.371 93.196 96.086 97.601 92.019 91.211 91.224 91.209 91.229 91.234 91.214 91.184 91.321 91.501 94.341 95.126 93.349 92.801 92.289 92.579 94.431 94.486 95.284 96.114 98.044 98.899 95.899 91.924 91.711 91.566 91.596 91.659 91.704 91.701 91.769 91.776 91.806 91.819 93.076 92.749 92.254 92.389 92.546 92.826 99.169 101.074 100.919 100.916 102.099 101.446 100.136 97.269 94.954 96.899 93.799 92.984 92.484 92.389 92.336 92.249 92.194 92.109 92.209 94.126 94.386 99.366 99.699 99.076 98.636 97.434 97.594 96.431 98.621 100.676 98.059 94.106 95.661 93.129 93.934 94.304 93.186 92.959 92.229 92.186 92.001 91.341 91.481 94.166 93.306 93.551 99.724 99.816 99.081 97.516 94.689 91.641 90.909 91.241 91.474 90.786 90.089 89.966 89.904 90.011 90.124 90.124 90.694 90.294 90.416 91.074 91.726 91.641 91.689 92.806 95.583 97.671 100.553 101.573 100.921 97.971 93.068 95.818 97.193 94.921 94.788 94.861 94.226 94.418 95.441 95.563 95.766 94.723 95.541 98.926 99.163 97.591 96.571 97.776 98.441 99.616
89.922 89.862 89.477 90.185 89.85 89.247 92 92.182 88.597 88.532 88.475 88.637 90.742 89.607 88.577 88.507 89.922 90.195 89.557 88.447 88.095 88.075 90.65 89.617 90.17 92.055 94.125 95.162 95.247 94.95 94.065 93.792 92.395 88.637 88.142 87.857 88.782 89.64 88.22 89.157 87.945 88.425 88.247 87.855 88.46 88.012 88.912 88.159 88.392 88.972 88.252 88.322 90.072 90.229 90.244 89.522 89.347 89.462 89.484 90.742 92.832 95.932 96.299 95.212 91.637 89.664 91.867 95.599 96.202 96.592 96.112 95.887 97.882 98.247 98.669 98.842 98.404 98.247 93.679 90.634 94.882 94.259 91.424 90.112 89.604 89.497 88.642 88.809 88.632 88.652 89.022 88.779 90.192 88.972 88.534 88.542 88.524 88.539 88.919 89.124 88.964 89.339 88.859 88.582 88.697 89.234 88.872 89.524 89.899 90.914 92.427 94.477 96.562 97.074 97.542 98.247 98.272 98.474 98.142 97.754 98.179 98.727 98.619 97.944 96.414 90.839 89.604 89.509 94.964 95.832 95.547 93.809 89.219 91.397 92.514 92.114 89.452 89.062 89.752 89.359 88.407 88.994 89.084 87.969 88.197 87.972 88.014 88.122 88.999 89.037 88.329 89.114 89.814 88.412 89.059 92.099 92.674 93.207 92.117 90.082 90.207 90.007 91.247 91.464 89.912 90.124 90.069 90.082 90.242 90.187 90.604 91.132 90.494 90.449 92.102 91.239 91.467 91.519 93.519 93.544 91.569 91.567 91.794 93.732 95.609 97.332 97.694 99.872 100.939 101.397 99.949 94.429 91.874 91.609 92.664 91.802 91.829 92.829 91.827 92.874 95.597 99.299 100.554 100.459 99.724 99.579 99.339 99.117 98.862 96.422 92.222 93.809 92.702 92.242 92.222 92.467 92.682 92.944 98.004 99.182 98.357 95.834 100.239 99.059 98.637 94.802 92.634 92.077 92.047 92.017 91.992 92.787 94.347 93.174 93.704 93.817 93.714 94.539 94.524 94.274 95.049 95.634 97.239 98.332 97.132 91.807 91.386 91.261 91.289 91.239 91.161 91.259 91.359 91.496 91.719 91.461 91.604 91.716 91.806 91.964 97.099 99.599 100.344 99.104 98.629 97.329 92.001 92.124 92.204 93.159 92.941 93.279 93.341 91.946 92.006 91.836 91.871 95.574 94.596 96.251 98.109 92.609 91.471 91.339 93.214 93.979 97.096 94.811 92.336 91.309 91.216 91.614 91.441 91.239 91.264 91.381 91.269 94.294 93.711 92.879 92.416 92.254 92.204 95.629 97.391 98.661 99.269 99.839 99.591 98.364 92.874 92.326 91.876 92.191 92.631 91.861 91.779 91.851 91.934 91.916 91.919 92.016 92.224 92.524 93.024 93.551 92.991 96.594 99.886 99.246 100.019 100.544 99.759 98.804 94.321 93.229 93.164 92.739 92.559 92.506 92.421 92.376 92.301 92.236 92.179 95.911 98.849 96.931 98.586 98.821 98.464 97.216 97.366 95.836 99.294 95.596 105.491 92.404 96.669 95.811 92.646 96.019 94.586 96.009 93.411 92.511 92.216 92.474 91.691 91.341 92.301 92.869 93.969 98.524 99.756 99.986 98.676 96.689 96.859 95.344 90.899 90.889 90.764 90.389 90.114 90.061 90.056 90.181 90.234 90.769 90.886 90.474 91.494 91.181 91.956 92.326 93.298 99.316 99.926 100.221 101.261 100.783 99.191 95.491 94.628 97.473 94.441 93.981 94.138 94.166 94.298 94.493 96.408 95.931 96.208 94.986 95.106 98.031 96.241 98.068 99.683 97.428 99.816
89.95 89.972 89.527 89.422 89.587 89.395 89.217 90.092 89.177 88.51 88.465 89.205 89.617 89.467 89.395 89.765 91.207 95.65 93.067 88.395 88.11 88.085 89.397 90.375 90.937 94.342 95.737 95.24 94.75 94.8 94.367 93.852 90.732 88.405 87.997 88.007 88.165 88.44 88.005 89.26 89.682 89.192 88.867 88.017 88.767 88.212 88.779 88.947 88.269 89.314 88.412 89.889 92.469 95.137 93.659 88.847 89.102 90.832 93.272 90.082 92.554 95.317 96.602 97.014 93.249 90.912 93.544 96.219 97.034 97.472 98.579 95.757 98.469 98.269 97.902 97.759 97.357 96.382 92.459 89.239 89.487 89.282 89.089 89.269 88.657 88.687 88.517 88.477 88.457 88.822 89.032 88.647 88.647 88.524 88.537 88.679 89.099 88.727 89.137 88.767 88.684 88.869 91.054 89.572 89.744 89.779 91.557 92.202 94.747 96.452 97.092 97.519 97.984 98.299 98.402 98.512 97.784 97.484 97.027 96.472 95.159 94.429 96.394 96.877 96.117 90.429 90.194 89.059 93.252 95.552 95.532 93.592 89.407 89.502 88.752 89.242 89.004 88.884 89.007 88.589 88.424 88.499 88.969 88.142 88.052 88.149 88.237 88.179 88.222 89.712 90.607 89.739 90.064 90.087 90.304 90.842 91.399 90.519 90.584 89.942 90.637 89.554 89.569 89.942 89.879 90.329 90.304 90.147 90.229 90.454 90.279 91.269 90.857 90.532 91.999 92.772 93.064 91.779 92.649 92.772 91.377 91.747 94.327 95.359 97.899 98.029 98.192 99.049 100.562 101.482 100.334 99.237 92.254 91.924 91.907 91.849 91.907 92.187 91.917 92.412 93.154 98.307 100.254 100.534 99.357 98.774 98.177 97.602 95.894 94.122 92.474 92.824 92.329 92.257 92.287 92.397 92.554 93.309 94.592 96.497 96.824 94.979 101.412 96.117 100.507 93.702 93.474 92.649 92.147 92.774 93.929 93.702 93.199 92.797 93.069 92.232 91.717 93.067 96.397 98.897 98.772 99.009 99.457 99.262 98.629 92.109 91.381 91.474 93.071 91.331 91.316 91.331 91.401 91.621 92.321 91.516 91.984 91.744 91.816 92.216 94.656 99.516 99.814 98.999 98.024 94.986 94.486 95.431 94.016 93.186 92.434 92.124 91.991 91.951 91.926 91.971 97.364 98.116 96.876 96.116 98.014 95.601 92.641 91.396 91.329 91.349 95.056 91.461 91.526 92.116 91.219 91.214 91.246 91.236 91.714 91.986 93.239 92.591 91.836 91.756 91.786 92.109 92.421 97.646 99.531 100.226 100.859 100.586 99.139 95.846 92.304 92.981 93.194 92.954 92.264 91.931 91.926 91.924 92.011 92.024 92.041 92.064 92.824 93.969 92.571 92.689 92.869 93.176 94.456 98.586 97.379 96.831 95.694 95.914 95.771 93.659 93.106 92.636 92.589 92.534 92.476 92.401 92.356 92.284 92.716 94.094 95.386 95.746 97.936 99.179 98.564 97.031 97.911 96.539 100.116 101.226 100.564 95.936 100.989 96.681 92.781 98.574 96.931 94.761 92.356 92.326 92.299 92.311 92.179 91.724 91.551 93.709 93.094 95.424 100.031 100.101 99.436 98.369 98.594 97.081 92.724 91.539 92.924 92.094 91.724 90.261 90.186 90.271 90.331 90.384 90.744 90.456 90.614 90.831 91.271 91.424 92.496 98.688 99.063 98.778 100.023 99.188 96.301 94.151 94.086 94.173 94.398 93.988 94.068 94.188 94.318 94.631 96.143 96.336 95.141 94.868 94.983 95.438 96.803 98.373 97.746 100.368 98.898
90.302 90.295 89.682 89.535 89.85 89.657 89.195 89.722 90.197 92.87 91.062 91.565 91.077 88.93 88.985 88.777 91.442 92.12 91.3 88.865 88.687 89.737 90.405 90.892 91.305 92.93 95.02 93.742 94.077 93.38 89.892 89.062 87.99 88.087 88.707 88.142 88.56 89.495 88.017 88.035 89.577 88.575 90.052 88.362 88.437 88.397 88.537 89.479 88.554 88.512 88.717 93.709 95.687 96.129 93.939 89.232 88.904 94.697 95.022 90.847 90.022 94.992 96.267 97.704 97.114 93.902 94.029 97.909 98.292 97.927 98.264 97.902 95.799 96.859 95.254 93.547 92.862 91.767 90.144 88.944 88.759 88.747 88.609 88.909 88.912 89.519 88.744 88.512 88.557 88.554 88.544 88.552 88.529 88.892 88.797 88.899 88.864 88.572 91.757 90.199 89.777 89.419 90.829 91.234 92.137 95.579 96.804 97.282 97.584 98.022 98.637 98.639 98.654 97.742 97.269 96.984 96.052 96.627 96.974 96.122 91.324 91.299 95.979 96.989 96.364 92.622 90.774 89.374 90.762 90.737 90.967 91.539 90.297 90.152 88.837 89.427 89.652 88.739 88.749 88.707 88.492 88.489 88.772 88.384 88.169 88.302 89.509 90.167 90.929 92.017 90.939 90.344 90.574 90.904 89.502 89.572 89.804 89.299 89.427 89.302 89.484 89.612 89.562 91.037 90.192 90.092 90.414 90.334 90.427 90.882 90.407 90.917 91.204 90.942 91.129 91.932 92.549 91.277 91.287 91.657 91.839 91.449 93.579 94.189 97.597 98.274 97.822 99.122 100.604 101.412 101.137 100.142 94.552 92.312 92.082 92.237 91.942 92.182 92.299 92.104 92.117 98.479 99.962 100.789 99.802 97.409 92.522 92.282 92.372 92.457 92.357 92.349 92.327 92.349 92.397 92.452 92.657 93.242 94.269 93.414 96.077 97.584 98.329 96.309 99.192 97.092 96.079 94.799 93.297 93.759 94.049 92.494 92.192 92.247 92.037 91.887 91.762 91.749 95.212 99.112 100.249 100.522 100.069 98.494 95.432 91.622 91.479 92.079 92.254 91.779 91.379 91.531 91.494 91.526 91.789 91.569 92.449 91.964 92.561 92.601 93.209 98.299 95.496 95.386 94.589 95.156 94.886 93.121 92.756 92.211 92.101 92.066 92.014 92.016 91.966 91.949 93.751 98.579 96.979 96.111 94.971 98.189 91.759 91.524 91.351 91.366 91.364 91.796 91.516 91.934 91.266 91.626 91.981 91.896 93.359 92.104 92.156 91.779 91.781 91.786 91.789 91.941 91.919 94.821 99.454 101.024 102.066 101.271 99.794 97.411 93.551 92.781 92.519 92.351 93.546 96.569 93.664 91.991 92.074 92.121 92.124 92.149 92.264 93.299 92.789 92.924 93.454 94.751 95.514 93.571 94.234 96.099 96.046 96.321 99.119 96.321 93.196 92.801 92.634 92.581 92.526 92.434 92.579 94.236 93.644 96.061 96.389 97.776 98.301 97.724 94.009 92.841 97.516 103.889 101.676 100.874 100.484 97.656 99.916 95.316 99.256 98.271 96.366 94.831 92.384 92.931 92.486 92.326 92.489 92.336 91.829 91.821 91.741 93.149 99.081 100.094 99.976 98.289 98.266 96.144 92.369 91.204 95.309 99.039 93.466 90.379 90.331 90.339 90.451 90.506 90.541 90.521 90.666 90.834 91.074 91.369 91.716 92.961 92.606 95.948 95.371 93.501 94.336 95.783 93.986 93.938 94.733 94.138 94.043 94.218 94.333 94.438 95.911 96.003 95.011 95.171 94.871 94.953 94.971 96.733 96.448 97.413 96.831
90.487 90.49 89.862 89.5 89.662 89.517 89.18 89.332 92.615 96.56 95.305 90.035 90.222 89.945 89.442 92.507 91.952 92.447 89.46 91.067 90.447 89.837 88.9 90.465 91.002 91.127 91.47 93.422 90.202 89.52 89.535 88.47 88.082 88.35 89.302 88.282 88.672 91.002 90.72 88.315 89.537 88.707 89.287 88.725 88.642 88.852 88.662 89.397 89.572 90.069 89.002 91.209 96.137 96.522 95.279 91.369 88.629 93.654 95.959 95.979 95.589 97.124 97.804 96.884 97.737 97.722 92.439 98.272 97.804 97.454 96.972 96.979 91.499 93.184 91.204 89.529 89.122 90.327 89.024 88.682 88.722 88.627 88.949 89.289 88.669 88.604 88.592 88.554 88.584 88.567 89.234 89.702 88.799 88.807 88.642 88.672 88.779 89.549 91.254 90.484 91.607 93.637 95.252 96.577 97.262 97.692 98.062 98.367 98.317 98.114 98.457 98.757 97.977 97.119 95.682 91.902 92.002 96.264 96.987 96.382 91.659 91.532 95.337 96.307 94.849 91.842 89.824 89.814 88.897 88.857 89.789 89.464 89.032 89.199 88.982 88.839 89.634 88.809 88.749 88.787 88.594 88.542 88.542 89.292 89.097 88.402 89.367 91.057 92.364 92.872 90.619 89.564 90.737 90.039 89.004 89.207 89.442 89.407 89.737 89.442 90.332 90.707 89.674 91.454 90.979 90.164 90.964 90.582 90.629 91.039 90.697 90.882 91.377 91.267 91.052 91.502 91.254 91.282 91.277 92.034 92.809 91.684 91.579 91.669 95.742 97.424 96.557 95.517 100.449 101.689 101.994 100.267 96.374 91.957 92.024 92.402 92.014 92.074 92.694 91.959 92.597 97.994 99.602 101.232 100.234 97.752 93.244 93.992 94.284 93.254 92.679 92.379 92.649 92.887 92.524 92.424 92.632 93.237 93.527 93.057 95.042 97.682 97.929 98.929 96.817 97.567 97.344 94.872 92.752 92.869 92.739 92.259 92.157 92.117 92.104 91.907 92.122 91.874 93.599 98.702 100.304 101.569 100.497 98.904 95.394 93.209 92.589 92.279 92.349 92.421 91.589 92.851 91.624 91.649 91.639 91.626 91.736 92.059 92.329 92.616 92.994 94.171 95.571 95.609 95.741 97.051 96.399 92.671 92.684 92.761 92.196 92.151 92.081 92.049 92.016 91.996 93.789 93.816 99.391 95.306 94.081 93.131 92.524 91.651 91.464 91.449 91.736 92.046 91.686 91.564 91.584 92.366 92.064 91.976 91.766 91.801 91.836 91.834 91.829 91.839 91.854 92.886 94.219 95.296 98.776 100.579 102.291 102.281 101.244 99.324 96.239 94.584 92.241 93.714 96.601 98.584 97.356 92.986 92.164 92.239 92.216 92.174 92.329 92.609 93.366 94.726 95.129 95.446 94.566 93.409 94.066 98.314 99.326 100.379 100.839 99.339 93.749 93.071 92.616 92.731 92.744 93.376 93.414 93.274 92.894 94.331 94.014 98.019 96.606 96.989 96.731 92.746 97.144 99.659 96.554 100.734 97.906 96.259 98.644 99.319 98.041 93.491 94.134 93.971 92.469 92.494 92.669 92.821 92.826 92.931 92.216 91.634 91.711 92.936 96.386 98.866 99.179 98.596 96.871 94.531 91.686 92.224 93.349 96.471 92.319 90.551 90.509 90.469 90.654 90.646 90.661 90.646 90.714 90.991 91.179 91.406 91.658 91.911 92.663 92.651 93.793 95.243 96.598 97.096 96.668 95.028 94.381 93.808 94.106 94.253 94.358 94.508 94.838 94.883 96.233 98.176 95.466 95.808 97.406 99.276 100.353 96.786 97.253
91.815 92.045 91.145 89.582 89.41 89.297 89.175 89.127 90.217 92.222 90.68 88.627 88.582 92.605 96.07 99.7 98.375 91.442 89.997 88.88 88.4 88.257 88.762 88.992 89.02 89.182 88.772 90.017 88.607 88.587 89.567 88.662 88.28 88.315 89.06 88.892 88.575 91.597 92.997 90.67 89.832 89.755 90.447 90.157 90.44 90.255 88.799 90.114 90.552 93.574 91.632 90.079 96.754 96.789 94.962 93.222 90.102 93.222 98.009 98.004 98.092 97.912 97.777 97.597 96.817 96.664 90.352 95.494 96.929 92.967 91.354 90.887 90.497 89.859 88.874 88.814 89.922 89.867 89.097 88.977 89.232 88.772 88.582 88.584 88.582 88.667 89.174 89.369 89.847 88.944 88.707 88.654 88.947 89.067 89.344 89.392 89.802 90.619 93.494 94.749 96.867 97.277 97.797 98.097 98.654 98.749 98.074 97.637 97.184 96.737 96.369 97.432 98.319 97.509 96.289 91.224 90.662 95.974 97.054 96.697 94.182 90.917 92.754 92.687 91.242 89.799 89.624 90.219 89.452 89.197 89.627 89.437 88.922 89.202 89.999 89.089 89.517 88.814 88.847 88.839 88.462 88.497 88.594 89.134 89.359 89.467 89.589 90.547 91.289 92.777 89.459 89.219 89.434 89.882 89.222 89.242 89.544 89.434 90.074 89.714 89.749 91.179 89.827 90.717 91.939 90.364 90.917 90.892 91.612 91.524 92.582 90.892 92.374 92.754 94.059 91.204 91.379 91.779 91.542 91.374 91.399 91.462 91.549 91.809 92.099 93.504 92.512 92.332 101.054 101.094 101.604 100.729 97.882 92.044 92.044 92.684 92.122 92.092 92.392 92.129 92.574 93.412 99.589 100.662 100.404 99.139 97.877 98.174 98.399 95.929 92.694 92.652 92.652 92.549 92.427 92.422 98.577 100.379 98.699 94.102 93.217 94.729 95.677 96.329 95.529 95.949 93.282 94.197 92.512 92.859 92.369 92.264 92.219 92.194 92.504 93.884 93.814 92.997 92.254 98.077 100.379 101.714 101.334 99.672 97.082 94.494 91.994 91.759 93.159 92.601 91.766 92.329 91.719 91.721 91.751 91.721 92.014 92.589 92.651 92.669 92.456 94.219 97.224 98.771 100.931 100.826 98.909 93.729 92.634 92.414 92.241 92.196 92.156 92.131 92.116 92.619 93.714 92.911 94.144 93.641 94.261 94.926 94.819 96.726 94.081 92.221 91.901 92.846 93.159 92.839 91.976 91.864 91.796 91.816 91.844 91.856 91.861 91.854 91.876 91.884 91.894 94.051 95.024 94.849 97.896 100.294 102.166 102.789 101.499 99.984 99.664 96.826 92.494 92.329 96.374 97.869 95.916 92.564 92.261 92.341 92.386 92.356 92.411 93.314 94.849 94.731 94.564 94.214 93.031 97.146 99.604 101.129 101.254 101.951 101.931 100.366 96.231 93.091 93.696 94.494 93.829 93.819 93.016 92.741 92.694 92.636 92.839 93.499 97.846 94.494 93.926 92.416 93.956 98.291 99.401 98.086 96.624 95.616 96.076 98.569 99.741 97.966 97.584 94.284 94.649 93.186 93.026 92.856 92.466 92.371 92.279 91.716 92.646 94.671 93.636 97.461 96.821 94.479 92.456 94.879 95.179 92.759 92.776 92.206 91.091 90.801 91.104 91.091 91.336 90.699 90.776 90.796 90.826 90.974 91.299 91.484 92.423 92.326 92.401 95.118 95.431 96.671 99.223 100.593 100.011 97.001 96.738 94.671 94.181 94.288 94.393 94.513 94.581 95.301 96.863 97.886 97.441 99.251 98.381 102.798 98.323 97.678 97.021
92.11 93.17 91.94 90.18 89.397 89.342 89.21 89.12 89.282 88.88 88.802 89.77 89.44 93.477 98.59 102.57 100.04 90.702 88.462 89.46 88.25 88.227 89.165 88.575 88.605 88.94 88.725 88.89 88.725 88.64 89.832 89.632 88.44 88.447 89.715 89.747 89.01 89.127 92.175 91.712 89.06 89.675 89.792 90.687 90.942 93.687 94.477 92.122 90.267 93.957 94.499 89.157 96.172 97.222 95.782 95.812 95.592 89.719 97.157 97.837 97.619 97.167 96.692 96.357 95.957 95.647 91.102 91.154 91.012 89.122 88.902 89.037 88.749 88.607 89.194 89.029 91.444 90.904 89.152 88.579 88.579 88.559 88.579 88.809 88.767 89.472 90.112 91.284 88.819 88.954 88.804 89.104 89.462 89.987 91.614 94.169 92.174 96.862 97.337 97.929 98.322 98.502 98.844 98.777 98.794 97.857 96.719 96.659 96.947 95.877 91.007 91.202 96.152 97.649 96.657 93.864 90.662 94.059 95.067 92.994 91.362 90.144 91.289 91.162 90.747 89.812 89.739 89.722 89.629 89.152 89.707 90.919 88.944 88.992 89.752 89.079 89.387 88.902 88.879 89.932 89.477 90.102 89.952 89.889 90.067 89.167 89.312 89.872 89.689 89.194 89.637 89.342 89.394 89.792 89.479 89.457 90.214 90.077 90.557 90.137 90.032 90.832 90.757 90.309 91.994 90.972 92.347 93.527 94.364 92.204 91.587 96.169 98.149 98.067 96.902 91.964 91.394 92.199 91.947 91.362 91.399 91.722 92.772 92.999 92.987 93.452 95.219 97.389 99.539 100.922 101.619 100.247 94.849 92.059 92.122 92.759 92.489 92.172 92.864 92.504 92.224 92.992 97.742 100.374 100.674 99.539 98.767 98.727 98.952 97.807 93.349 92.467 92.469 92.467 92.572 92.854 100.502 101.157 100.082 100.717 97.697 95.272 94.359 93.527 92.847 92.884 92.472 92.437 92.482 92.454 92.559 92.349 92.582 92.509 93.652 95.669 93.962 93.207 93.207 97.092 100.714 101.397 101.624 100.129 98.912 99.062 93.766 92.069 92.359 94.721 92.369 91.684 91.754 91.851 91.871 91.836 91.906 92.056 92.194 92.336 92.466 95.101 99.474 100.494 101.399 101.211 100.199 94.304 92.701 92.484 92.674 93.496 93.189 93.686 94.034 93.839 93.939 92.929 92.814 93.209 95.606 98.809 96.609 95.091 96.846 95.041 93.051 92.546 92.866 92.229 91.904 91.844 91.839 91.829 91.859 91.861 91.861 91.886 91.929 91.911 92.121 93.286 94.519 94.331 93.959 99.771 101.276 101.806 101.239 100.484 99.966 98.606 92.891 93.134 93.354 92.361 93.329 92.406 92.344 92.419 92.464 92.439 92.506 92.669 93.569 93.491 92.919 93.046 93.159 96.896 100.841 101.144 102.314 103.319 102.586 101.021 98.091 94.116 93.881 93.326 93.131 92.941 92.886 92.819 92.741 92.686 92.604 92.534 92.684 92.789 93.599 94.251 94.651 95.774 96.009 96.446 98.771 95.619 97.199 98.579 101.731 99.996 97.609 97.774 94.676 93.591 92.704 92.599 92.519 92.414 92.361 92.139 92.439 94.236 94.776 93.651 92.686 95.486 98.574 98.254 97.246 94.486 91.964 91.984 91.199 90.951 92.086 91.156 91.579 90.946 90.841 90.939 91.696 91.064 91.514 92.176 93.133 92.531 92.361 94.958 98.968 100.828 101.233 102.081 101.198 98.198 96.721 95.056 94.083 94.318 94.403 94.536 95.003 94.683 94.713 95.348 96.036 96.741 97.828 101.231 100.846 97.826 95.848
91.87 92.277 91.787 91.747 89.44 89.335 89.265 89.24 89.652 90.642 89.792 90.78 90.74 92.762 97.377 100.412 97.535 89.015 88.455 88.472 88.477 88.257 88.66 88.83 88.7 89.09 88.855 88.862 89.035 88.802 89.265 89.775 88.64 88.955 89.255 92.457 94.502 92.572 91.07 89.945 89.425 91.787 92.77 90.247 91.9 94.447 95.214 93.579 90.312 92.407 94.914 93.569 97.584 97.042 97.214 96.999 97.312 90.859 95.214 96.657 96.442 96.022 95.942 93.379 90.169 89.929 89.224 89.512 89.092 89.514 88.592 88.777 88.702 89.719 89.787 88.732 88.709 88.622 88.587 88.689 88.847 88.759 88.997 89.152 88.672 88.829 88.899 90.624 89.712 89.657 89.707 91.692 93.079 95.414 97.017 97.422 91.209 97.374 98.392 98.422 98.972 98.767 97.572 97.559 98.352 95.574 93.517 96.444 97.029 96.389 92.907 90.919 94.409 96.647 96.222 94.334 90.834 90.802 90.547 91.309 90.432 90.087 90.029 89.942 90.052 89.897 89.777 89.857 89.842 89.222 91.294 94.057 89.487 89.027 89.574 89.877 89.227 89.382 88.964 90.342 93.794 94.054 90.562 89.454 90.482 89.107 88.907 89.827 89.309 89.172 89.564 89.542 89.592 89.927 90.144 89.627 89.809 89.859 90.062 90.614 90.149 90.412 90.779 90.304 91.999 92.349 94.597 96.232 97.014 96.787 91.579 96.837 98.022 98.289 97.509 93.164 91.744 91.447 91.462 92.762 93.644 95.534 93.954 93.474 95.132 97.034 97.932 98.157 98.542 98.204 96.439 92.909 92.419 92.272 92.149 92.114 92.167 92.252 92.249 92.482 92.252 92.789 96.627 100.217 100.924 99.884 98.532 97.912 96.594 95.212 92.762 92.537 92.549 93.294 93.164 92.629 95.557 98.057 108.834 110.424 103.317 97.782 98.819 94.299 94.034 92.814 92.534 93.139 95.857 92.537 93.029 93.024 93.812 93.459 93.664 93.529 93.924 92.207 92.122 94.584 99.677 100.829 100.679 100.169 99.692 99.437 95.759 92.024 92.416 92.504 91.896 91.811 91.826 91.944 91.996 91.956 91.991 92.401 92.506 92.876 92.744 94.301 99.091 100.661 102.014 101.574 101.226 95.611 93.099 93.774 94.681 94.624 95.634 93.654 93.459 92.899 92.899 92.816 92.929 93.796 95.629 98.951 96.701 98.219 99.431 95.066 93.131 94.939 97.704 95.039 92.434 91.929 91.869 91.849 91.859 91.921 91.954 92.056 92.734 92.596 93.401 93.554 93.344 92.524 92.564 97.256 100.489 100.324 99.744 99.226 96.466 93.224 93.129 93.289 94.029 96.129 94.199 92.876 92.476 92.496 92.564 92.596 92.554 92.634 92.791 93.056 93.096 93.219 93.279 94.731 98.136 100.384 101.896 103.464 103.561 102.211 100.576 95.119 93.474 93.144 93.041 92.974 92.929 92.844 92.771 92.726 92.666 92.671 92.731 93.404 95.049 94.089 93.411 93.679 94.621 97.684 99.909 99.504 101.424 97.354 98.059 97.806 96.216 97.089 94.551 92.789 92.739 92.669 92.589 92.521 92.436 92.291 91.944 91.686 92.359 93.849 97.719 99.099 99.994 99.399 97.851 95.796 92.334 91.291 91.196 91.084 92.154 91.541 90.871 90.886 90.966 91.021 91.499 91.436 91.234 91.519 92.058 92.758 92.803 95.693 100.173 100.873 100.533 102.051 102.048 100.108 94.653 94.048 94.196 94.321 94.438 94.578 95.008 94.748 94.793 95.318 96.491 99.643 98.033 98.318 98.203 96.693 98.676
91.295 92.26 91.71 91.845 89.915 89.725 89.437 89.425 89.252 90.88 91.78 91.89 91.807 89.922 93.575 91.95 92.062 88.945 88.497 88.825 88.36 88.325 88.562 89.042 88.802 89.015 88.942 88.99 89.285 88.967 89.095 91.042 89.6 89.045 89.137 90.255 94.952 93.302 89.487 89.112 93.677 95.065 94.47 91.44 89.04 93.782 94.902 94.804 93.669 94.712 95.964 94.332 97.457 97.437 97.229 96.789 96.437 92.497 92.099 93.562 95.227 92.237 90.229 90.114 89.697 88.937 88.657 88.587 88.859 91.637 88.722 89.444 88.834 88.642 88.604 88.609 88.602 89.084 89.134 88.742 89.167 88.644 88.594 88.844 89.139 89.224 89.929 90.904 92.292 94.442 95.862 97.032 97.494 98.124 98.294 98.429 92.904 95.839 97.534 97.052 97.357 96.594 98.132 98.192 97.412 90.572 90.827 95.739 97.114 96.672 94.314 90.242 91.832 93.039 91.834 90.367 90.447 90.672 90.294 91.819 91.364 90.102 90.224 90.137 90.129 90.027 89.852 89.859 91.207 89.684 89.924 91.602 89.337 89.209 91.179 92.347 91.574 90.327 89.502 90.522 90.729 95.204 91.949 89.404 89.134 89.437 89.024 89.554 89.364 89.312 89.674 89.907 89.777 90.829 90.744 89.862 90.077 90.804 90.174 90.352 90.564 90.477 90.899 91.314 92.952 91.492 96.667 98.187 98.202 97.189 91.312 94.164 97.867 99.004 99.184 99.829 93.174 92.084 94.112 94.212 92.614 91.922 91.717 92.384 94.972 96.212 95.844 94.587 92.702 93.409 93.557 92.734 93.077 92.287 92.119 92.154 92.247 92.324 92.337 93.137 92.212 93.394 94.854 99.834 100.807 100.169 97.917 93.589 92.962 92.689 92.784 92.709 92.704 93.129 92.684 92.657 92.634 95.972 107.304 108.489 103.914 96.694 96.782 93.877 97.352 94.302 98.689 98.349 98.199 98.364 93.934 93.309 93.072 92.369 92.299 92.484 92.209 92.227 94.137 94.924 98.912 100.124 99.479 98.392 97.377 97.112 93.431 92.016 92.639 92.364 92.824 91.929 91.916 92.029 92.099 92.104 92.071 92.394 93.551 92.441 93.396 92.734 99.456 100.391 101.941 102.149 100.864 98.836 96.144 96.159 95.066 94.289 92.744 92.889 92.964 92.781 92.726 93.106 93.484 95.689 94.714 96.204 96.169 92.776 93.764 92.369 92.179 97.336 95.984 95.946 92.816 91.976 91.896 91.931 92.021 92.191 92.676 93.281 93.234 92.701 92.729 92.574 92.419 92.551 92.506 94.891 99.384 97.474 96.099 94.709 94.791 92.954 94.724 94.521 94.286 95.036 92.941 92.636 92.649 92.584 92.646 92.701 92.676 92.761 92.844 93.094 93.176 93.176 93.229 93.269 93.324 98.376 101.851 103.474 104.131 102.721 101.214 98.029 93.566 93.219 93.081 93.024 92.954 92.894 92.841 92.911 93.104 94.116 93.284 93.566 95.521 94.849 92.886 92.974 93.079 94.649 96.389 100.621 98.439 101.096 98.001 97.974 98.139 97.294 93.486 92.851 92.801 92.716 92.684 92.674 92.759 92.746 92.659 93.034 95.016 95.806 96.759 99.014 100.529 100.209 98.451 98.481 95.309 91.416 91.664 92.669 93.534 93.551 90.991 90.981 91.079 91.126 91.179 91.154 91.239 91.431 91.998 92.251 92.458 94.116 96.688 96.231 99.558 101.183 101.878 100.763 96.386 94.241 94.296 94.386 94.461 94.583 94.686 94.798 94.848 95.011 98.358 97.978 105.126 101.351 98.028 96.728 101.928
90.945 91.832 91.89 91.012 90.337 90.247 90.185 89.41 88.847 89.31 91.245 90.747 90.03 89.232 89.175 88.665 90.577 90.347 88.59 88.775 88.54 88.427 88.85 89.28 88.915 88.97 89.495 89.212 89.45 89.22 89.682 91.1 91.642 89.472 89.162 91.555 95.077 94.807 89.865 89.432 91.995 94.527 94.712 93.625 92.39 95.055 95.654 96.012 96.294 97.154 96.794 96.634 94.824 95.474 95.944 94.609 95.804 91.164 89.337 88.862 89.589 90.002 89.447 89.214 88.842 88.962 89.024 88.794 89.114 88.817 88.642 88.609 88.627 88.767 88.732 89.424 89.352 89.057 88.792 88.597 88.909 89.252 89.082 89.394 89.782 91.527 94.397 96.479 97.172 97.449 97.934 98.362 98.599 99.309 98.009 97.464 94.679 92.189 96.642 94.872 90.249 92.129 98.084 98.209 96.927 92.284 90.367 94.074 95.657 95.469 92.712 90.339 90.812 90.297 91.419 91.017 90.224 91.242 90.482 90.457 91.112 90.087 91.289 90.379 90.144 90.154 89.902 89.852 91.187 89.769 89.502 89.392 89.609 89.952 95.047 94.219 91.252 89.922 89.329 90.137 90.259 91.489 91.377 89.462 89.097 89.637 89.177 89.312 89.657 89.469 89.779 90.142 89.984 91.042 92.312 90.572 90.637 91.332 90.807 90.534 90.702 94.719 96.849 97.949 96.944 91.864 94.942 97.909 98.322 97.599 95.489 97.422 100.087 100.332 100.382 100.422 96.619 91.927 94.387 93.692 92.869 91.717 91.727 92.204 94.372 94.204 91.939 92.472 92.499 92.634 92.397 92.239 92.757 92.939 92.957 92.252 92.324 92.362 92.387 92.574 93.384 93.369 93.707 99.519 101.139 99.179 97.244 92.952 92.764 92.969 92.887 92.762 92.789 92.729 92.689 92.667 92.724 95.087 101.662 104.039 102.389 101.802 98.604 98.267 98.557 98.774 97.647 98.812 95.249 100.874 95.889 94.509 93.214 92.364 92.342 92.619 92.332 92.199 94.604 95.459 97.737 97.002 96.529 95.537 95.197 95.262 93.389 92.961 92.796 92.614 92.321 92.061 92.009 92.111 92.156 92.169 92.149 92.299 92.881 92.459 92.741 92.699 94.646 100.299 102.274 102.486 101.004 99.474 97.471 96.986 95.116 95.194 92.866 92.729 92.871 92.699 92.614 92.774 95.501 97.011 94.906 94.766 94.911 93.359 93.236 92.236 92.134 93.969 95.046 93.226 93.269 92.006 92.581 93.014 93.359 96.706 95.896 92.509 92.356 92.361 92.364 92.384 92.406 92.829 93.761 94.874 95.819 95.496 95.526 94.476 96.781 97.296 97.866 93.046 92.761 92.734 92.729 92.899 92.789 92.746 92.726 92.789 92.844 93.796 92.999 93.181 93.246 93.454 93.374 93.484 93.836 95.551 101.131 102.669 103.384 102.781 101.721 99.741 94.029 93.479 93.144 93.096 93.126 93.484 93.474 94.256 95.841 94.804 93.361 93.816 94.914 94.159 92.969 92.939 92.929 95.341 94.781 96.576 96.116 96.451 98.544 99.494 97.416 95.614 92.944 92.949 92.886 92.831 92.994 92.946 93.194 93.091 92.274 91.701 94.044 94.784 95.406 97.579 99.946 100.216 99.191 98.864 96.309 91.914 92.796 93.184 93.426 92.001 91.204 91.121 91.496 91.229 91.251 91.281 91.299 91.491 91.936 92.821 92.426 92.638 92.833 93.451 97.261 100.266 99.961 97.338 93.998 94.461 94.273 94.441 94.516 94.611 94.698 94.788 94.878 94.901 100.136 107.493 107.953 99.043 100.223 98.308 98.176
90.952 90.985 90.977 91.865 90.362 89.865 89.457 90.552 88.92 88.76 89.347 89.192 89.19 90.387 90.965 88.74 89.185 89.022 88.682 88.74 88.882 88.822 88.965 89.087 89.057 89.122 89.695 89.675 89.877 89.495 92.052 94.817 91.137 89.26 90.462 94.272 95.367 94.87 91.23 90.175 92.102 94.892 95.375 95.637 96.032 96.325 96.644 96.874 96.724 96.549 96.052 95.749 93.104 95.512 91.837 89.449 88.664 88.702 88.977 88.904 89.192 88.682 89.004 89.044 88.512 88.919 88.792 88.622 88.632 88.632 88.619 88.587 89.379 89.042 88.534 88.724 88.669 88.954 89.449 89.192 89.654 90.144 92.217 94.509 96.157 97.189 97.329 97.934 98.659 98.657 98.872 98.982 98.819 98.842 96.712 95.769 96.719 92.112 96.274 96.044 90.292 90.482 94.777 96.934 96.719 93.419 90.492 90.749 91.117 91.272 90.654 91.072 92.899 90.759 91.247 91.487 90.324 91.387 90.669 90.167 91.312 90.587 90.804 90.517 90.187 90.934 92.637 91.149 91.617 90.784 92.059 90.537 91.907 92.592 93.429 94.002 90.744 90.419 89.304 89.282 90.297 89.334 91.217 89.259 89.227 90.197 90.037 89.504 89.639 89.922 90.029 90.219 90.379 90.427 90.487 90.457 90.494 92.287 94.654 94.777 91.192 96.079 97.804 98.869 98.937 92.437 93.917 98.802 99.247 98.457 98.789 99.762 100.339 100.314 100.212 99.817 96.849 92.004 94.534 93.387 93.374 91.747 91.782 92.802 92.294 91.947 92.029 92.062 92.049 92.514 92.607 92.697 92.869 92.374 92.282 92.317 92.412 92.432 92.464 92.387 92.694 94.214 93.762 95.924 96.962 99.679 99.982 98.107 96.507 97.967 96.369 92.862 92.847 93.107 92.862 94.099 93.067 93.112 97.489 99.302 98.189 99.734 98.474 98.082 97.312 95.979 95.317 99.389 98.977 93.829 97.352 99.662 92.819 92.409 92.344 92.537 92.524 92.359 93.764 94.989 94.959 94.424 95.364 96.104 96.967 98.402 97.354 92.579 93.106 93.011 92.376 92.279 92.159 92.189 92.264 92.289 92.374 92.351 93.006 92.839 93.109 93.071 96.306 100.569 101.584 102.454 101.464 100.019 99.779 99.114 96.454 95.374 93.184 92.799 92.749 93.614 94.171 94.166 96.674 97.244 96.824 95.589 94.576 93.956 92.516 92.396 92.314 92.024 92.059 92.131 92.834 92.774 93.561 93.294 95.114 94.384 93.056 92.411 92.396 92.391 92.394 92.404 92.846 93.779 94.534 94.104 95.264 94.564 96.556 99.306 100.194 100.044 99.676 96.271 93.021 92.839 92.849 92.854 92.899 92.851 92.789 92.894 92.919 93.284 92.971 93.131 93.564 94.464 93.634 94.021 93.816 99.324 100.989 102.001 101.934 101.341 101.214 99.076 94.724 93.729 93.404 93.584 95.271 96.271 94.134 97.704 95.381 93.381 93.529 94.594 93.076 93.044 92.991 92.959 92.999 95.164 94.404 97.491 99.156 101.254 98.916 97.249 96.489 93.424 93.291 93.164 93.156 93.749 93.514 93.076 93.034 92.886 92.164 91.706 92.841 93.821 92.254 95.896 98.776 98.884 97.379 94.271 93.319 95.254 93.054 92.136 92.206 91.759 91.986 91.289 92.179 91.541 91.379 91.409 92.956 91.814 93.441 91.961 92.173 92.476 92.763 93.256 94.186 96.823 93.688 93.816 93.916 94.161 94.258 94.483 94.533 94.623 94.703 94.778 94.861 97.486 98.963 106.398 105.323 105.603 101.756 101.036 99.121
90.96 90.952 90.98 91.395 91.22 89.46 90.057 89.417 89.07 88.815 89.092 89.247 89.182 89.422 90.177 88.827 88.975 89.627 88.852 88.922 89.272 89.037 89.037 89.102 89.242 90.675 92.122 93.82 93.227 89.7 92.847 95.122 93.907 89.437 89.605 92.955 94.922 95.297 95.187 93.92 94.182 96.032 96.442 96.68 96.835 97.275 96.372 96.107 95.689 95.062 93.892 91.419 90.202 89.204 88.867 88.779 88.669 88.632 88.657 88.739 89.342 89.267 88.894 88.879 88.632 88.654 88.707 88.817 88.599 89.402 89.219 88.557 88.632 88.659 88.699 89.394 89.807 89.684 90.344 92.427 94.469 96.674 97.147 97.659 97.987 98.382 98.697 98.854 99.067 98.917 98.882 98.944 98.667 96.807 92.012 92.694 96.419 92.614 95.674 96.297 91.517 90.312 93.737 93.964 91.902 90.947 90.387 90.687 90.624 90.932 91.439 90.827 92.952 91.829 90.927 92.914 90.552 90.342 91.382 91.437 91.814 90.717 90.279 90.872 90.772 90.632 94.314 95.059 93.354 91.387 93.562 90.014 91.744 92.599 92.747 94.257 91.719 89.899 90.444 89.279 90.519 89.659 90.417 89.989 89.622 90.054 90.419 90.009 90.207 90.577 94.144 94.037 90.877 90.654 91.754 90.684 96.052 97.944 98.004 97.192 91.492 93.424 97.577 98.717 99.979 98.282 99.322 100.429 100.382 99.797 100.022 100.852 99.739 99.282 98.882 98.692 97.574 91.894 92.164 93.502 91.937 92.174 92.774 92.177 91.882 91.892 92.294 92.854 92.297 92.289 92.084 92.129 92.189 92.239 92.292 92.357 92.382 92.477 92.509 92.487 92.707 92.522 92.874 98.292 100.309 100.814 100.844 99.787 98.947 99.017 98.767 93.974 94.344 93.559 92.994 93.024 92.974 92.847 92.894 93.112 93.357 96.332 99.629 96.572 95.482 94.814 100.164 98.502 101.084 97.349 97.077 100.732 93.504 92.442 92.387 92.479 92.847 92.367 93.317 94.434 94.369 96.292 98.979 99.627 99.979 100.262 98.971 93.081 92.411 93.916 93.111 93.914 93.819 93.446 92.389 92.386 93.141 93.379 92.744 92.954 92.989 93.059 93.606 99.506 101.106 101.284 100.854 100.234 100.024 99.861 97.139 95.441 93.719 93.476 93.536 95.751 94.969 94.289 96.206 97.676 97.721 95.859 94.489 92.711 92.431 92.734 92.189 92.386 92.554 93.431 93.624 92.656 92.554 92.546 92.669 92.791 92.494 92.419 92.404 92.436 92.431 92.511 93.566 93.456 94.916 94.279 94.114 99.369 100.516 101.206 101.731 100.584 100.524 101.034 94.996 92.969 93.536 93.004 92.924 92.926 92.891 92.984 93.036 93.074 93.064 93.164 94.064 93.746 93.669 93.669 93.749 97.099 101.309 101.531 100.009 97.451 95.794 96.674 96.036 95.119 94.596 96.726 97.386 95.771 95.609 96.229 93.606 93.651 93.521 93.476 93.151 93.079 93.014 92.976 93.119 94.664 93.791 95.051 95.169 95.681 94.491 93.436 96.941 95.729 100.059 97.776 93.486 93.236 93.089 93.054 93.044 93.016 92.749 91.799 91.696 91.701 92.131 92.996 96.336 94.859 96.364 99.669 100.301 98.769 95.689 92.684 92.016 92.519 92.184 91.491 91.366 91.434 91.511 91.554 93.354 93.151 91.821 91.991 92.188 92.456 93.128 92.936 93.188 94.618 94.116 93.798 93.998 94.081 94.273 94.508 94.578 94.851 95.086 94.798 96.931 97.246 101.458 104.958 104.293 101.406 95.421 97.118 99.698
92.25 92.755 91.565 91.175 91.54 92.307 91.445 89.652 89.967 88.91 89.145 89.495 89.78 90.185 90.207 88.97 89.272 89.84 89.175 89.11 89.58 89.792 91.812 91.26 89.297 91.397 93.665 95.195 94.97 89.985 90.19 95.1 93.785 90.57 91.9 94.925 96.375 96.685 96.842 96.69 94.627 96.807 96.697 96.375 95.992 95.69 95.277 93.272 91.452 90.242 90.029 89.304 88.947 88.892 88.679 88.709 88.797 89.564 89.327 88.729 88.749 88.642 88.662 88.652 88.604 89.294 90.549 90.702 88.682 88.854 88.717 89.102 89.334 89.587 89.744 90.239 92.107 94.144 96.237 97.089 97.584 97.969 98.319 98.962 98.727 98.724 98.609 98.777 98.114 95.779 96.354 97.134 98.372 96.794 92.689 91.642 96.174 95.627 92.262 94.949 92.302 90.154 90.232 90.149 90.792 90.837 91.289 91.347 90.842 90.897 91.352 90.594 91.247 91.772 90.799 94.659 90.817 90.409 90.829 90.927 91.672 92.322 90.604 90.479 91.479 90.612 93.432 95.867 93.167 92.427 91.709 90.484 89.812 90.549 90.549 92.229 89.749 89.829 90.687 89.359 90.294 90.117 90.027 90.179 90.154 90.317 93.207 94.004 93.144 90.574 97.459 97.074 90.642 97.862 97.512 91.227 95.922 97.707 98.207 97.569 95.242 94.619 97.874 98.732 100.382 100.292 100.467 100.394 100.222 99.812 99.349 98.944 98.612 98.582 95.477 93.574 93.387 93.229 93.832 92.132 91.954 91.712 91.807 91.989 92.852 92.462 92.082 91.964 92.009 92.089 92.192 92.597 92.177 92.234 92.287 92.367 92.482 92.492 92.572 92.554 93.377 92.609 92.764 95.144 100.067 101.244 101.499 100.372 100.617 99.784 98.577 94.497 93.889 92.954 93.024 94.117 94.809 93.689 93.502 93.412 94.747 95.634 94.227 93.347 97.064 98.409 99.232 99.582 100.324 95.369 99.464 95.469 92.669 93.137 93.602 93.649 94.014 94.219 93.499 94.309 96.049 96.772 98.912 100.399 101.489 101.134 99.574 94.921 92.606 93.884 92.616 95.899 96.376 98.941 94.866 92.479 93.079 92.811 92.651 92.949 92.989 93.059 93.114 97.811 100.026 99.639 99.236 99.924 99.741 99.059 97.291 95.359 94.489 94.359 93.939 94.334 93.509 93.184 93.496 95.184 96.311 96.271 94.126 92.719 92.496 92.376 93.049 93.559 94.764 93.296 92.719 92.534 92.556 92.554 92.539 92.521 92.444 92.441 92.539 92.851 93.424 93.584 95.051 94.164 93.141 93.101 93.026 99.881 102.209 102.419 102.191 101.176 99.296 100.024 95.989 93.851 93.581 93.856 93.809 93.821 93.024 93.066 93.164 93.186 93.566 93.346 93.549 93.654 93.599 93.691 93.786 94.834 97.619 95.596 95.319 96.619 96.664 95.896 95.954 96.916 97.544 98.156 97.836 94.614 94.621 94.279 93.409 93.476 93.404 94.001 94.291 93.214 93.066 93.041 93.071 94.761 95.444 97.459 94.671 95.324 96.034 94.364 97.016 100.174 97.556 98.644 93.826 93.094 93.101 93.071 93.051 93.019 92.931 92.176 92.081 92.274 92.344 92.534 93.754 98.316 101.266 101.756 101.131 99.946 99.419 94.106 92.256 92.406 92.209 92.714 91.564 91.509 91.606 91.674 92.266 92.579 91.846 92.001 92.178 93.043 92.678 92.878 93.078 93.768 94.193 93.791 93.953 94.043 94.258 94.358 94.848 95.901 95.688 97.471 97.568 97.458 97.926 97.436 97.053 97.131 96.821 97.753 96.896
95.562 94.315 91.422 91.122 91.287 92.285 91.94 89.647 89.215 88.97 89.275 89.82 90.202 90.102 90.405 89.175 89.327 90.697 89.525 90.957 94.097 89.935 95.517 94.39 89.23 90.765 95.19 95.197 94.96 91.977 92.63 97.305 98.115 96.582 96.732 97.122 97.515 98.175 97.637 97.415 95.125 95.752 95.632 93.372 92.512 91.762 90.014 89.077 88.917 89.614 89.537 88.792 88.797 89.054 89.037 89.399 88.864 88.682 88.672 88.659 88.659 88.679 89.207 89.274 88.542 88.927 89.107 88.757 89.067 88.924 89.499 89.912 90.087 92.647 94.412 96.814 97.124 97.779 98.129 98.377 98.517 98.292 97.864 97.944 98.352 98.659 98.117 98.264 94.104 90.322 94.377 96.607 97.399 96.144 93.169 91.299 94.049 92.034 90.389 90.804 90.372 90.662 91.147 90.517 90.807 91.224 91.007 91.119 90.914 90.874 91.547 90.837 90.902 91.487 91.042 93.717 91.672 90.692 92.202 91.539 90.424 91.139 91.244 91.209 92.497 91.014 90.544 93.424 92.099 91.767 91.009 89.892 89.879 90.109 90.247 90.174 89.717 89.662 89.844 90.184 90.482 91.007 90.852 90.329 90.364 96.607 98.142 97.827 95.432 90.552 95.264 97.612 92.759 96.447 98.069 92.884 93.589 97.419 98.704 99.492 100.194 99.447 99.124 99.594 100.169 99.907 99.774 99.462 99.009 98.404 97.792 96.849 93.932 92.832 91.684 91.647 92.667 94.832 91.809 92.227 91.637 91.809 92.579 92.119 91.859 91.909 91.929 91.982 92.219 92.387 93.049 92.947 92.342 92.499 93.209 94.364 93.489 92.504 92.597 92.607 93.054 92.789 92.912 92.839 98.644 100.934 101.784 101.772 100.497 97.602 95.349 95.484 95.254 94.482 94.427 94.282 93.984 93.492 93.272 93.179 93.467 94.914 93.867 93.079 94.777 98.442 94.297 96.747 97.464 98.787 94.517 93.397 93.482 93.969 93.834 93.132 92.842 92.599 92.614 93.267 95.754 95.729 98.554 100.027 101.614 101.587 99.999 98.109 93.066 93.191 92.739 96.774 94.094 96.931 93.971 93.179 92.641 92.604 92.731 92.951 92.996 93.184 93.356 94.619 95.491 96.034 96.564 97.564 96.874 96.751 96.649 94.556 93.799 93.361 93.239 93.234 93.234 93.186 93.166 97.871 97.389 96.049 93.786 92.976 93.269 94.894 95.671 96.181 95.626 94.236 92.534 92.541 92.559 92.551 92.559 92.624 94.409 93.384 92.811 93.621 93.866 93.351 93.051 92.881 93.056 93.031 92.956 95.891 101.769 101.801 101.859 100.799 98.586 96.499 93.621 93.311 93.941 94.141 94.469 94.034 93.161 93.164 93.241 93.291 93.526 94.054 93.439 94.029 93.836 94.026 94.131 94.491 95.131 93.906 95.294 95.624 95.976 98.031 100.011 97.239 97.354 97.964 96.826 94.431 93.521 93.561 93.504 93.476 93.409 95.119 97.131 94.149 93.129 93.059 93.074 94.536 95.379 95.724 94.954 96.921 96.564 96.746 97.819 101.396 102.026 99.229 93.826 93.126 93.126 93.086 93.076 93.046 93.016 92.676 92.706 93.136 94.481 95.251 94.849 98.764 101.334 101.666 100.564 99.854 98.201 93.849 92.946 93.219 93.304 93.046 91.724 91.656 91.684 91.811 91.849 91.906 91.878 92.046 92.193 92.393 92.643 92.851 93.026 93.283 94.723 93.826 93.886 94.413 94.183 94.678 95.876 95.733 96.131 97.956 97.141 95.406 95.218 96.291 95.318 96.713 97.721 101.193 96.958
96.19 95.557 91.552 92.285 91.315 91.337 90.915 89.57 89.75 89.185 90.842 92.552 91.4 93.495 92.035 89.68 90.94 91.987 90.227 92.865 95.32 91.687 93.87 95.392 92.1 90.642 94.932 95.42 95.475 96.075 97.122 98.357 98.385 98.362 97.772 97.77 97.565 97.262 95.905 96.215 93.287 92.172 91.075 89.485 88.927 89.185 89.504 89.207 88.707 88.754 89.552 89.229 89.204 89.219 88.759 88.704 88.669 88.649 88.639 89.017 89.297 88.924 88.989 88.634 88.874 89.329 89.142 89.632 89.962 90.404 92.377 94.734 96.544 97.177 97.594 98.084 98.482 98.737 98.839 97.809 97.352 97.272 96.579 95.519 93.987 95.934 97.057 97.892 95.152 90.444 92.579 96.399 97.047 95.057 93.354 91.504 90.414 90.547 90.939 91.017 90.834 90.884 91.149 90.922 90.899 91.622 91.034 91.127 91.422 90.939 91.212 91.069 90.877 92.132 92.052 91.239 92.247 92.129 92.277 92.007 91.152 91.729 91.847 90.874 91.194 90.507 90.904 90.452 90.259 89.974 90.147 89.787 89.854 91.444 90.064 90.642 90.662 90.334 90.362 90.139 91.299 95.374 97.109 93.862 90.539 96.574 97.912 98.072 96.979 90.979 92.987 97.642 94.309 93.744 99.639 96.914 97.147 98.312 98.894 100.204 100.262 100.482 99.907 99.489 99.084 98.722 98.572 98.144 97.522 92.979 91.877 92.169 92.582 91.632 91.557 91.544 91.622 95.882 94.092 91.617 91.672 91.724 91.794 91.844 91.889 92.219 92.297 92.832 92.207 92.234 92.672 92.774 93.569 93.587 93.647 93.222 93.872 92.522 92.647 92.727 92.784 93.154 93.759 93.832 99.447 100.644 101.627 101.872 100.077 93.842 94.297 94.892 94.777 93.589 93.899 93.967 93.244 93.102 93.254 93.197 93.844 95.049 95.047 94.194 93.829 92.977 92.969 93.312 96.379 93.457 93.157 93.014 93.069 92.684 92.644 92.659 93.197 92.584 92.587 92.732 95.787 96.142 97.419 100.564 101.464 101.879 100.556 99.719 95.054 94.281 93.539 96.144 95.681 96.084 95.446 92.754 92.719 92.689 92.781 92.896 93.009 93.784 93.859 93.851 95.694 95.716 96.501 96.484 96.731 97.174 96.934 96.206 93.836 93.494 93.296 93.314 93.294 93.246 93.264 95.129 93.546 93.821 93.769 94.754 95.894 96.379 96.204 95.679 94.694 93.641 92.541 92.569 92.599 92.611 92.671 93.896 98.749 95.761 96.401 93.844 92.919 92.899 92.899 92.916 92.914 92.929 92.961 93.289 99.594 99.486 97.239 95.511 95.944 95.626 94.191 94.499 93.541 93.511 94.196 93.794 93.554 93.286 93.319 93.381 93.469 93.586 93.446 93.891 93.701 95.139 94.484 98.474 99.961 96.271 96.574 99.489 101.054 101.909 102.191 98.809 95.431 95.584 94.031 93.681 93.524 93.801 93.594 93.461 93.694 93.911 97.176 94.944 95.046 93.181 93.289 93.671 97.866 96.279 96.856 97.369 95.774 97.281 100.026 96.384 99.094 97.306 93.221 93.106 93.116 93.111 93.074 93.089 93.386 93.039 93.011 93.031 94.591 95.529 95.709 96.521 101.131 101.569 101.009 99.424 95.881 94.174 93.876 93.194 92.376 92.119 91.916 91.831 91.744 91.894 91.971 91.991 91.986 92.103 92.278 92.396 92.641 92.838 93.036 93.783 94.973 93.956 93.863 94.066 95.086 95.001 95.333 94.758 95.726 95.348 95.116 95.133 95.248 95.293 95.361 96.116 96.333 98.416 98.066
91.242 90.137 90.27 92.437 91.995 91.04 89.285 87.825 90.472 91.67 96.092 96.512 96.367 96.062 94.055 90.047 90.135 93.79 92.892 91.095 96.857 93.915 92.64 95.677 94.475 93.657 96.34 96.725 97.087 97.407 98.2 98.71 98.187 98.162 97.292 96.76 96.377 96.435 93.68 92.157 90.072 89.762 89.735 88.92 88.815 88.762 88.694 89.277 89.292 88.977 89.354 88.902 88.732 88.712 88.707 88.874 89.382 89.119 88.589 88.669 88.657 88.712 89.087 88.917 89.799 90.467 90.977 92.129 94.854 96.762 97.182 97.447 98.109 98.679 98.699 98.849 98.914 98.919 97.459 95.734 96.362 96.917 96.439 93.199 90.679 94.254 96.659 97.294 96.039 91.252 91.137 92.847 92.172 92.607 91.649 91.037 91.054 91.257 91.227 91.572 90.962 90.937 91.169 90.974 90.959 91.947 91.137 91.247 91.984 91.052 91.352 91.857 91.419 92.789 92.729 91.864 92.582 92.507 91.797 91.089 90.872 91.534 91.379 91.282 91.577 90.294 90.472 91.009 91.092 90.197 90.354 89.857 89.867 90.637 90.742 90.884 92.077 92.932 92.952 91.284 97.227 98.062 97.829 94.474 90.674 94.982 98.562 98.722 97.514 92.964 91.814 97.532 97.279 93.569 99.974 100.312 100.182 99.582 99.887 99.909 99.509 99.089 98.739 98.637 96.134 94.677 94.597 92.769 91.859 91.727 91.639 91.744 91.512 91.462 92.144 92.327 91.594 92.519 91.612 91.637 91.684 91.732 92.149 92.194 92.129 92.404 92.619 92.612 93.142 93.997 93.662 93.029 92.729 95.227 100.074 97.009 93.672 92.762 92.664 92.772 92.819 93.494 92.982 93.692 96.862 99.749 100.147 100.272 98.662 95.784 93.639 94.957 95.647 94.692 93.839 93.807 95.192 95.099 95.529 94.174 94.447 95.517 95.919 94.747 94.204 94.044 95.597 94.599 95.372 93.207 92.857 92.717 92.699 92.659 92.604 92.572 92.582 92.619 92.577 92.842 94.739 96.062 95.932 99.627 101.314 102.167 101.621 99.716 96.591 93.196 92.976 92.974 94.569 93.239 94.071 92.824 92.851 92.821 92.814 93.319 94.071 94.294 94.349 93.524 93.716 95.101 97.436 98.939 100.974 101.781 99.911 96.031 94.241 93.644 93.371 93.371 93.361 93.329 93.799 94.269 94.429 95.101 95.724 95.254 95.656 95.594 93.791 93.734 94.086 94.554 92.614 93.749 98.316 93.139 92.971 93.264 97.499 93.956 93.249 92.946 92.926 92.924 92.944 92.944 92.949 92.964 92.974 94.819 96.121 95.856 95.824 95.386 96.654 98.074 99.606 96.014 94.056 93.484 93.439 94.814 95.609 93.419 93.386 93.496 93.524 93.509 93.561 93.789 94.319 96.401 96.046 98.891 99.339 97.286 96.189 100.731 102.786 103.654 103.149 100.824 95.216 94.461 94.266 93.726 93.556 93.514 93.509 93.604 94.309 93.576 93.784 97.711 96.426 94.626 94.654 94.389 94.814 96.054 98.569 99.024 98.129 96.066 94.739 95.649 95.011 93.619 93.294 93.086 93.124 93.149 93.301 93.434 93.764 93.186 92.966 92.999 92.976 95.486 96.139 95.411 98.469 100.344 99.369 96.814 95.351 96.339 93.106 92.826 92.579 92.351 92.241 92.096 91.924 91.949 92.059 92.124 92.133 92.171 92.341 92.458 92.643 92.843 93.063 94.681 95.901 94.878 94.073 94.528 96.356 99.041 94.948 94.593 94.593 94.841 95.086 95.176 95.206 95.301 95.393 95.891 95.641 95.583 98.401
92.502 92.652 95.962 96.667 96.297 90.557 91.75 89.04 91.997 92.435 96.407 96.422 96.532 96.147 95.027 90.417 89.357 93.5 94.56 90.222 96.532 97.595 93.692 96.712 97.152 97.697 97.717 97.902 98.15 98.08 97.847 97.43 97.005 96.542 96.125 94.957 91.205 91.795 89.442 89.162 89.47 89.337 88.877 89.087 88.882 89.57 89.117 88.912 88.847 88.757 88.724 88.747 88.822 89.604 90.662 88.957 89.044 88.677 88.784 89.637 88.954 89.439 89.934 89.567 92.729 94.914 93.459 95.059 97.662 98.094 98.462 98.779 98.984 99.052 98.787 98.794 98.834 98.762 95.259 90.819 95.174 96.849 96.657 94.377 90.267 92.229 95.854 94.974 92.834 90.792 90.509 90.084 90.202 90.687 90.177 90.614 91.164 91.064 91.204 91.277 91.042 91.017 91.044 91.139 91.129 91.847 91.737 91.482 92.232 91.489 91.569 92.034 92.119 92.442 91.604 92.012 91.312 91.387 94.017 91.044 90.859 92.169 91.082 90.379 90.607 90.234 90.297 90.437 90.947 90.999 90.399 90.459 90.304 90.479 92.194 94.789 98.162 97.722 95.744 91.327 95.474 97.734 98.139 97.694 90.927 92.134 99.194 99.169 97.777 96.207 96.832 98.227 98.684 91.797 98.549 100.192 100.112 99.649 99.029 98.594 98.277 98.369 95.414 94.964 92.022 91.504 91.844 93.252 91.652 91.434 91.499 91.937 92.217 91.507 91.672 91.534 91.574 91.599 91.669 91.869 91.627 91.792 92.354 92.212 92.632 93.392 93.987 93.517 93.127 94.059 98.107 100.617 100.262 102.884 102.169 96.657 93.777 93.417 92.942 92.867 92.872 92.947 92.789 94.357 94.639 98.472 101.182 102.042 100.977 99.699 98.792 98.929 98.907 97.029 96.107 95.907 96.939 95.097 96.259 93.474 93.957 94.877 97.572 94.112 94.477 93.757 94.074 93.062 93.002 93.182 92.824 92.782 92.744 92.989 92.949 92.737 93.844 93.072 93.157 93.052 94.412 95.382 95.967 98.874 101.239 102.289 101.696 100.469 98.506 93.564 93.661 92.969 93.176 92.871 92.819 92.859 92.906 92.884 92.866 93.154 93.644 93.841 94.579 94.009 96.151 99.884 101.381 102.784 102.791 102.769 101.321 96.179 94.404 93.781 95.281 97.386 95.981 93.939 94.971 94.661 94.526 95.206 95.194 95.176 95.594 93.269 95.866 94.679 93.776 93.699 94.229 96.781 97.894 94.886 93.141 93.829 99.026 93.296 92.964 92.954 92.934 92.961 92.961 92.986 92.989 92.986 93.021 93.911 95.536 95.069 96.734 98.301 100.421 101.309 101.251 98.509 93.596 93.549 93.524 93.741 93.761 93.556 93.521 93.601 93.614 93.599 93.609 93.724 95.339 94.756 94.426 94.424 96.314 96.064 97.469 100.466 102.751 104.319 103.859 102.029 97.644 94.716 94.549 93.956 94.434 93.639 93.544 93.509 93.584 94.239 95.656 99.894 97.384 97.176 94.801 94.326 94.536 95.586 96.419 101.174 99.519 98.874 94.456 94.114 93.776 93.749 93.341 93.429 93.404 94.544 93.816 93.269 93.134 93.041 92.996 92.979 93.004 94.661 96.099 95.641 96.786 96.614 95.531 99.136 100.361 99.109 97.389 93.086 92.754 92.564 92.426 92.526 92.099 92.039 92.176 92.221 92.231 92.283 92.353 92.628 92.946 92.876 93.316 96.101 94.721 94.861 96.943 100.386 101.746 101.746 97.308 96.513 97.851 96.673 95.008 95.183 95.266 95.323 95.426 95.518 96.521 99.203 97.721
93.555 96.787 98.285 98.085 96.737 92.762 91.537 92.282 92.285 91.305 95.712 96.377 96.527 96.225 96.145 91.405 89.425 93.412 95.185 93.577 98.22 98.967 98.34 98.007 98.357 98.61 98.507 97.887 97.577 97.01 96.555 95.732 95.44 92.242 89.812 90.002 89.42 89.235 89.18 89 89.49 91.54 89.015 89.587 89.032 88.84 88.784 88.807 88.782 89.057 88.827 89.819 89.282 89.017 89.297 88.717 88.924 89.094 89.729 89.712 89.162 90.694 94.962 95.262 97.067 97.404 97.932 91.579 98.552 98.192 97.842 98.554 98.962 97.634 94.952 98.187 98.434 98.184 93.192 90.799 94.012 96.584 96.989 95.412 90.607 90.762 91.202 91.017 90.617 90.939 91.112 90.619 90.947 91.017 90.959 91.242 91.399 91.129 91.144 91.534 91.209 91.109 91.214 91.577 91.772 91.532 92.457 92.992 91.457 92.132 92.477 92.842 92.344 91.497 91.682 91.907 91.264 90.949 92.012 90.654 90.502 91.067 91.392 90.379 90.672 90.492 90.464 90.527 90.744 90.452 91.264 93.069 95.062 94.574 91.039 96.437 97.924 97.994 96.507 92.962 92.954 98.787 99.357 99.022 93.277 93.072 99.264 99.149 98.422 98.677 99.334 99.504 99.544 95.542 95.369 99.037 98.817 98.294 97.789 94.069 92.987 92.534 91.794 91.652 91.462 91.332 91.332 94.132 92.257 92.022 92.022 91.549 91.464 91.482 91.517 91.572 92.057 92.082 92.397 92.024 91.614 91.742 92.629 93.484 93.422 92.324 92.329 92.814 97.809 100.329 102.552 102.857 102.692 103.222 102.029 100.109 93.917 93.639 93.464 93.192 92.897 93.152 93.222 93.117 94.244 100.934 101.682 102.164 101.302 99.334 97.302 96.162 95.309 95.342 95.122 94.919 93.597 93.289 93.609 93.372 93.429 93.617 95.372 94.992 95.614 93.114 93.104 93.474 97.224 97.392 93.147 94.122 93.084 93.594 93.374 94.282 94.887 94.534 94.072 93.902 93.189 95.517 96.037 97.734 101.649 102.059 102.079 100.521 98.046 92.966 93.446 93.001 93.004 92.944 92.876 92.904 93.009 93.019 92.976 93.071 93.976 93.924 93.624 93.636 99.086 101.409 101.519 102.689 103.174 102.889 102.176 96.341 94.461 94.979 98.509 98.379 96.076 94.194 94.094 93.671 93.606 95.191 94.324 93.724 96.561 97.034 96.254 96.991 94.629 93.551 94.764 95.306 97.331 95.621 93.404 92.986 92.966 92.981 92.976 92.966 92.944 92.981 92.989 93.084 93.119 93.109 93.484 94.714 93.641 96.681 97.814 99.826 100.311 101.464 101.906 100.479 95.656 93.561 93.569 93.609 93.756 93.849 93.739 94.206 93.721 93.739 93.716 93.786 93.911 94.036 94.244 94.341 94.681 95.251 99.769 102.251 102.591 103.664 104.509 102.856 99.444 94.614 94.469 94.411 94.611 93.749 94.444 94.716 94.566 96.076 96.534 96.309 97.406 96.739 94.166 94.054 94.109 96.866 97.074 95.994 97.994 97.466 96.194 96.019 94.979 94.319 93.751 94.816 94.439 96.329 93.251 93.214 93.131 93.076 93.021 92.986 92.996 93.359 96.006 94.616 94.819 95.796 99.936 101.561 101.599 100.969 100.314 94.396 93.011 92.711 92.521 92.636 92.479 92.216 92.244 92.301 92.383 92.931 92.716 92.656 93.291 93.278 93.168 95.093 94.821 96.908 100.353 101.566 102.988 102.201 101.021 98.003 97.768 97.931 95.608 95.171 95.253 96.148 96.218 96.718 97.788 97.133 95.803
91.855 96.352 97.702 98.54 96.755 94.032 90.78 92.252 92.215 91.915 92.452 95.775 96.295 96.357 96.04 94.677 91.742 94.095 97.862 97.5 98.94 98.942 99.32 98.527 98.18 97.81 97.35 97.075 94.077 92.592 92.777 91.41 90.037 89.805 89.445 89.225 89.132 89.275 89.452 88.982 89.412 89.192 88.917 88.982 89.54 88.97 88.804 88.732 89.307 89.367 88.824 88.752 88.792 89.302 89.404 89.119 89.257 90.887 92.684 96.059 94.799 91.857 97.564 97.874 98.192 98.059 98.027 93.632 95.854 96.839 96.729 98.339 98.657 93.154 91.242 96.397 97.467 96.892 94.462 90.624 90.984 94.517 93.439 91.447 90.849 90.464 90.092 90.667 91.404 91.167 91.207 91.352 91.164 91.384 91.394 91.484 92.312 91.239 91.239 91.457 91.574 91.402 91.429 92.419 91.957 94.492 93.002 93.507 93.109 93.264 91.474 91.234 92.867 91.132 90.967 91.447 90.982 90.987 91.014 90.709 90.552 91.007 91.452 90.472 90.497 90.757 90.539 90.487 90.649 91.862 96.512 98.214 97.884 95.407 90.639 94.707 97.967 98.177 97.374 95.077 91.162 99.372 99.622 99.614 99.782 99.337 99.799 99.809 99.679 99.577 99.727 99.299 98.752 97.344 92.862 96.507 95.634 93.169 91.842 91.567 91.299 91.482 91.304 91.387 91.827 91.574 91.834 91.852 91.384 91.394 91.404 91.454 91.414 93.349 92.024 92.049 91.997 91.679 91.592 91.887 92.207 91.809 92.322 92.182 92.117 92.142 92.542 95.292 97.414 100.227 102.539 101.394 103.579 103.412 102.542 101.724 95.039 94.162 93.094 93.197 92.954 93.014 93.309 92.929 93.157 98.844 99.474 97.902 96.657 95.177 94.189 93.967 94.519 94.532 93.462 93.487 93.622 93.494 94.147 94.644 94.469 94.194 95.717 96.379 96.842 93.462 93.639 93.412 99.789 96.242 95.612 96.467 97.802 94.289 94.159 93.997 93.459 93.717 93.259 93.137 93.219 94.104 96.039 97.579 101.504 101.832 102.381 100.986 99.101 93.436 92.991 93.031 93.026 93.024 92.971 93.004 93.084 93.139 93.086 93.141 95.099 94.721 93.666 93.659 95.536 99.174 100.829 102.409 103.874 103.371 102.266 98.414 95.516 94.831 95.056 94.756 93.749 93.651 93.609 93.569 93.704 95.434 94.721 94.044 95.384 97.064 96.716 99.916 97.486 93.466 93.479 93.476 93.929 93.896 93.651 93.001 93.006 92.994 92.984 92.974 92.966 93.209 93.491 94.456 93.826 93.674 93.759 94.566 93.729 95.901 96.874 100.716 101.491 102.116 102.429 101.349 100.056 94.024 93.651 93.964 94.094 94.059 93.774 94.474 93.906 93.841 93.886 93.879 94.019 94.551 94.779 94.471 94.419 94.686 98.376 101.559 101.486 102.934 104.544 103.806 101.621 95.999 94.391 95.431 94.576 94.741 95.774 95.494 95.451 94.854 94.311 95.026 96.214 95.284 94.046 94.001 94.029 94.086 94.694 98.841 99.536 96.789 96.811 96.866 97.441 95.376 93.804 94.209 93.571 93.361 93.286 93.221 93.151 93.119 93.059 93.469 93.529 93.524 93.871 95.639 96.674 98.534 101.404 102.579 102.346 100.804 99.441 96.051 93.416 92.909 93.434 92.539 92.601 92.369 92.336 92.386 92.486 92.618 93.066 92.896 93.531 95.058 93.998 94.413 94.541 94.613 99.138 100.668 102.486 103.338 102.786 98.668 97.676 97.856 96.426 95.288 96.271 98.013 98.061 96.253 96.131 95.823 95.783
