ncols 424
nrows 32
xllcorner    527144
yllcorner    188694
cellsize     2
NODATA_value -9999
74.486 75.798 75.193 76.303 74.563 74.623 74.678 74.758 74.816 74.723 74.743 75.318 74.913 75.198 75.228 75.418 76.736 80.058 80.883 77.413 75.313 74.791 75.101 75.096 75.088 75.143 75.213 75.498 75.995 76.385 80.055 82.408 82.843 83.95 84.538 83.933 82.95 81.47 80.11 79.05 76.733 76.588 76.933 77.038 77.048 77.033 77.098 77.153 77.165 77.243 77.315 77.493 77.17 77.208 77.28 77.338 77.5 78.575 77.673 77.653 77.665 77.705 77.748 77.795 78.533 78.203 78.208 78.195 78.22 78.21 83.208 80.615 79.303 80.085 83.17 81.008 80.013 79.125 78.3 78.36 78.808 79.333 79.225 83.263 78.638 79.713 80.8 82.348 80.468 79.985 78.483 78.238 78.52 79.115 79.563 78.503 78.633 80.485 83.95 85.315 82.373 83.943 86.3 86.853 86 85.173 84.11 82.105 79.733 81.023 81.205 79.333 78.965 79.853 78.638 78.643 79.038 78.993 78.79 78.705 78.713 78.82 78.903 78.963 78.973 78.973 79.043 79.078 79.165 79.885 79.773 80.745 80.033 79.708 79.833 81.968 83.68 80.493 80.873 84.203 86.735 87.453 88.6 89.628 89.22 87.958 85.455 81.188 80.64 81.033 80.898 80.865 80.925 81.028 81.1 81.205 81.395 81.588 81.755 81.845 82.11 83.368 82.81 85.398 84.545 88.203 86.935 84.673 85.468 86.17 87.878 87.505 87.27 87.558 88.545 88.23 87.63 87.455 87.537 87.63 86.55 85.572 85.61 85.705 85.792 86.032 86.63 87.365 87.75 88.032 88.555 89.125 91.305 96.207 97.225 98.665 96.247 94.72 90.532 93.907 92.442 94.717 92.875 91.95 92.885 93.24 93.44 93.88 101.03 102.73 103.477 103.635 103 102.22 101.242 95.832 93.652 93.292 93.21 93.067 92.867 92.795 92.825 92.91 93.05 93.742 94.5 98.047 93.94 95.992 93.727 92.662 92.595 92.377 92.352 92.28 92.295 92.38 92.5 92.532 92.552 92.587 92.56 92.617 92.685 93.687 97.45 99.04 96.887 94.472 93.1 93.142 95.05 94.375 93.7 93.567 94.56 98.095 101.625 102.347 102.737 102.502 102.125 102.14 98.35 94.25 95.147 93.77 93.915 94.01 93.595 93.62 93.632 93.535 93.525 93.66 93.772 97.332 94.572 93.637 95.412 94.57 93.247 94.145 96.625 100.46 101.207 101.707 95.952 92.467 92.535 92.437 92.31 92.007 91.397 90.962 90.635 90.805 91.75 90.192 89.375 88.997 88.992 88.992 88.995 88.987 89.302 89.397 89.092 89.187 89.2 89.17 89.337 90.447 91.217 91.18 91.037 90.912 90.957 91.402 91.772 91.757 90.52 90.57 90.357 89.465 89.37 89.302 89.939 88.439 88.654 88.437 88.324 88.382 87.504 87.042 86.982 86.979 86.987 87.009 86.982 86.989 86.972 86.979 86.969 86.947 86.972 86.942 86.942 86.939 86.824 86.757 86.649 86.492 86.347 86.272 86.337 86.374 94.794 94.712 94.677 94.617 94.654 94.684 94.707 89.642 86.382 86.377 86.422 86.439 86.444 86.479 86.489 86.709 88.864 87.034 86.342 86.939 88.062 86.809 86.729 86.867 87.262 88.649 87.072 87.339 87.107 88.024 90.839 91.912 88.719 88.774 88.342 88.899 90.092 90.734 90.342 94.307 94.104 92.307 92.594 95.052 96.322 97.307 96.137 93.242 94.044 94.852 96.314 95.259 92.849 93.387 93.162 94.024 93.887 94.387 95.012 95.382 94.942 94.909 94.879 94.744 94.434 93.929
74.433 76.516 76.601 76.196 74.616 74.571 74.673 74.713 74.753 74.766 74.803 74.816 75.028 75.228 76.436 75.336 74.631 74.191 74.481 74.643 75.341 75.303 75.196 75.163 75.153 75.438 75.803 76.191 76.578 78.025 83.198 84.233 83.54 83.133 84.353 85.348 84.525 83.493 82.618 78.88 76.635 77.09 77.273 77.208 77.13 77.098 77.13 77.193 77.23 77.333 77.76 77.24 77.243 77.298 77.375 77.435 78.178 78.058 77.655 77.663 77.67 77.745 77.77 77.945 78.235 78.213 78.235 78.245 78.248 78.245 80.81 81.263 82.643 80.123 80.2 81.258 81.233 82.598 80.558 78.758 78.815 80.385 80.045 79.065 78.838 79.183 81.36 80.975 80.35 79.085 78.233 78.243 78.293 79.063 78.61 78.36 78.383 78.423 78.43 80.92 80.228 85.698 86.87 87.693 87.405 86.613 85.76 84.878 83.615 84.998 86.59 83.805 79.75 79.723 79.315 78.693 79.09 79.165 78.803 78.878 78.795 78.803 78.895 78.955 79.018 79.043 79.078 79.053 79.13 79.203 79.3 81.823 80.39 79.68 79.73 79.96 80.315 80.405 81.688 84.205 87.42 88.11 88.33 88.958 87.96 85.31 80.588 80.868 80.96 81.235 80.945 80.868 80.92 81.253 81.65 82.548 81.823 82.655 82.97 84.165 85.33 85.775 85.06 83.69 84.638 91.79 86.703 83.303 85.83 87.125 89.058 88.985 87.273 86.83 87.56 88.33 87.328 87.62 87.607 87.717 87.802 87.395 85.977 85.78 85.88 85.96 86.11 86.777 87.58 88.14 89.12 89.162 91.102 95.655 96.715 97.455 98.552 95.285 95.032 95.485 95.235 95.542 93.07 92.765 91.897 93.642 92.505 93.002 96.915 101.447 102.47 103.282 103.802 103.242 102.472 101.677 97.932 93.937 93.315 93.27 93.172 93 92.912 92.962 93.017 93.072 94.505 99.405 99.937 96.907 93.117 92.887 92.675 92.515 92.48 92.472 92.44 92.567 93.202 92.532 92.587 92.675 92.642 92.662 92.665 92.71 92.79 93.325 97.03 95.297 92.98 94.97 94.177 93.447 94.157 94.262 94.235 94.777 96.437 101.265 102.127 101.52 101.12 99.412 93.67 94.847 93.867 93.495 94.165 93.675 93.57 93.577 93.51 93.507 93.595 93.655 94.315 96.442 95.497 94.04 93.835 94.122 94.425 95.267 100.63 101.177 101.642 101.9 101.562 96.967 92.46 92.647 92.33 92.315 92.08 91.865 90.92 90.602 90.597 90.595 90.327 89.622 89.067 89.005 89.017 89.012 89.022 89.027 89.27 89.082 89.217 89.242 89.242 89.242 89.567 90.35 90.782 90.977 90.797 90.627 90.525 90.872 91.267 91.985 93.327 90.375 89.62 89.105 89.777 91.382 90.349 89.902 90.064 92.027 92.667 91.102 90.599 89.177 88.349 87.002 86.974 86.987 86.979 86.982 86.972 86.979 86.964 86.954 86.947 86.917 86.827 86.767 86.694 86.557 86.407 86.317 86.334 86.357 93.847 94.684 94.687 94.652 94.667 94.674 94.699 89.797 86.362 86.394 86.412 86.459 86.462 86.502 86.472 86.467 89.262 89.949 86.304 86.769 87.572 86.894 86.744 86.812 87.062 88.912 88.424 87.792 87.639 88.129 90.522 92.227 90.089 88.394 88.802 90.159 90.959 91.602 93.294 95.984 95.399 94.869 95.612 96.119 94.137 96.944 94.897 92.779 94.802 95.077 94.572 95.329 92.872 94.209 96.072 94.627 94.527 94.804 95.322 94.947 94.914 94.739 94.314 93.827 93.564 93.442
74.318 74.443 74.531 75.626 74.531 74.583 74.676 74.718 74.766 74.791 74.846 74.851 74.856 75.776 76.593 74.893 75.048 74.816 74.951 75.366 75.286 75.188 75.203 75.228 75.616 76.018 75.933 76.098 76.31 81.275 83.6 84.678 84.89 84.325 85.153 85.955 85.653 84.293 82.71 77.445 77.413 79.255 79.71 77.853 76.94 76.965 77.155 77.343 77.333 78.115 77.4 77.265 77.308 77.358 81.49 80.905 79.803 78.71 77.67 77.708 77.723 77.735 77.768 78.185 78.225 78.22 78.248 78.255 78.245 78.5 78.35 78.328 78.925 79.84 81.84 81.91 84.77 88.42 87.488 83.833 79.65 78.583 79.625 79.228 78.35 78.648 78.275 79.043 78.895 78.243 78.288 78.255 79.29 79.255 78.378 78.36 78.373 78.405 78.453 78.938 79.823 82.34 85.608 86.588 87.46 88.018 87.2 86.273 85.51 86.25 86.34 84.748 79.56 79.523 79.205 78.783 79.608 78.818 79.13 81.683 79.985 78.898 78.905 78.948 79.003 79.05 79.128 79.173 79.193 79.193 79.283 79.533 80.428 80.158 79.765 80.098 80.285 80.905 80.198 81.49 87.085 86.8 86.893 87.72 85.78 80.543 80.633 80.82 80.84 80.883 81.615 81.988 82.128 83.583 83.103 83.718 83.69 83.94 83.585 84.17 84.518 85.123 84.165 82.82 83.46 85.115 83.075 84.418 84.225 85.888 89.215 89.19 86.935 85.685 86.6 87.575 87.958 89.133 88.645 87.795 87.88 87.987 87.61 85.935 85.952 86.06 86.147 86.25 86.91 88.407 88.935 91.162 95.187 95.787 94.707 95.785 90.602 91.427 96.762 97.377 99.462 96.427 93.297 91.587 91.855 92.167 92.3 92.662 93.082 94.205 101.097 102.797 103.44 103.757 103.52 102.69 101.925 100.997 96.915 93.357 93.34 93.26 93.07 92.997 93.055 93.125 93.237 96.522 95.31 101.425 98.407 92.952 92.78 92.682 92.627 92.752 92.542 92.64 93.785 93.827 95.357 95.977 94.372 92.682 92.72 92.715 92.7 92.822 92.935 92.885 94.502 96.057 93.212 93.322 93.387 93.432 93.807 95.055 93.762 95.45 99.845 100.537 100.03 95.93 94.025 93.622 93.615 94.455 93.582 93.585 93.545 93.542 93.475 93.565 93.62 94.79 94.927 93.912 95.377 96.8 95.055 92.662 94.275 100 101.11 101.597 101.897 101.587 101.11 99.92 93.745 92.835 92.502 92.08 92.285 92.027 91.552 90.91 90.635 90.63 90.585 91.48 90.537 89.14 89.035 89.037 89.027 89.08 89.075 89.13 89.135 89.245 89.37 89.26 89.255 89.275 89.227 90.392 90.877 90.695 90.522 90.382 90.272 90.395 92.12 93.322 92.805 91.98 90.322 91.204 91.394 90.022 90.092 92.742 93.574 93.249 92.902 92.562 92.317 91.519 90.112 89.259 88.194 87.507 87.244 87.074 86.962 86.974 86.962 86.927 86.824 86.787 86.714 86.614 86.489 86.382 86.354 86.359 92.497 94.659 94.679 94.672 94.852 94.674 94.719 90.079 86.349 86.362 86.412 86.462 86.497 86.469 86.487 86.559 86.717 87.982 86.309 86.472 89.124 88.687 86.784 86.779 86.942 89.767 90.679 89.572 87.789 88.922 90.312 90.852 91.634 91.322 88.477 90.517 91.387 91.584 93.132 94.524 93.167 92.322 96.399 93.332 93.724 93.212 93.652 93.009 95.942 95.777 97.282 94.799 93.274 95.282 94.912 95.334 95.034 95.032 94.854 94.589 94.187 93.779 93.552 93.514 93.619 93.527
74.378 74.408 74.398 74.461 74.501 74.553 74.611 75.578 74.883 74.893 75.173 75.898 74.916 75.866 75.446 74.986 74.958 75.076 75.266 75.236 75.208 75.226 75.293 75.498 75.848 75.626 75.828 76.086 76.74 77.17 80.158 83.05 84.083 85.035 84.94 84.695 84.878 83.488 78.79 77.028 79.81 82.968 81.438 77.495 76.78 76.705 76.783 77.14 77.908 77.39 77.348 77.385 77.378 80.2 80.618 82.348 80.165 81.723 77.713 77.75 77.785 77.783 78.028 78.18 78.228 78.24 78.265 78.263 78.36 78.628 78.315 78.348 78.385 78.585 80.53 81.873 87.105 89.028 89.078 87.945 83.57 80.158 78.19 78.525 79.96 78.68 78.585 82.16 80.408 78.248 78.27 78.425 78.96 78.443 78.368 78.393 78.408 78.45 79.383 79.555 78.923 78.988 82.8 86.043 86.14 87.155 87.675 87.595 86.758 86.6 85.478 80.3 82.525 80.06 78.87 80.728 79 78.85 80.488 82.243 80.343 78.963 79.07 79.013 79.043 79.055 79.118 79.183 79.255 79.285 79.308 79.803 79.403 80.045 79.91 79.835 79.948 80.045 80.108 80.218 81.555 81.455 82.655 83.725 80.533 81.345 82.385 81.51 81.203 81.805 81.925 81.453 81.505 82.358 82.73 83.235 81.815 81.545 81.64 81.868 82.225 82.48 82.47 82.54 82.633 82.785 82.898 83.143 85.173 89.195 91.11 91.363 91.448 88.573 85.923 88.15 88.775 88.783 89.415 88.002 87.952 88.072 88.137 88.047 86.63 86.115 86.205 86.31 87.295 89.725 92.995 93.435 97.782 97.765 96.612 96.455 90.05 90.502 96.342 99.155 99.81 98.677 93.225 91.57 91.907 92.127 92.355 92.525 92.647 92.76 93.367 99.427 102.015 102.812 103.555 103.645 103.397 103.197 102.412 98.32 94.162 93.58 93.437 93.172 93.107 93.175 93.342 93.595 94.637 97.407 94.1 93.097 92.907 92.835 92.857 92.915 92.89 92.642 92.665 94.572 96.802 98.897 96.997 92.81 92.745 92.78 92.775 92.747 92.765 92.84 92.917 94.072 93.26 93.652 93.425 93.605 94.915 94.2 93.532 93.575 95.985 98.862 97.49 93.727 93.717 93.4 94.167 93.952 93.582 93.585 93.567 93.52 93.49 93.58 95.04 95.637 93.715 93.837 93.627 94.677 94.02 94.832 97.535 101.055 101.545 101.892 101.642 101.157 99.905 94.85 92.485 92.32 93.002 92.13 92.272 92.397 91.837 91.625 90.96 91.047 92.105 95.102 92.475 90.515 89.987 89.07 89.072 89.087 89.092 89.112 89.412 89.135 89.272 89.312 89.287 89.32 89.35 89.357 89.32 90.002 90.477 90.64 90.32 90.215 90.102 90.517 91.69 92.335 93.002 91.642 90.374 90.407 90.147 93.382 93.509 93.162 92.817 92.492 92.359 92.602 92.312 92.467 92.672 92.892 92.419 90.409 88.314 87.772 86.922 86.944 86.884 86.819 86.734 86.649 86.519 86.402 86.382 86.787 91.112 94.699 94.677 96.207 96.822 94.902 94.694 93.667 90.012 86.462 86.364 86.442 87.024 86.444 86.527 87.987 86.397 86.707 86.342 86.357 87.344 87.887 86.864 87.314 86.967 88.117 91.612 91.567 89.482 88.617 90.499 89.192 90.454 90.082 88.519 89.482 90.147 93.582 93.712 95.284 94.602 94.769 95.582 93.444 94.894 95.032 93.164 98.334 94.447 93.542 93.607 93.517 94.089 94.322 94.397 94.574 94.637 94.479 94.047 93.777 93.564 93.499 93.512 93.562 93.467 93.204
74.486 74.481 74.478 74.493 74.511 74.513 74.553 74.633 74.756 76.303 76.268 75.121 74.918 74.948 75.051 75.416 75.473 75.208 75.211 75.228 75.248 75.373 75.676 75.673 75.618 75.748 75.898 76.391 77.168 76.83 76.933 78.02 83.318 84.535 84.105 83.253 83.725 81.01 76.668 78.74 82.038 84.645 84.305 82.755 80.348 77.17 76.805 78.27 77.705 77.353 77.35 77.383 77.435 78.713 82.573 82.935 78.413 80.015 77.735 77.785 77.818 77.818 78.22 78.228 78.24 78.28 78.285 78.513 78.805 78.488 78.378 78.39 78.388 79.01 78.963 80.665 84.205 86.898 87.508 87.995 87.54 84.128 80.37 78.858 81.15 79.91 78.975 79.158 78.26 78.358 78.333 79.41 78.82 78.408 78.388 78.413 78.388 78.495 79.265 78.743 78.66 78.718 79.038 80.893 83.763 85.898 86.688 87.468 87.295 85.898 82.255 83.283 86.058 85.053 83.925 86.338 82.765 79.96 82.41 81.125 79.45 79.53 79.578 81.098 79.643 79.103 79.108 79.173 79.225 79.313 79.38 79.398 79.378 79.495 79.605 79.74 79.89 79.97 80.068 80.71 80.988 80.388 80.535 80.543 81.838 83.513 84.878 86.028 86.773 87.53 85.57 81.183 81.408 81.435 81.36 81.375 81.425 81.663 81.628 81.77 82.18 82.375 82.475 82.573 82.678 82.758 82.905 85.365 85.755 92.158 91.438 91.278 88.933 88.14 86.798 89.495 88.853 88.89 87.707 88.045 87.162 88.135 88.207 88.32 88.315 87 86.292 87.38 94.59 97.17 98.43 92.917 93.632 94.247 94.225 91.397 89.91 90.125 94.155 95.115 98.585 96.467 92.292 91.65 91.932 92.127 92.422 92.61 92.715 92.822 92.897 93.022 96.815 101.79 102.547 103.525 104.467 104.21 103.44 102.677 101.057 95.795 93.572 93.447 93.217 93.225 93.347 93.48 93.49 93.75 94.032 93.122 93.032 93.032 93.067 93.065 93.225 93.072 93.132 95.745 97.76 100.207 94.377 92.77 92.762 92.8 92.815 92.82 92.775 92.662 92.81 92.895 93.055 94.132 93.777 94.16 94.68 93.62 93.55 93.537 93.54 94.035 93.9 93.792 93.37 94.062 93.62 93.545 93.57 93.555 93.522 93.527 93.575 93.615 94.837 93.807 93.627 94.032 94.34 93.955 94.792 99.157 101.092 101.487 101.87 101.697 101.23 100.742 96.84 92.882 92.295 92.205 92.097 92.072 92.802 92.962 92.512 91.74 91.687 91.935 90.95 93.117 94.122 91.217 90.535 89.885 89.13 89.11 89.122 89.115 89.157 89.2 89.297 89.28 89.372 89.312 89.272 89.35 89.445 89.422 89.322 89.727 90.445 90.312 90.257 90.05 90.012 89.99 90.222 90.217 90.607 90.952 88.534 90.962 90.579 92.472 92.769 92.399 92.397 92.597 92.289 92.554 92.902 93.244 93.594 91.992 90.052 90.524 89.487 88.807 87.499 87.007 87.002 87.369 86.544 86.432 86.409 90.502 94.619 94.687 94.662 96.164 96.844 94.664 94.682 94.722 90.737 86.644 86.467 86.394 86.474 86.537 87.257 86.717 87.187 87.129 89.424 89.089 87.854 88.389 87.922 89.192 90.667 90.189 90.734 89.367 87.834 87.567 87.922 88.832 89.992 91.144 89.457 89.784 90.822 95.269 95.754 94.104 94.699 95.012 94.177 96.027 97.489 96.409 95.632 95.444 95.879 92.957 93.502 93.607 93.927 94.097 94.199 94.067 93.779 93.564 93.864 93.939 93.532 93.499 93.442 93.147 92.669 92.462
74.481 74.526 74.558 74.578 74.571 74.566 74.623 74.608 74.691 76.091 77.943 76.388 75.023 75.121 75.073 75.081 75.166 75.333 75.291 75.296 75.556 75.701 75.503 75.548 75.673 75.776 75.936 76.056 76.12 76.463 76.25 76.8 77.368 80.025 82.155 80.808 82.025 78.11 77.55 80.295 84.088 85.623 85.793 85.12 83.995 81.993 77.913 79.27 78.303 77.618 77.413 77.433 77.465 78.728 80.433 79.785 78.36 77.723 77.76 77.79 77.835 78.27 78.245 78.245 78.27 78.305 78.51 78.855 79.058 78.403 78.378 78.42 78.423 78.548 79.555 78.945 79.03 80.775 83.96 86.123 87.798 84.988 79.35 80.495 80.593 79.19 78.753 78.273 78.923 84.165 80.678 78.823 78.355 78.365 78.39 78.425 78.39 78.875 79.11 78.508 78.525 78.55 78.995 79.705 79.405 82.633 84.703 86.038 86.278 84.545 80.408 85.913 87.31 86.918 86.188 86.778 84.728 80.028 80.013 80.575 79.66 81.03 81.905 82.018 79.73 79.185 79.16 79.17 79.208 79.3 79.38 79.45 79.485 79.483 79.54 79.67 79.83 80.118 80.305 80.518 80.595 80.525 80.493 80.57 84.623 87.973 88.583 88.928 88.905 88.343 86.37 81.888 81.02 81.305 81.343 81.338 81.433 81.738 81.798 81.728 82.08 82.388 82.48 82.57 82.668 82.75 82.848 84.088 86.43 90.313 87.043 89.548 90.605 89.243 88.043 87.835 87.55 87.965 87.445 87.932 87.74 87.74 88.027 88.382 88.48 88.59 87.63 92.782 98.41 99.587 99.597 95.595 91.857 90.87 89.725 89.737 89.955 90.187 90.387 90.61 93.897 91.535 91.355 91.767 91.94 92.172 92.447 92.63 92.805 92.925 93.037 93.165 93.167 94.845 101.582 102.71 103.572 104.307 104.435 103.712 102.855 101.705 97.412 93.942 93.5 93.322 93.41 93.5 93.567 93.572 93.335 93.227 93.185 93.237 93.252 93.337 93.13 93.132 94.077 95.537 96.862 97.855 95.607 92.707 92.735 92.797 92.845 92.825 92.842 92.837 92.742 92.82 92.925 93.072 93.562 95.155 95.102 94.807 93.582 93.535 93.922 97.375 95.282 93.307 93.472 94.05 93.357 93.477 93.505 93.497 93.48 93.512 94.01 93.55 93.56 93.777 93.717 93.432 93.44 94.895 97.982 101.26 101.715 101.975 101.72 101.275 100.815 96.592 93.857 92.352 92.22 92.105 92.037 92.702 92.055 91.85 92.41 92.572 92.067 92.355 91.535 92.832 95.165 90.775 90.85 91.22 89.732 89.225 89.13 89.157 89.125 89.19 89.307 89.4 89.252 89.355 89.327 89.305 89.31 89.442 89.537 89.51 89.407 89.495 90.167 91.242 90.602 90.162 89.982 89.919 89.969 90.212 90.007 89.244 88.437 88.029 87.437 89.134 89.179 90.584 92.052 92.644 92.992 93.324 93.677 91.044 90.247 90.634 90.569 90.157 87.389 87.082 87.484 87.622 86.749 86.469 86.414 90.612 94.722 94.662 94.664 95.217 96.714 95.174 94.674 94.704 92.124 87.144 86.677 86.332 86.457 86.944 87.787 86.597 86.579 88.812 94.932 95.852 94.557 93.069 94.017 90.174 93.612 92.589 89.959 87.714 88.004 88.464 88.662 89.047 89.344 90.119 90.472 90.652 91.109 93.147 94.562 93.037 94.012 93.127 95.524 95.167 95.159 96.739 97.119 93.464 92.564 93.059 93.477 93.819 93.954 93.937 93.649 93.507 93.617 93.499 93.512 93.564 93.417 93.082 92.659 92.517 92.449 92.332
74.493 74.546 74.601 74.626 74.668 74.673 74.673 74.711 74.713 74.716 74.763 74.823 74.946 75.111 75.208 75.248 75.211 75.251 75.303 75.361 75.476 75.426 75.488 75.586 75.678 75.811 75.893 75.981 76.065 76.155 76.228 76.388 77.263 76.61 77.878 79.425 78.703 78.673 79.773 83.283 85.043 86.045 85.705 85.713 84.323 81.85 79.998 82.443 80.893 79.045 77.98 77.523 77.505 77.948 78.853 78.018 77.72 77.755 77.8 77.82 78.048 78.443 78.253 78.273 78.305 78.333 78.365 78.563 78.49 78.393 78.423 78.433 78.45 78.84 79.188 78.455 78.455 78.433 78.48 81.015 82.208 80.665 78.555 79.673 80.135 78.965 80.078 79.108 79.61 85.445 84.008 78.46 78.358 78.385 78.395 78.415 79.44 78.74 78.508 78.525 78.55 78.543 78.703 79.565 78.675 79.535 81.89 82.79 85.03 80.515 84.68 86.828 87.638 88.045 87.323 86.183 82.13 81.9 83.565 85.43 84.88 81.148 82.005 80.68 80.008 79.643 79.245 79.253 79.283 79.29 79.32 79.423 79.503 79.51 79.555 79.663 79.785 79.973 80 80.093 80.183 80.298 80.425 82.665 87.223 88.13 89.525 90.32 89.79 88.26 84.285 81.628 81.083 81.243 81.27 81.338 81.393 81.48 81.595 81.738 82.405 82.938 82.48 82.588 82.64 82.698 82.805 83.128 86.04 88.978 86.725 89.783 88.185 85.755 85.983 85.66 86.11 87.838 87.532 87.475 87.795 89.43 93.522 89.962 88.535 88.627 87.527 92.267 98.542 99.13 99.175 94.495 89.312 89.497 89.685 89.85 90.045 90.262 90.402 90.55 93.165 96.147 91.622 91.792 91.962 92.21 92.457 92.65 92.81 93.035 93.162 93.197 93.192 93.245 93.235 97.817 102.025 103.322 104.14 104.532 103.91 103.1 102.337 97.872 94.14 93.607 93.52 93.57 93.59 93.48 93.405 93.417 93.41 93.415 94.295 94.132 93.315 93.212 93.172 96.7 94.115 95.997 92.902 92.67 92.755 92.777 92.817 92.862 92.895 92.872 92.825 92.81 92.847 92.912 92.977 93.845 95.152 94.375 93.547 93.88 96.292 95.62 93.147 93.192 93.25 93.337 93.38 93.357 93.407 94.51 93.655 93.665 94.477 93.855 93.552 93.58 93.772 93.055 93.05 97.385 101.197 101.65 102.092 102.085 101.457 100.87 97.705 93.112 92.39 92.28 92.177 92.065 92.262 91.777 91.832 92.412 92.582 91.93 92.845 92.39 91.88 92.597 95.532 91.052 90.547 90.587 91.217 90.342 89.652 89.21 89.192 89.185 89.182 89.292 89.362 89.242 89.412 89.425 89.362 89.302 89.375 89.477 89.537 89.6 89.577 89.68 90.33 91.05 90.259 90.037 89.942 89.902 89.912 89.999 90.132 90.079 89.457 88.469 88.099 87.662 87.539 87.934 89.407 91.102 93.344 89.172 90.342 90.684 90.494 89.149 87.234 87.457 87.154 86.984 86.859 86.564 86.409 89.884 94.734 94.687 94.674 94.877 96.724 95.202 94.227 93.819 92.092 86.534 86.882 86.329 86.282 86.259 86.269 86.369 87.267 90.034 95.222 95.722 91.952 93.682 91.384 94.359 94.184 90.704 91.274 91.154 89.939 89.314 90.584 90.099 90.544 91.609 91.714 92.299 93.397 92.872 92.347 94.637 93.062 95.824 94.589 93.069 92.522 92.457 92.437 93.514 92.502 92.799 93.224 93.267 93.659 93.617 93.517 93.732 93.527 93.492 93.347 93.002 92.644 92.499 92.349 92.329 92.334 92.364
74.501 74.538 74.601 74.661 74.716 74.721 74.723 74.748 74.753 74.801 74.811 74.793 74.856 74.918 75.016 75.166 75.123 75.251 75.281 75.383 75.388 75.588 75.753 76.081 76.593 75.753 75.863 75.948 76.008 76.105 76.193 76.285 76.393 76.47 76.998 77.398 76.913 78.765 81.515 84.363 85.75 85.443 84.318 84.628 82.783 79.988 82.733 84.258 83.49 81.118 80.325 78.635 77.505 78.92 77.938 77.818 77.79 77.808 77.86 77.868 78.205 78.238 78.278 78.293 78.315 78.34 78.61 78.85 78.423 78.413 78.433 78.47 78.573 79.203 78.86 78.5 79.955 79.823 78.488 78.783 78.858 78.543 78.555 78.588 78.68 80.955 79.218 79.2 79.583 80.485 80.31 78.545 78.4 78.618 78.453 78.81 79.135 78.478 78.543 78.52 78.558 78.575 79.008 79.495 78.91 80.815 81.848 81.93 80.225 80.26 86.3 87.185 86.285 86.945 86.743 84.06 81.285 86.375 86.738 86.635 86.48 83.21 81.763 80.28 79.67 79.298 79.475 79.563 79.563 79.385 79.38 79.443 79.528 79.653 79.608 79.633 79.743 79.853 79.985 80.088 80.535 80.5 80.443 82.635 87.978 88.388 89.413 90.04 89.648 88.555 84.223 81.525 81.075 81.188 81.255 81.358 81.438 81.53 81.62 81.713 82.538 83.123 82.513 82.61 82.628 82.698 82.89 82.983 84.26 86.513 87.213 87.61 86.955 85.17 84.685 84.98 85.363 86.255 86.99 88.89 88.542 92.607 94.425 90.7 88.447 88.362 87.34 96.762 99.867 99.895 96.567 89.33 89.257 89.537 89.782 89.985 90.17 90.32 90.45 92.737 106.775 107.682 98.652 92.64 92.157 92.295 92.43 92.637 92.807 93.002 93.205 93.307 93.282 93.342 93.43 93.537 95.945 101.005 103.942 104.135 104.492 104.122 103.355 102.575 96.885 93.842 93.815 93.692 93.677 93.605 93.552 93.592 93.555 93.685 93.612 93.555 93.615 93.455 94.592 94.157 93.03 92.902 92.882 92.78 93.665 92.952 92.815 92.907 92.917 92.98 92.9 92.89 92.822 92.837 92.93 92.995 93.75 94.582 94.052 95.555 95.582 93.702 93.17 93.157 93.295 93.312 93.332 93.312 95.817 97.582 95.762 95.53 93.795 93.612 93.732 93.587 93.157 93.037 97.072 101.157 101.62 102.092 102.115 101.685 101.19 99.165 93.117 93.157 92.295 92.217 92.107 93.592 98.417 92.722 91.757 92.655 91.802 91.735 92.107 91.545 91.74 91.807 92.205 91.61 91.197 90.712 90.537 91.06 91.205 89.42 89.255 89.21 89.225 89.192 89.27 89.507 89.28 89.375 89.435 89.452 89.337 89.31 89.382 89.49 89.602 89.612 89.562 89.572 89.719 89.802 90.104 91.057 90.229 89.929 89.902 89.899 89.932 89.982 90.162 89.909 89.717 88.819 88.277 87.539 87.404 87.332 89.842 88.667 88.817 88.407 87.052 87.252 87.089 86.989 86.907 86.722 86.534 88.432 90.374 88.309 87.784 88.129 90.747 87.802 86.394 86.367 86.357 86.367 86.649 86.379 86.289 86.534 86.862 86.912 87.352 87.374 87.617 88.452 89.662 93.717 93.722 92.904 93.627 91.717 91.832 92.332 92.942 92.212 90.469 90.657 91.109 91.964 93.669 94.177 94.322 94.074 93.049 93.162 92.672 93.729 92.597 92.432 92.922 93.872 95.517 95.504 92.994 92.789 93.062 93.227 93.327 93.399 93.682 93.459 93.297 92.937 92.597 92.444 92.369 92.349 92.359 92.364 92.407 92.394
74.493 74.516 74.588 74.656 74.688 74.778 74.786 74.816 74.816 74.856 74.873 74.863 74.871 74.913 74.981 74.978 75.028 75.128 75.221 75.398 75.413 75.443 75.441 75.581 75.728 75.776 75.793 75.876 75.898 76.058 76.15 76.248 76.33 76.885 77.315 76.58 77.118 76.998 79.188 82.575 84.765 84.44 83.008 83.223 79.965 81.518 84.415 85.753 86.023 84.675 81.805 80.39 78.403 78.863 78.19 77.87 77.898 77.925 77.903 78.375 78.82 78.243 78.278 78.295 78.308 78.43 78.835 80.005 78.76 78.475 78.473 78.5 78.698 79.113 78.555 78.545 79.965 79.39 78.51 78.72 78.62 78.56 78.578 78.605 78.645 78.69 78.69 78.993 80.158 79.82 81.558 80.505 80.545 79.485 81.66 80.165 79.018 78.513 78.548 78.558 78.56 79.048 79.493 78.785 78.675 78.71 79.78 79.813 79.925 79.06 81.368 84.915 84.455 84.808 86.06 80.273 85.76 88.05 87.48 86.853 85.918 81.21 80.593 84.968 81.263 79.43 80.26 79.41 79.513 79.44 79.51 79.523 79.498 79.613 79.665 79.668 79.705 81.355 83.18 81.27 83.758 83.308 80.605 81.375 84.348 87.498 88.705 89.46 88.125 87.858 85.978 80.955 81.145 81.213 81.283 81.325 81.415 81.533 81.738 81.718 83.133 83.36 82.53 82.618 82.65 82.735 82.82 82.935 83.743 87.988 85.265 87.19 87.32 86.01 84.745 85.043 85.23 85.9 87.097 94.41 92.095 95.362 95.312 90.702 87.612 87.737 89.877 98.677 100.307 98.937 91.992 88.995 89.28 89.562 89.807 90.045 90.24 90.387 90.395 106.747 110.725 109.857 108.485 101.482 94.207 92.365 92.48 92.625 92.812 93.015 93.175 93.33 93.425 93.467 93.53 93.55 93.582 94.215 99.617 102.837 103.647 104.397 104.415 101.15 94.032 93.957 94.002 93.82 93.765 93.897 94.285 93.727 93.77 94.035 93.695 93.862 94.367 93.755 93.357 93.577 93.05 92.965 93.045 92.917 92.867 92.755 92.737 92.792 92.88 92.935 92.937 92.947 92.942 92.87 92.842 92.905 92.96 93.05 94.102 96.252 94.525 93.13 93.132 93.215 93.267 93.295 93.277 93.302 94.972 96.045 95.772 94.29 95.342 93.59 93.567 93.797 93.017 96.257 101.095 101.555 102.067 102.152 101.71 101.257 99.592 94.012 92.57 93.537 92.247 92.155 92.792 96.872 100.102 97.515 92.21 92.042 91.772 91.797 91.632 91.525 91.482 91.447 93.11 93.29 91.662 91.377 91.032 90.927 90.627 90.662 90.042 89.23 89.287 89.242 89.227 89.242 89.235 89.285 89.412 89.462 89.462 89.51 89.345 89.565 89.442 89.577 89.535 89.57 89.642 89.634 89.662 89.737 89.889 90.139 89.952 90.257 90.089 89.894 89.922 89.897 89.942 90.009 89.959 89.852 89.732 89.067 88.459 88.272 87.887 87.527 88.419 87.184 87.122 87.184 87.369 87.774 87.417 88.177 88.789 87.052 86.779 88.024 90.557 91.134 88.907 87.837 88.504 87.752 87.599 87.064 86.852 87.202 86.649 86.599 86.682 86.734 87.549 86.934 89.377 93.174 92.947 95.752 91.257 92.722 93.712 94.449 94.624 93.127 94.717 92.367 92.522 93.939 94.134 95.349 94.237 93.922 92.764 92.657 92.764 92.457 93.122 94.937 95.889 95.914 95.897 95.854 93.847 92.694 92.719 92.984 93.147 93.254 93.139 92.787 92.572 92.394 92.377 92.349 92.389 92.432 92.419 92.394 92.974 94.642
74.446 74.503 74.556 74.636 74.678 74.713 74.816 74.818 74.878 74.903 74.886 74.923 74.946 74.953 74.993 75.001 75.023 75.093 75.223 75.363 75.418 75.453 75.486 75.483 75.563 75.668 75.718 76.386 75.873 76.013 76.105 76.195 76.28 76.78 76.485 76.835 77.048 77.003 77.015 78.128 82.123 83.423 81.428 79.908 77.723 83.49 84.948 86.01 86.465 85.583 84.203 81.008 79.228 82.38 81.178 79.878 78.223 78.308 78.428 79.59 79.128 78.268 78.273 78.305 78.303 78.495 79.46 78.79 78.458 78.465 78.508 78.498 78.733 78.645 78.545 78.573 78.62 78.573 78.575 78.778 78.6 78.555 78.56 78.605 78.618 78.66 78.638 79.663 84.703 81.75 82.583 88.513 87.19 81.533 81.028 78.998 78.478 78.983 79.093 78.615 78.58 79.305 79 78.92 78.788 78.7 78.698 79.683 80.08 79.103 78.945 80.09 82.08 82.093 81.52 83.405 86.523 87.873 88.445 87.81 86.958 86.195 84.698 86.69 86.37 81.808 79.7 79.428 79.775 79.543 79.52 79.648 79.6 79.603 79.665 79.723 79.73 81.473 85.85 82.035 82.895 84.535 85.415 82.85 81.278 85.473 85.093 84.965 83.268 83.93 83.26 81.003 81.215 81.38 81.513 81.365 81.418 81.623 81.773 81.71 81.968 82.443 82.575 82.645 82.685 82.735 82.838 82.98 84.153 91.1 87.443 85.945 86.16 84.52 84.815 85.075 85.275 85.495 87.67 89.967 93.075 94.74 95.64 93.987 89.327 88.22 89.38 96.037 98.065 94.955 88.812 89.082 89.332 89.575 89.842 90.077 90.275 90.442 102.262 112.435 111.82 110.972 110.117 109.172 104.302 96.49 92.507 92.642 92.822 93.01 93.2 93.327 93.487 93.61 93.662 93.695 93.69 93.697 93.74 97.325 102.61 103.407 102.17 94.85 94.02 94.042 93.942 93.9 93.835 94.347 94.23 94.16 94.025 93.99 93.69 94.42 94.427 93.802 93.345 93.272 93.182 93.152 93.235 93.057 92.962 92.89 92.765 92.805 92.87 92.872 92.94 92.972 92.95 92.97 92.927 92.91 92.887 92.997 93.035 93.227 93.087 93.067 93.197 93.205 93.252 93.247 93.227 93.342 93.83 95.57 93.555 93.885 95.277 93.647 93.562 93.42 94.757 99.947 101.492 101.957 102.165 101.75 101.305 99.477 95.125 93.53 92.72 92.627 92.19 92.172 98.092 100.955 100.597 100.17 98.392 94.532 91.712 91.735 91.665 91.555 91.45 91.92 91.792 91.38 91.752 91.697 91.847 91.577 91.105 91.21 91.2 89.612 89.325 89.315 89.25 89.247 89.275 89.427 89.467 89.415 89.487 89.492 89.54 89.512 89.385 89.397 89.497 89.612 89.607 89.647 89.712 89.672 89.722 89.719 89.684 89.744 89.717 89.984 90.402 90.099 90.259 89.959 89.939 89.937 89.937 89.997 90.122 90.052 90.202 89.914 90.494 89.489 89.464 88.382 88.112 87.967 87.822 87.862 87.812 87.512 87.532 88.047 90.612 90.394 89.262 89.507 89.257 90.364 93.099 90.012 86.874 86.889 87.407 87.187 90.164 88.559 90.302 88.017 91.122 95.652 90.984 92.079 97.319 95.634 95.242 97.409 93.989 95.669 94.252 92.997 93.957 94.109 94.047 92.917 92.734 92.742 92.712 92.619 92.514 92.424 92.439 95.872 95.844 95.884 95.894 95.852 95.179 92.464 92.482 92.659 92.779 92.687 92.464 92.384 92.377 92.357 92.357 92.382 92.419 92.634 93.619 94.899 96.442 96.664
74.641 74.626 74.558 74.573 74.636 74.668 74.766 74.833 74.838 74.901 74.966 74.998 74.991 75.016 75.091 75.103 75.068 75.096 75.133 75.193 75.341 75.436 75.461 75.468 75.513 75.763 76.546 79.126 77.988 76.588 76.043 76.115 76.173 76.263 76.575 76.97 76.845 77.023 77.955 77.873 77.235 77.605 79.543 77.648 80.458 82.63 84.548 85.385 86.445 86.368 83.11 77.815 83.085 84.658 84.13 81.955 80.735 79.068 78.983 80.643 81.32 80.395 78.983 78.298 78.33 78.488 78.815 78.428 78.438 78.47 78.525 79.033 80.168 78.655 78.583 78.525 78.52 78.563 78.843 78.668 78.57 78.57 78.58 78.595 78.648 78.67 80.52 81.365 80.415 79.628 83.035 89.513 89.213 83.768 82.483 79.47 81.203 82.09 80.348 80.285 78.773 78.893 78.755 78.765 78.783 78.998 80.568 80.59 80.023 78.903 79.148 81.998 82.095 81.583 79.48 84.2 86.033 86.73 87.595 88.335 88.328 87.543 86.885 86.795 85.093 82.748 80.12 79.563 80.245 79.483 79.543 79.73 79.75 79.648 79.718 79.775 79.815 79.868 80.428 83.483 86.15 86.033 86.66 82.643 81.203 82.558 81.378 81.775 83.025 83.403 83.033 81.353 81.205 81.2 81.345 81.323 81.408 81.6 81.64 81.693 81.965 82.435 82.598 82.663 83.273 82.778 82.845 83.475 83.943 85.603 85.593 87.775 91.77 85.078 84.923 85.453 85.518 85.528 85.965 87.315 87.75 89.502 90.635 89.832 88.805 88.855 90.597 91.655 93.17 89.235 88.877 89.185 89.44 89.667 89.95 90.19 90.382 96.332 110.957 111.827 112.602 112.055 111.22 110.41 109.557 107.747 98.315 92.732 92.792 92.975 93.177 93.357 93.535 93.69 93.787 93.815 93.807 93.83 93.84 93.842 96.1 101.79 95.962 94.195 94.16 94.055 94.005 93.987 94.317 94.41 94.56 93.912 102.85 100.877 93.765 94.575 94.117 93.672 93.452 93.362 93.31 93.45 93.37 93.552 93.127 92.987 92.902 92.9 93.407 93.087 92.885 92.982 93.077 92.995 92.982 92.927 92.92 92.857 92.95 92.927 92.987 93.065 93.15 93.2 93.167 93.2 93.272 93.38 93.69 95.292 93.757 93.49 93.745 93.765 93.602 93.35 93.095 96.64 101.885 102.185 101.815 101.335 100.69 94.845 93.757 92.672 92.445 92.267 92.21 96.647 100.347 100.737 100.972 100.632 100.242 98.98 93.227 91.687 91.68 91.502 91.66 92.225 91.387 91.4 91.43 92.03 91.84 92.042 91.167 90.575 91.117 90.355 90.127 89.412 89.282 89.262 89.29 89.307 89.407 89.302 89.437 89.525 89.52 89.575 89.607 89.535 89.495 89.522 89.564 89.619 89.664 89.692 89.729 89.744 89.754 89.829 89.782 89.777 89.737 89.772 89.959 89.904 90.392 90.267 90.219 90.019 90.014 89.984 89.984 90.057 90.074 90.264 90.889 90.182 90.082 89.657 88.997 88.777 89.347 89.009 88.584 88.252 88.522 90.547 90.417 88.959 92.449 90.312 92.842 90.729 89.084 88.074 88.337 88.317 91.524 93.997 95.219 91.489 92.784 92.774 91.742 95.084 96.402 95.589 94.907 95.484 94.647 95.582 93.497 93.509 93.159 92.944 92.882 92.787 92.659 92.674 92.659 92.544 92.424 92.322 92.329 94.694 95.842 95.862 95.889 95.864 95.839 93.224 92.452 92.497 92.497 92.414 92.374 92.364 92.382 92.387 92.399 92.562 93.522 95.177 96.322 96.727 96.692 96.677
74.681 74.756 74.738 74.588 74.598 74.663 74.753 74.791 74.831 74.901 74.933 74.973 75.026 75.066 75.096 75.141 75.116 75.183 75.171 75.231 75.231 75.283 75.323 75.388 75.546 76.778 76.023 76.816 78.71 75.78 75.925 75.993 76.048 76.305 77.058 76.693 76.628 76.8 77.07 77.038 77.103 77.485 77.798 77.96 80.4 83.09 84.83 86.208 86.17 85.158 79.218 79.925 84.818 85.998 86.208 86.323 83.448 80.543 79.188 81.235 80.898 80.495 81.495 80.35 79.245 79.51 79.673 79.565 78.473 78.483 78.498 79.855 80.095 78.57 78.553 78.538 78.563 78.583 78.6 78.598 78.573 78.568 78.59 78.625 78.683 79.03 81.628 80.905 78.605 78.568 78.585 83.935 85.738 82.538 81.373 80.71 85.25 83.605 82.128 80.358 81.05 78.71 78.735 78.743 78.768 78.958 79.935 79.055 78.895 78.9 80.155 81.918 82.078 80.025 81.738 83.045 83.163 85.735 86.743 87.718 88.36 88.455 88.083 87.3 86.313 83.065 81 80.443 80.628 79.563 79.588 79.738 79.965 79.84 79.763 79.828 79.853 79.89 80.345 82.71 83.325 85.625 84.873 81.095 83.345 88 87.878 87.035 85 84.155 83.328 81.583 82.095 84.288 84.085 81.815 84.148 84.678 81.768 81.813 82.26 82.448 85.005 85.21 84.735 84.523 83.04 82.92 83.993 84.125 84.993 87.808 87.92 90.743 85.645 86.44 85.315 86.385 88.365 88.485 86.282 87.037 86.362 87.3 89.267 89.642 90.497 91.767 90.1 88.655 88.935 89.225 89.472 89.78 90.082 90.297 90.435 101.427 109.857 111.04 111.582 112.297 112.307 111.52 110.66 109.795 108.49 98.037 92.775 92.927 93.117 93.37 93.645 93.805 93.842 94.977 95.702 96.91 95.087 94.967 95.875 95.19 94.265 94.315 94.21 94.107 94.08 94.192 94.605 94.845 93.98 101.862 104.832 104.885 99.52 93.942 93.91 93.647 93.532 94.092 94.252 94.777 93.882 94.077 93.257 93.147 93.022 92.99 93.442 93.422 92.862 92.945 93.06 93.042 93.015 92.992 92.975 92.925 92.902 92.9 92.977 93.02 93.062 93.132 93.105 93.225 93.312 93.507 93.497 93.495 93.565 93.595 93.482 93.422 93.265 93.61 94.152 100.162 101.762 102.025 101.405 100.505 96.052 93.467 93.225 93.495 92.32 92.205 92.517 95.2 99.087 100.28 100.705 100.985 100.72 100.282 99.367 94.072 91.615 91.427 91.715 91.53 91.62 91.6 91.92 91.655 91.652 91.635 91.982 91.042 90.7 90.45 90.832 89.89 89.457 89.352 89.347 89.32 89.305 89.505 89.482 89.45 89.52 89.582 89.645 89.677 89.7 89.615 89.549 89.519 89.639 89.682 89.707 89.724 89.742 89.747 89.787 89.782 89.819 89.817 89.779 89.802 89.812 89.864 89.907 89.994 90.147 90.032 90.047 90.077 90.077 90.044 90.072 90.074 90.127 90.174 90.304 90.367 90.062 89.884 89.577 89.407 90.282 92.149 96.724 92.002 92.634 94.652 93.269 92.954 91.434 90.629 90.192 91.302 95.909 93.129 95.062 93.964 90.149 93.802 93.804 96.574 95.772 94.082 93.302 93.244 93.422 94.389 93.644 92.852 92.852 92.824 92.774 92.734 92.677 92.667 92.619 92.507 92.439 92.387 92.349 93.259 95.842 95.874 95.892 95.357 93.904 92.562 92.454 92.449 92.402 92.399 92.389 92.402 92.414 93.537 95.132 95.957 96.817 96.814 96.802 96.749 96.694 96.682
74.686 74.781 74.706 74.668 74.803 75.241 75.313 75.043 74.806 74.853 74.918 75.013 75.033 75.088 75.143 75.186 75.218 75.231 75.266 75.273 75.283 75.306 75.328 75.333 75.453 76.566 76.903 77.323 76.353 75.883 75.905 75.905 75.985 76.563 77.375 76.278 78.708 79.743 78.023 76.893 77.115 77.76 77.41 77.368 77.685 82.455 84.67 85.553 84.61 82.148 78.505 83.463 85.238 86.23 86.738 86.245 84.598 79.748 82.385 82.543 81.36 81.383 80.318 80.223 79.18 79.333 79.9 79.695 78.948 78.728 78.683 80.135 78.975 78.538 78.55 78.58 78.575 78.845 78.83 78.578 78.583 78.578 78.575 78.605 78.658 79.605 81.3 79.47 78.703 78.583 78.5 78.668 79.418 83.233 82.535 83.348 86.908 86.04 84.258 81.688 80.375 79.205 78.78 78.76 78.91 79.635 79.698 78.84 78.835 78.845 78.858 79.48 80.405 80.633 80.725 82.543 83.03 85.163 86.488 86.23 86.9 87.45 88.163 87.438 86.11 81.198 85.463 85.158 86.148 83.565 80.148 79.698 79.905 79.81 79.798 79.91 79.915 79.918 80.013 80.945 83.413 81.873 83.223 81.015 84.61 88.388 89.465 89.193 88.768 88.285 85.718 82.07 83.263 85.585 86.513 84.323 93.59 94.243 89.675 85.383 86.948 83.33 86.338 86.953 84.353 84.62 83.315 83.545 84.595 84.523 84.988 86.505 86.593 86.045 85.678 85.14 85.63 87.995 88.517 87.452 88.287 88.787 87.837 86.715 89.687 90.635 89.92 89.957 88.692 88.665 88.985 89.282 89.552 89.87 90.172 90.38 90.547 94.445 108.032 109.595 110.417 111.6 112.187 112.412 111.767 110.905 106.01 92.642 92.822 92.94 93.047 93.405 93.78 93.845 94.222 94.782 98.505 98.225 100.902 98.41 95.432 94.365 94.43 94.305 94.25 94.192 94.197 94.687 94.705 94.34 101.205 104.827 104.837 104.85 104.857 97.887 93.865 93.757 95.73 96.345 94.595 95.697 93.907 93.437 93.37 93.315 93.3 93.097 93.002 92.95 92.87 92.892 92.97 93.057 93.132 93.015 93.007 93.007 92.965 92.957 92.962 92.98 93.027 93.027 93.142 93.302 93.32 93.835 93.81 93.517 93.535 93.56 93.61 93.175 93.127 94.16 99.04 101.602 102.06 102.412 101.807 96.177 92.927 92.942 92.99 92.295 92.167 92.05 91.857 92.112 95.32 99.097 100.242 100.675 100.985 100.765 100.352 97.887 92.675 91.502 92.697 91.43 91.455 92.02 91.777 91.425 91.48 91.65 91.392 91.657 91.277 90.77 90.377 90.537 90.632 89.51 89.425 89.385 89.367 89.362 89.405 89.495 89.445 89.545 89.652 89.675 89.735 89.817 89.757 89.637 89.577 89.584 89.642 89.709 89.799 89.764 89.749 89.749 89.769 89.844 89.869 89.909 89.902 89.852 89.957 89.989 89.957 89.964 89.942 89.944 90.184 90.004 90.219 90.149 90.134 90.114 90.112 90.137 90.222 90.292 90.552 90.369 90.419 92.217 90.767 90.784 92.404 93.434 92.799 94.059 94.667 93.652 92.107 92.489 95.827 95.017 98.834 92.654 95.014 93.304 92.374 95.272 95.389 95.397 95.584 93.697 93.697 93.334 92.804 92.764 92.749 92.779 92.784 92.742 92.779 92.707 92.662 92.574 92.497 92.427 92.392 92.374 95.484 94.592 93.149 92.717 92.384 92.374 92.364 92.382 92.397 92.407 92.392 93.297 96.189 96.689 96.774 96.797 96.827 96.814 96.779 96.774 96.732 96.692
74.703 74.728 74.761 74.818 74.906 75.548 77.493 77.421 75.843 74.843 74.861 74.956 75.008 75.056 75.121 75.213 75.226 75.276 75.301 75.293 75.353 75.358 75.396 75.411 75.406 75.498 75.576 77.148 75.743 75.858 75.85 75.858 75.945 75.998 75.995 76.61 81.375 81.52 78.893 76.763 77.38 77.365 77.188 77.26 77.295 77.36 80.62 84.105 83.345 78.908 80.425 83.75 84.328 85.615 86.688 85.358 83.513 79.863 84.823 84.808 83.485 82.273 81.393 80.688 78.835 79.62 78.37 78.433 78.528 78.788 78.735 80.115 78.56 78.563 78.563 78.573 78.59 79.15 78.648 78.58 78.573 78.58 78.575 78.628 78.635 80.808 80.643 78.82 78.758 78.563 78.54 79.293 81.163 79.178 81.065 84.575 88.005 87.618 86.503 80.855 80.908 82.99 81.075 79.178 81.073 80.77 78.838 78.83 78.853 78.873 78.883 79.53 81.198 81.283 79.853 79.498 81.733 82.745 83.39 84.54 86.548 85.885 86.813 86.598 82.608 84.073 87.15 87.483 87.243 85.715 80.298 79.715 79.883 79.89 79.84 79.9 79.95 79.955 80.568 83.085 82.488 80.583 80.55 80.8 85.543 88.45 89.133 89.463 89.765 88.58 84.038 81.328 81.445 82.973 84.09 87.948 95.4 90.315 92.03 88.643 86.983 83.58 84.568 90.415 84.705 83.45 83.168 83.963 84.623 85.103 84.178 84.55 84.583 86.293 85.308 85.138 85.37 86.335 87.25 88 89.52 89.755 89.295 87.672 88.647 90.185 89.492 88.695 88.462 88.717 89 89.322 89.65 89.98 90.295 90.555 90.775 91.09 92.24 100.517 109.33 110.18 111.02 112.067 112.445 109.977 92.635 92.73 92.845 92.927 93.352 93.65 94.282 97.577 100.417 95.61 97.647 101.592 97.507 97.755 98.162 94.54 94.46 94.352 94.332 94.275 94.35 94.305 94.787 99.467 104.667 104.81 104.835 104.85 104.91 95.3 94.647 96.64 99.745 98.45 95.152 95.505 94.13 93.472 93.492 93.422 93.365 93.362 93.16 93.067 92.99 92.855 92.96 93.025 93.05 93.077 93.09 93.04 92.992 93.01 93.03 93.012 93.012 93.012 93.112 93.247 93.302 94.252 94.097 93.487 93.505 93.612 94.352 95.057 93.397 98.48 101.537 102.037 102.402 102.2 101.732 98.36 92.93 93.202 92.352 92.185 92.085 92.02 92.19 92.485 92.315 95.25 99.64 100.22 100.625 100.96 100.835 94.595 91.972 99.38 98.617 94.545 91.547 91.64 91.825 91.49 91.595 92.077 91.735 92.317 91.567 91.262 90.557 90.657 90.245 90.635 89.655 89.465 89.455 89.385 89.377 89.415 89.465 89.527 89.602 89.61 89.672 89.76 89.764 89.839 89.824 89.732 89.672 89.624 89.694 89.804 89.839 89.812 89.794 89.749 89.774 89.854 89.959 89.979 89.979 89.972 89.964 89.967 89.979 89.992 89.992 89.939 89.942 89.984 89.967 89.944 90.022 90.099 90.164 90.222 90.224 90.269 90.359 90.434 90.772 91.449 90.867 91.222 92.302 93.472 92.764 91.437 91.832 92.537 91.354 93.434 97.159 93.222 93.732 94.149 93.902 93.964 95.279 92.987 92.699 92.667 92.659 92.664 92.659 92.712 92.704 92.777 92.824 92.869 92.887 92.829 93.892 94.952 93.594 92.514 92.427 92.367 92.367 92.347 92.384 92.344 92.337 92.379 92.392 92.419 92.422 94.079 96.029 96.677 96.699 96.717 96.764 96.774 96.827 96.834 96.807 96.787 96.732 96.704
76.631 75.723 74.796 74.908 74.918 76.028 76.658 76.791 75.061 75.851 75.091 74.923 75.006 75.011 75.066 75.163 75.238 75.278 75.331 75.388 75.413 75.423 75.448 75.486 75.496 75.511 75.536 75.611 75.63 75.748 75.758 75.828 76.058 76.073 75.99 76.225 77.818 78.035 76.538 76.875 77.29 76.918 77.028 77.103 77.183 77.245 77.315 78.378 79.445 78.523 80.898 83.173 85.12 86.455 86.085 84.47 80.32 82.948 85.7 86.445 86.105 84.878 83.67 80.68 78.645 78.32 78.198 78.315 78.558 78.543 80.515 79.305 78.828 78.883 78.69 78.603 78.605 79.105 78.7 78.59 78.593 78.603 78.6 78.613 78.768 81.763 79.353 78.658 78.613 78.895 78.895 80.63 80.21 78.745 82.54 88.093 90.753 91.498 89.163 81.585 82.815 81.83 82.683 79.868 80.865 78.985 78.835 78.828 78.873 78.89 78.913 79.965 79.773 79.078 79.445 79.545 79.633 81.308 84.063 79.778 81.97 80.073 85.018 85.24 81.88 86.555 88.005 88.098 86.935 83.583 80.185 80.393 80.228 79.925 79.903 79.938 79.968 80.003 80.078 80.095 80.263 81.81 81.403 81.075 83.688 85.993 86.885 88.645 89.645 88.173 82.395 81.38 81.148 81.193 81.3 87.243 96.3 90.775 91.26 94.308 86.273 87.103 89.438 85.27 86.67 84.933 84.818 84.058 83.73 83.778 83.885 84.158 84.64 85.948 86.028 85.573 86.283 86.265 86.39 88.692 89.745 89.915 89.515 88.927 90.8 90.405 89.447 88.385 88.542 88.772 89.045 89.427 89.742 90.065 90.382 90.66 91.372 92.442 92.92 92.057 95.39 105.777 109.9 111.152 110.095 99.515 92.762 92.795 92.845 94.755 95.615 94.02 98.252 98.702 98.787 96.31 99.235 104.04 95.805 97.965 97.24 97.935 95.145 96.172 95.777 95.645 95.107 94.647 96.565 104.862 104.89 105.92 105.16 104.86 96.677 93.777 93.827 94.737 96.627 99.71 95.03 93.917 93.535 93.532 93.65 93.587 93.43 93.42 93.387 93.22 93.082 92.995 92.945 92.982 93.01 93.05 93.047 93.09 93.035 93.075 93.065 93.032 93.012 93.037 93.105 93.172 93.227 93.317 93.495 93.425 93.455 93.76 95.275 95.292 99.12 101.48 101.967 102.405 102.255 101.745 100.917 96.602 93.25 92.797 92.377 92.125 92.017 92.007 92.045 92.037 92.337 91.802 94.525 99.292 100.125 100.54 94.512 91.592 96.792 99.66 97.56 98.16 94.545 91.52 91.522 91.915 91.592 91.852 91.68 92.527 92.045 91.657 91.255 90.56 90.56 91.14 90.232 89.675 89.48 89.457 89.43 89.395 89.455 89.602 89.56 89.655 89.622 89.625 89.582 89.752 89.874 89.907 89.832 89.822 89.722 89.687 89.744 89.834 89.907 89.864 89.829 89.787 89.829 89.934 90.012 90.052 90.012 90.027 90.034 90.024 90.032 90.032 90.029 90.002 89.964 89.932 89.897 89.874 90.022 90.147 90.362 90.294 90.427 90.472 90.559 90.639 90.752 90.799 90.917 91.042 91.184 91.279 91.584 91.704 91.787 91.899 92.669 93.524 92.054 92.152 92.269 92.342 92.932 92.494 92.549 92.587 92.582 92.612 92.634 92.697 92.724 92.814 92.917 93.054 93.077 94.727 97.427 97.239 94.982 92.579 92.444 92.382 92.352 92.389 92.342 92.327 92.337 92.397 93.559 94.302 95.449 96.634 96.652 96.667 96.687 96.719 96.737 96.784 96.819 96.824 96.824 96.789 96.749 96.724
75.591 75.956 75.303 75.266 74.848 74.908 76.161 75.788 76.746 76.063 74.981 75.021 74.986 75.033 75.051 75.086 75.191 75.218 75.298 75.343 75.396 75.453 75.513 75.571 75.553 75.588 75.563 75.656 75.603 75.615 75.653 75.683 75.848 75.888 75.948 76.155 76.198 76.175 76.228 76.493 76.643 76.668 76.943 78.225 77.795 77.12 77.233 77.543 77.825 78.03 79.24 83.74 85.508 86.375 85.195 82.948 79.263 84.718 85.933 86.808 86.995 85.92 84.295 79.583 84.113 83.363 79.47 78.268 79.41 78.585 80.12 78.94 78.765 78.7 78.888 79.148 78.638 78.935 78.608 78.583 78.595 78.62 78.625 78.6 80.595 81.35 78.683 78.603 78.628 78.733 78.708 80.083 80.71 79.213 84.515 90.735 90.43 90.493 89.52 84.185 82.44 82.368 80.975 82.663 79.645 78.905 78.843 78.85 78.883 78.9 78.998 79.533 79.08 79.013 79.11 79.368 79.518 81.278 81.32 79.205 79.58 79.91 80.23 81.255 85.583 87.43 88.338 87.385 87.163 86.585 82.425 81.148 80.863 79.933 79.92 79.985 80.008 79.988 80.093 80.178 80.323 80.765 81.11 80.898 83.613 83.563 85.85 89 89.563 87.77 82.845 82.675 82.443 81.218 81.303 82.035 95.74 98.465 97.33 94.04 86.475 86.928 92.603 88.128 85.453 86.328 85.838 86.03 84.348 84.05 84.43 84.773 85.463 85.108 86.735 87.183 86.443 87.345 87.245 88.365 89.48 89.625 89.067 87.265 89.702 90.047 89.68 88.467 88.617 88.845 89.15 89.497 89.817 90.16 90.49 90.752 91.015 91.61 93.1 91.817 92.097 98.895 108.1 109.662 103.535 92.625 92.797 92.85 92.905 94.73 96.232 97.532 95.665 99.15 97.385 99.16 97.932 99.805 99.955 100.162 97.155 95.465 95.447 96.275 97.325 99.565 96.217 96.175 104.572 104.835 105.05 106.585 106.64 104.442 95.867 95.437 96.582 97.872 96.32 94.885 94.805 93.705 93.545 93.557 93.562 93.597 93.635 93.432 93.417 93.367 93.25 93.115 93.057 92.927 92.94 93.022 92.997 93.077 93.13 93.115 93.1 93.087 93.085 93.08 93.03 93.102 93.165 93.937 93.685 93.375 93.402 93.642 93.637 97.395 101.445 101.91 102.332 102.285 101.795 101.352 97.28 93.287 92.745 92.397 92.195 92.07 92.037 91.987 91.96 92.397 92.04 91.78 91.81 94.412 97.95 94.617 91.637 96.675 99.662 99.685 99.732 99.132 99.02 95.067 91.775 91.697 91.522 91.455 91.415 91.622 96.567 93 91.62 91.32 90.625 90.24 90.21 91.05 89.832 89.497 89.492 89.462 89.457 89.475 89.64 89.607 89.622 89.645 89.657 89.549 89.702 89.822 89.887 89.902 89.934 89.874 89.774 89.749 89.859 89.937 89.949 89.949 89.849 89.767 89.904 89.927 89.959 90.002 90.029 90.084 90.064 90.024 90.072 89.994 90.037 90.009 90.064 89.982 89.959 90.029 90.032 90.119 90.564 90.559 90.767 90.729 90.784 90.827 90.924 91.037 91.144 91.249 91.364 91.464 91.577 91.717 91.824 91.947 92.037 92.174 92.297 92.359 92.454 92.504 92.552 92.577 92.612 92.632 92.704 92.732 92.779 92.862 93.004 93.129 94.397 97.132 97.517 97.342 97.144 93.499 92.469 92.414 92.329 92.362 92.507 92.327 92.337 92.614 96.567 96.529 96.574 96.599 96.617 96.639 96.699 96.697 96.732 96.772 96.794 96.814 96.824 96.777 96.747 96.744
74.748 74.798 74.891 75.758 75.901 75.343 75.586 77.343 77.486 75.261 75.036 75.076 75.021 75.011 75.098 75.161 75.201 75.223 75.273 75.311 75.408 75.433 75.496 75.593 75.636 75.803 75.646 75.671 75.68 75.665 75.7 75.688 75.738 75.835 75.945 76.168 76.238 76.15 76.18 76.243 76.37 77.665 77.055 76.918 76.9 76.95 77.065 77.568 77.558 78.235 78.015 78.455 80.815 85.068 84.095 80.428 80.853 83.653 84.888 86.323 86.87 85.315 82.153 79.858 85.205 85.99 85.125 82.755 81.638 80.783 81.233 79.868 78.965 78.768 78.74 78.933 78.668 78.765 78.648 78.653 78.63 78.645 78.628 78.62 81.165 80.745 78.698 78.615 78.628 78.633 79.2 81.008 79.99 78.65 82.835 88.258 90.503 89.993 87.033 83.45 82.445 81.005 82.615 81.48 82.218 79.373 78.925 78.948 78.91 78.933 79.55 79.215 79.083 79.063 79.035 79.075 79.998 80.643 79.175 79.178 79.195 79.308 80.29 79.475 84.143 86.913 87.543 86.923 86.328 84.658 82.27 81.743 79.95 79.97 80.003 80.078 80.078 80.03 80.148 80.36 80.375 80.645 81.018 82.098 84.005 83.543 87.463 89.395 89.64 86.05 82.913 82.873 83.675 81.298 81.305 90.035 99.738 101.993 100.065 91.883 83.37 87.213 89.163 85.38 83.313 83.665 83.398 83.608 83.6 83.903 85.093 89.618 88.93 87.795 88.148 89.533 91.525 93.318 90.832 86.617 87.227 88.14 87.357 88.63 88.59 88.752 88.795 88.445 88.662 88.915 89.167 89.51 89.862 90.232 90.562 90.875 91.11 91.355 91.447 91.555 91.54 92.317 94.155 98.725 92.547 92.7 92.815 92.872 92.97 93.165 94.205 95.925 96.15 97.78 98.387 97.892 98.077 100.73 102.472 102.222 96.297 96.432 97.622 98.055 100.417 100.155 97.637 102.257 104.84 104.817 104.792 104.857 105.475 102.652 93.947 100.64 100.597 99.015 96.907 94.42 94.9 94.085 93.712 93.775 93.71 93.635 93.662 93.662 93.467 93.41 93.357 93.302 93.177 93.11 92.995 92.96 92.992 93.06 93.105 93.135 93.132 93.102 93.11 93.11 93.062 93.005 93.1 93.145 93.532 94.267 93.635 93.527 93.897 99.69 101.852 102.302 102.357 101.892 101.402 97.64 93.882 92.865 92.57 92.37 92.237 92.14 92.402 92.082 91.932 91.887 91.89 91.815 91.767 91.7 92.23 92.855 96.015 99.687 99.652 99.757 99.78 99.712 99.735 99.507 95.042 92.097 91.622 91.525 91.457 91.627 95.95 96.382 91.627 93.28 91.29 91.142 90.27 91.232 90.805 89.815 89.547 89.51 89.497 89.447 89.465 89.52 89.565 89.65 89.689 89.682 89.569 89.649 89.752 89.907 89.967 89.999 90.002 89.907 89.812 89.914 89.997 89.984 90.027 89.994 89.907 90.052 89.899 89.999 89.974 90.077 90.119 90.109 90.052 90.047 90.052 90.142 90.102 90.017 90.002 90.057 90.077 90.087 90.094 90.167 90.542 90.979 90.907 90.769 90.827 90.907 90.929 90.897 90.864 91.642 91.129 91.277 91.727 91.967 92.082 92.177 92.319 92.469 92.579 92.637 92.707 92.627 92.609 92.627 92.652 92.687 92.757 92.857 94.859 96.209 96.852 97.487 97.589 97.412 97.219 95.302 92.544 92.442 92.394 92.304 92.357 92.352 92.324 92.339 94.419 96.499 96.554 96.582 96.624 96.632 96.677 96.709 96.717 96.754 96.777 96.789 96.834 96.812 96.839 96.932
74.713 74.783 74.811 74.843 75.103 75.798 76.083 75.506 75.066 75.016 75.056 75.106 75.066 75.208 75.318 75.368 75.406 75.303 75.283 75.326 75.341 75.378 75.448 75.563 75.626 75.808 75.668 75.793 75.785 75.743 75.76 75.77 75.785 75.813 75.913 76.01 76.105 76.035 76.085 76.28 76.768 79.895 78.308 77.16 77.05 76.7 77.25 77.463 78.105 78.103 77.495 77.563 77.565 78.39 80.63 78.928 79.898 83.103 85.445 86.868 86.165 84.518 79.685 82.95 85.933 87.173 86.683 86.16 84.885 80.45 82.94 82.268 81.8 80.95 79.418 78.75 78.74 78.568 78.565 78.705 78.603 78.768 78.68 80.12 81.685 78.69 78.615 78.648 78.655 78.673 80.595 80.78 78.77 78.72 79.27 83.525 85.248 84.788 81.88 79.545 78.96 79.43 80.493 81.075 81.635 80.37 80.143 85.443 85.335 80.333 80.525 79.33 79.315 79.06 79.05 80.025 80.25 81.72 79.15 79.165 79.205 79.96 80.85 79.828 81.233 82.513 85.775 87.06 86.98 84.743 81.055 80.733 80.818 81.755 80.51 80.078 80.053 80.088 80.195 80.405 80.435 80.563 80.695 84.035 87.878 87.31 87.878 89.618 88.84 86.795 81.323 81.44 82.53 82.625 84.453 94.225 100.315 102.72 101.253 92.113 82.928 84.538 84.97 83.605 83.27 83.343 83.408 83.488 83.673 84.4 86.495 91.56 92.473 91.265 89.25 91.795 95.57 96.933 96.627 94.965 88.68 86.785 87.3 87.615 89.85 88.13 88.277 88.482 88.675 88.985 89.265 89.542 89.85 90.192 90.565 90.952 91.23 91.45 91.557 91.645 91.772 91.88 92 92.165 92.462 92.74 92.875 93.155 93.215 93.532 95.642 97.072 96.605 102.885 96.827 100.302 95.432 103.325 98.077 98.535 100.832 95.647 94.845 98.395 98.92 98.08 95.275 100.655 104.652 104.792 104.797 104.855 103.677 94.407 97.802 101.412 101.07 99.477 96.67 94.44 94.552 94.625 95.167 93.82 94.667 93.737 93.692 93.687 93.692 93.462 93.365 93.37 93.342 93.215 93.15 92.992 92.965 93.01 93.072 93.115 93.16 93.165 93.175 93.125 93.067 93.087 93.04 93.06 93.147 93.417 94.455 94.775 96.055 94.285 100.635 102.377 101.935 101.457 98.515 94.507 93.88 93.157 92.565 93.035 96.05 95.867 94.195 92.345 92.082 91.885 91.862 91.837 91.785 91.755 92.7 92.645 91.652 94.502 99.727 99.742 99.72 99.77 99.872 99.827 99.775 95.725 91.605 91.612 92.055 91.805 93.967 96.307 97.605 95.417 92.455 91.46 91.57 90.237 90.09 90.392 89.902 89.612 89.57 89.55 89.487 89.487 89.527 89.572 89.677 89.702 89.689 89.637 89.817 89.722 89.872 89.902 89.952 90.002 90.057 89.997 90.012 90.157 89.942 89.999 90.049 90.047 89.939 89.869 89.882 89.999 90.067 90.054 90.039 90.089 90.139 90.097 90.077 90.044 90.059 90.052 90.082 90.164 90.137 90.129 90.112 90.132 90.612 90.542 90.569 90.442 90.337 91.372 93.187 93.224 92.217 90.564 90.602 91.369 92.027 92.142 93.439 93.222 92.977 92.737 92.767 92.889 92.864 92.562 92.602 92.614 92.822 93.079 96.587 97.022 97.209 97.397 97.572 97.492 97.314 96.107 93.007 92.447 92.387 92.369 92.377 92.992 92.374 92.399 93.872 96.322 96.509 96.569 96.592 96.619 96.654 96.682 96.699 96.734 96.774 96.789 96.934 97.087 96.977 96.772
74.723 74.781 74.778 74.773 74.773 74.886 75.086 75.721 75.383 75.101 75.133 75.098 75.136 75.251 75.348 75.403 75.446 75.518 75.383 75.283 75.313 75.386 75.451 75.528 75.591 75.656 75.733 75.796 75.765 75.815 75.853 75.825 75.865 75.865 75.895 75.913 75.925 75.975 76.043 76.18 78.185 79.15 79.628 77.275 76.54 76.815 77.165 77.27 77.255 77.775 77.275 77.323 77.39 78.17 78.08 78.633 78.26 82.648 85.388 86.088 85.405 81.875 79.77 84.543 85.52 86.368 87.31 86.25 84.053 81.738 84.985 84.308 83.105 82.203 82.155 80.068 79.115 79.025 79.188 78.665 78.61 78.573 78.678 81.123 80.768 78.633 78.635 78.648 78.685 78.985 79.353 79.245 78.748 78.733 78.76 78.75 79.598 78.998 78.973 78.948 78.96 78.965 79.565 79.048 80.215 80.963 85.228 91.068 90.813 83.905 81.423 81.778 82.9 79.473 79.153 79.705 79.768 79.178 79.148 79.158 79.235 80.915 79.92 80.53 80.373 80.023 79.975 85.573 86.328 80.868 79.703 80.075 81.32 82.808 80.095 80.145 80.08 80.118 80.193 80.35 80.483 80.615 81.603 86.438 88.88 89.288 89.02 89.75 88.465 83.59 80.998 81.218 81.368 82.19 83.538 93.888 97.9 99.703 96.893 88.068 83.778 84.885 84.623 84.718 83.928 83.495 83.498 83.528 83.585 84.545 86.54 89.273 91.218 90.405 88.98 89.525 89.58 91.225 92.83 91.072 86.685 87.427 88.427 88.437 89.502 88.987 88.335 88.52 88.752 89.012 89.277 89.587 89.91 90.167 90.472 91.002 91.29 91.525 91.642 91.707 91.82 94.38 98.777 94.02 92.402 92.58 92.892 93.122 93.48 93.785 96.127 97.207 96.822 100.645 95.652 95.002 104.105 98.862 100.455 96.552 97.852 101.022 98.007 99.497 97.65 96.212 95.012 94.385 95.517 101.605 104.835 103.535 96.027 96.155 99.615 101.05 100.772 98.602 95.042 94.502 94.607 98.78 102.01 95.935 94.005 93.952 94.465 93.755 93.752 93.787 93.632 93.39 93.375 93.36 93.257 93.19 93.087 92.945 93.02 93.092 93.127 93.192 93.26 93.197 93.152 93.107 93.072 93.002 93.095 93.162 93.185 97.685 97.942 98.85 95.02 100.005 101.527 99.165 94.45 93.03 92.927 92.765 93.227 94.525 95.2 95.992 93.482 92.142 92.87 92.39 91.9 91.822 91.77 91.765 92.212 92.417 96.065 93.667 94.957 99.687 99.75 99.8 99.175 99.847 99.8 99.757 95.672 91.572 91.567 91.47 94.557 96.19 97.722 96.317 93.525 91.25 91.342 90.95 90.4 90.185 90.607 90.24 89.632 89.55 89.537 89.535 89.497 89.527 89.577 89.639 89.734 89.767 89.972 89.637 89.724 89.874 89.937 89.962 89.984 89.994 90.072 90.007 89.887 89.909 89.992 90.119 90.059 90.029 89.902 89.832 90.012 90.042 90.047 90.024 90.052 90.039 90.107 90.074 90.107 90.029 90.074 90.124 90.142 90.084 90.109 90.122 90.092 90.157 90.557 90.349 90.199 93.757 94.439 94.054 93.637 91.232 90.869 91.477 91.929 92.539 94.512 93.534 94.502 93.074 94.547 93.604 93.182 92.979 92.549 92.514 92.589 92.989 94.454 96.927 97.127 97.309 97.512 97.582 97.397 97.202 95.289 92.492 92.384 92.349 92.914 92.399 92.379 92.389 92.412 96.249 96.519 96.549 96.589 96.604 96.637 96.684 96.692 96.719 96.922 97.054 96.984 96.817 96.807 96.777
74.723 74.776 74.786 74.721 74.716 74.806 74.898 74.958 75.043 75.153 75.281 75.198 75.411 75.233 75.293 75.331 75.436 75.506 75.383 75.301 75.296 75.391 75.438 75.508 75.521 75.591 75.741 75.711 75.805 75.863 75.885 75.915 75.91 75.91 75.943 75.978 75.98 75.99 76.003 76.033 76.278 77.465 77.548 76.5 76.448 76.63 76.67 76.685 77.14 77.238 77.055 77.053 77.173 77.545 78.103 78.353 79.395 78.118 81.358 83.533 84.133 80.368 80.183 83.288 85.183 86.473 87.095 85.165 80.97 83.52 86.175 86.888 86.533 85.045 83.43 79.208 80.515 81.838 81.568 81.06 79.278 78.598 78.59 78.835 79.55 78.655 78.655 78.665 78.688 79.428 80.598 78.763 78.76 78.763 78.773 78.803 78.92 78.953 78.975 78.988 78.988 78.985 78.98 79.168 78.905 79.008 83.285 89.835 90.085 83.48 81.65 86.405 88.615 85.695 80.435 79.773 79.41 79.453 79.175 79.795 82.058 82.015 79.465 79.69 79.838 79.52 79.51 79.493 80.68 79.563 80.235 80.865 80.425 80.095 80.138 80.173 80.133 80.16 80.275 80.42 80.743 80.648 81.945 88.105 88.903 89.413 89.68 89.635 87.78 81.91 80.955 81.215 81.343 81.453 81.7 85.638 90.985 90.258 88.868 83.128 83.168 84.425 85.115 85.388 84.875 84.74 88.1 86.63 83.785 84.385 88.17 90.723 89.863 90.425 89.52 87.42 86.323 86.143 87.017 86.912 86.572 87.93 89.625 89.467 88.607 88.057 88.385 88.575 88.815 89.067 89.33 89.622 89.957 90.172 90.595 91.047 91.4 91.635 91.657 91.72 92.677 100.302 101.727 101.977 96.97 92.835 92.79 93.182 93.627 93.725 95.357 96.77 99.432 100.537 97.332 101.322 98.532 100.182 99.732 97.002 103.337 97.797 95.825 95.052 95.975 95.417 94.947 94.865 94.622 94.212 99.825 97.527 96.605 100.727 101.177 100.725 100.225 96.272 94.675 94.655 97.897 104.617 105.145 103.01 97.467 94.985 94.07 93.985 94.042 93.785 93.79 93.625 93.392 93.362 93.392 93.257 93.192 93.13 92.975 93.025 93.075 93.137 93.197 93.22 93.207 93.14 93.125 93.102 93.022 93.095 93.175 93.132 95.26 94.922 97.045 93.232 97.25 95.1 93.287 93.122 92.905 92.767 93.037 94.105 94.492 95.385 93.067 92.297 92.175 92.422 92.37 91.952 91.792 91.722 91.775 92.285 94.232 93.705 91.812 94.725 99.367 99.785 99.825 99.817 99.712 99.69 99.845 92.422 91.487 91.94 93.365 95.09 93.667 92.892 91.96 91.212 91.665 91.725 91.535 90.815 90.507 90.412 89.997 89.7 89.587 89.57 89.577 89.52 89.572 89.604 89.682 90.824 92.489 90.232 90.197 90.172 89.817 89.969 90.009 89.992 90.037 90.077 90.049 89.967 90.022 90.019 90.054 90.082 90.077 90.089 89.957 89.924 89.992 90.059 90.029 89.974 90.027 90.132 90.097 90.107 90.087 90.074 90.132 90.152 90.119 90.117 90.119 90.107 90.122 90.234 91.344 94.067 94.657 94.722 93.464 90.502 91.049 91.452 91.892 91.982 92.297 92.722 93.112 96.002 95.649 95.087 93.439 93.072 93.152 92.899 92.959 92.719 92.942 96.632 97.029 97.227 97.422 97.612 97.489 97.277 96.089 93.292 92.419 92.389 92.354 92.582 92.367 92.379 92.407 94.449 96.529 96.532 96.554 96.604 96.624 96.659 96.697 96.789 96.764 96.767 96.802 96.834 96.827 96.797
75.288 74.938 74.778 75.093 74.938 74.798 74.883 74.941 74.988 75.353 75.351 75.266 75.686 75.921 77.153 76.896 76.603 76.023 75.368 75.408 75.388 75.413 75.611 75.708 75.541 75.556 75.633 75.691 75.768 75.82 75.895 75.925 75.945 76.003 76.03 76.048 76.025 76.073 76.068 76.11 76.088 76.138 76.258 76.338 76.395 76.525 76.75 76.763 77.275 76.938 77 77.115 76.928 77.64 77.748 78.665 78.205 77.943 78.018 78.403 80.35 78.78 78.89 81.783 85.433 86.845 86.428 84.55 80.48 85.348 86.77 87.398 87.213 85.933 83.105 79.9 83.31 82.44 82.058 81.883 81.87 80.478 79.375 79.095 80.245 78.683 78.885 78.683 78.798 80.583 80.323 78.788 78.77 78.775 78.788 78.873 78.975 78.943 78.948 78.998 79 79.013 79.18 79.61 78.87 78.865 79.135 85.653 83.558 81.378 81.753 85.585 89.165 88.343 82.84 81.013 79.97 79.368 79.803 79.723 82.845 80.85 79.48 79.49 79.448 79.508 79.54 79.545 79.618 79.613 80.423 81.18 80.268 81.788 81.113 80.208 80.183 80.223 80.325 80.433 82.225 82.565 82.885 82.968 86.645 87.29 88.145 88.473 87.34 80.97 80.985 81.303 81.378 81.415 81.503 82.773 81.978 83.97 82.213 82.3 82.08 82.508 83.143 83.675 84.743 85.625 88.33 87.375 85.58 85.78 87.07 89.35 90.453 90.595 89.463 86.915 86.35 86.468 85.957 86.235 86.857 87.505 89.412 90.205 89.562 88.185 88.402 88.6 88.862 89.105 89.337 89.632 89.942 90.232 90.645 91.052 91.417 91.615 91.627 91.725 96.567 101.257 102.332 102.425 101.385 96.95 92.88 93.142 93.4 93.737 94.467 95.27 94.997 99.412 100.245 101.722 100.445 102.952 101.395 103.135 103.095 96.515 97 95.792 95.27 95.077 95.022 94.955 94.915 94.692 94.287 95.832 100.895 101.535 101.887 100.432 96.28 94.802 94.74 96.64 104.25 105.807 106.652 105.407 103.272 96.05 94.512 94.055 94.74 94.05 93.77 93.742 93.767 93.42 93.41 93.425 93.33 93.227 93.142 93.037 93.037 93.095 93.212 93.222 93.262 93.185 93.177 93.175 93.122 93.07 93.082 95.617 94.682 99.642 95.92 95.31 93.367 93.425 93.745 93.252 92.892 92.755 92.85 94.262 95.295 93.76 94.907 92.927 92.362 92.052 92.827 92.35 91.79 91.78 91.737 91.67 91.822 92.382 92.25 91.937 94.207 99.292 99.802 99.715 99.712 99.72 99.752 98.785 92.995 93.967 92.375 91.635 91.48 91.335 91.227 91.427 91.56 92.387 91.695 91.697 90.927 90.437 90.242 90.342 89.757 89.632 89.607 89.597 89.554 89.574 89.649 89.934 91.712 92.627 90.574 89.974 89.912 89.784 89.992 89.994 90.022 89.992 90.017 90.069 90.059 90.047 90.082 90.102 90.122 90.109 90.157 90.067 89.974 90.039 90.079 90.029 90.009 90.007 90.047 90.139 90.117 90.144 90.107 90.177 90.192 90.194 90.139 90.134 90.107 90.094 90.092 91.942 94.012 94.237 90.949 90.649 90.839 91.147 91.777 91.984 92.019 91.957 94.717 96.372 96.247 95.742 95.247 93.899 92.887 92.587 92.489 92.499 92.534 94.874 96.952 97.137 97.329 97.539 97.564 97.364 97.197 94.232 92.449 92.377 92.342 92.452 92.412 92.367 92.384 93.132 96.337 96.522 96.567 96.592 96.629 96.652 96.704 96.712 96.749 96.762 96.809 96.839 96.847 96.817
77.723 80.456 78.023 77.303 81.068 79.331 76.286 75.241 75.066 75.381 75.303 75.316 75.538 76.126 78.521 79.686 80.276 78.921 76.071 75.428 75.438 75.516 75.758 75.868 75.878 75.806 75.726 75.696 75.728 75.788 75.84 75.885 75.94 76.01 76.07 76.083 76.123 76.113 76.135 76.17 76.188 76.163 76.188 76.22 76.288 76.38 76.508 76.865 77.338 77.455 76.788 77.258 76.96 77.493 77.68 77.388 77.79 77.72 77.878 78.99 78.303 78.015 78.058 79.93 84.035 85.538 85.458 82.913 81.593 84.785 85.58 86.89 87.088 85.365 81.575 82.245 85.59 85.615 84.665 83.725 82.13 81.738 80.76 78.993 79.058 78.815 78.66 78.663 79.515 80.135 79.538 78.873 78.825 78.793 78.803 80.38 78.975 78.94 79.013 79.028 79.025 79.015 79.215 79.185 78.883 79.788 85.923 88.128 86.515 81.158 79.603 79.92 82.695 83.408 84.485 86.983 86.145 82.94 80.808 81.535 82.66 80.265 79.51 79.518 79.488 79.503 79.555 79.553 79.603 79.77 81.108 82.805 80.875 82.425 80.835 80.215 80.178 80.285 80.425 80.48 82.76 83.908 81.925 80.87 83.023 83.34 81.855 82.318 83.053 81.343 81.968 81.488 81.8 81.468 83.733 83.91 83.248 81.823 81.835 81.965 82.073 82.203 82.283 82.545 83.283 84.8 86.518 86.223 86.86 86.795 87.48 87.905 89.593 89.205 88.41 87.063 88.378 88.045 85.987 86.35 86.792 86.942 89.41 90.545 91.767 88.67 88.452 90.037 89.67 92.652 93.685 89.727 89.967 90.282 90.702 91.097 91.475 91.595 91.677 92.047 100.87 102.215 102.66 101.807 99.94 94.645 92.967 93.365 93.395 93.567 93.925 96.127 98.165 101.39 99.27 99.225 101.015 100.937 98.365 100.537 98.667 97.84 96.917 95.357 95.192 95.955 95.847 95.005 94.927 94.567 94.275 99.602 100.645 101.462 101.987 100.192 94.852 94.83 96.005 103.822 105.557 106.955 106.47 104.96 100.34 95.462 94.925 94.567 94.255 94.152 94.272 93.877 93.782 93.79 93.565 93.442 93.447 93.357 93.235 93.195 93.065 93.077 93.175 93.19 93.225 93.205 93.187 93.152 93.157 93.147 93.522 95.652 96.82 97.457 98.532 97.295 93.722 93.182 93.007 93.39 93.57 92.89 93.732 94.107 94.84 94.23 93.652 94.702 93.675 94.297 96.36 94.607 91.89 91.79 91.777 91.702 91.64 91.895 91.857 92.43 91.762 94.522 99.732 99.71 99.735 99.745 99.697 99.735 98.265 95.085 93.87 91.98 91.39 91.365 91.925 91.472 91.622 91.75 91.477 92.752 92.202 91.272 90.93 90.557 89.975 89.777 89.665 89.635 89.637 89.614 89.574 89.697 89.947 91.024 92.747 90.912 90.837 89.772 89.817 89.944 90.104 90.079 90.032 90.027 90.042 90.057 90.082 90.102 90.127 90.142 90.162 90.099 90.189 90.134 90.017 90.049 89.992 89.989 90.022 90.087 90.117 90.142 90.124 90.194 90.152 90.214 90.187 90.139 90.137 90.129 90.097 90.122 90.292 91.459 90.659 90.377 90.352 90.689 91.734 91.899 91.952 92.984 95.267 95.779 96.272 96.362 95.889 95.309 94.272 92.332 92.137 92.239 92.389 93.099 96.449 97.064 97.242 97.437 97.624 97.454 97.269 96.317 92.504 92.369 92.334 92.364 92.474 92.387 92.399 92.427 95.394 96.532 96.559 96.577 96.602 96.627 96.669 96.699 96.729 96.774 96.772 96.814 96.832 96.829
80.441 82.528 82.156 81.553 82.361 82.173 81.453 77.781 75.156 75.486 75.351 75.403 75.413 75.448 75.643 77.208 78.513 77.571 75.548 75.471 75.581 75.641 75.686 75.803 76.058 75.871 75.856 75.818 75.685 75.743 75.813 75.87 75.915 75.983 76.02 76.093 76.148 76.183 76.195 76.22 76.258 76.263 76.288 76.303 76.308 76.308 76.393 76.463 76.508 76.688 76.815 80.023 78.295 76.895 77.118 77.368 77.713 77.645 77.795 78.08 78.15 77.83 77.958 78.07 79.388 79.615 81.388 79.53 81.855 84.158 85.758 87.31 86.49 84.268 79.683 84.01 86.33 86.938 86.605 86.04 85.14 83.67 79.935 80.688 80.133 79.493 78.828 78.775 81.905 79.71 78.975 78.985 78.925 79.225 78.893 79.975 78.973 78.95 78.975 79.03 78.973 78.998 78.998 78.908 78.9 84.923 93.233 93.41 93.473 87.91 79.12 79.208 79.243 81.225 83.54 86.863 88.045 88.44 87.868 83.94 79.74 79.475 79.525 79.475 79.51 79.523 79.548 79.575 80.368 81.578 82.59 81.355 80.3 81.205 80.335 80.248 80.193 80.303 80.538 80.56 80.665 80.72 81.575 83.583 87.625 88.29 87.84 87.015 84.148 81.993 82.82 83.033 83.268 83.538 84.848 84.785 83.293 83.3 81.843 81.955 82.04 82.158 82.283 82.653 83.448 83.893 85.035 85.825 86.508 84.105 87.015 89.02 87.595 87.825 87.7 89.76 96.038 95.908 92.37 88.952 88.87 92.705 90.907 90.33 88.797 88.277 88.502 91.535 91.8 94.2 92.155 95.787 90.002 90.34 90.762 91.175 91.53 91.55 91.77 92.41 97.162 102.545 102.29 101.145 96.537 92.535 93.112 93.427 93.6 93.685 93.772 94.622 96.855 101.16 102.4 99.527 98.652 98.457 99.42 101.707 96.96 96.142 95.59 99.11 95.94 98.822 96.697 95.06 94.947 94.955 98.7 100.715 100.197 100.775 99.91 96.665 94.842 94.845 102.367 105.287 106.712 106.687 105.222 102.355 95.647 94.785 94.777 94.725 94.565 94.235 94.152 94.032 94.1 93.787 93.81 93.695 93.477 93.465 93.392 93.292 93.212 93.04 93.072 93.157 93.145 93.212 93.192 93.21 93.195 93.205 93.582 96.117 95.585 95.685 96.532 94.572 94.15 94.355 93.255 93.805 93.09 93.177 95.805 96.345 96.385 94.322 93.77 95.017 94.045 94.325 94.182 94.885 93.74 91.882 91.772 91.775 91.702 91.637 91.617 91.635 91.655 91.975 94.327 99.307 99.76 99.71 99.717 99.757 99.7 99.237 93.337 91.422 91.377 91.885 92.165 92.462 91.375 91.6 92.117 93.147 93.45 93.705 91.855 91.19 90.38 89.892 89.8 89.682 89.672 89.684 89.599 89.592 89.757 89.772 90.687 93.549 91.867 90.182 89.844 89.867 89.992 90.134 90.097 90.077 90.117 90.107 90.084 90.107 90.097 90.054 90.117 90.084 90.149 90.189 90.202 90.069 90.052 90.012 90.039 90.002 90.019 90.119 90.197 90.114 90.119 94.017 92.982 90.139 90.162 90.112 90.137 90.127 90.122 90.099 90.677 90.219 90.304 90.669 91.372 91.829 91.957 91.962 93.304 95.169 95.652 96.204 96.387 95.969 95.429 94.322 92.302 92.104 92.257 92.454 94.857 96.969 97.144 97.357 97.549 97.552 96.867 95.934 92.482 92.377 92.327 92.357 92.497 92.399 92.357 92.374 93.604 96.557 96.527 96.544 96.589 96.624 96.657 96.694 96.737 96.754 96.784 96.804 96.857 96.839
81.816 83.478 83.793 83.096 83.276 83.336 81.853 77.411 75.178 75.358 75.493 76.028 75.466 75.486 75.498 76.403 75.886 75.576 75.703 75.661 75.946 75.818 75.666 75.786 75.811 75.878 75.933 75.766 75.728 75.798 75.825 75.83 75.92 75.958 76.013 76.078 76.138 76.19 76.223 76.285 76.335 76.348 76.34 76.358 76.37 76.4 76.413 76.39 76.468 76.538 77.875 76.983 77.973 77.028 77.64 77.075 77.07 77.428 77.263 77.508 77.468 80.163 80.098 78.878 78.058 78.473 78.34 79.735 81.565 84.32 86.185 87.31 85.823 82.948 80.508 85.24 86.328 87.095 86.26 87.105 86.208 84.953 80.083 84.7 83.235 80.74 82.565 80.883 80.335 80.303 79.768 79.36 79.515 79.185 80.318 79.385 78.963 78.98 78.993 79.003 78.995 79.03 78.958 79.128 79.61 91.42 94.005 94.098 93.78 91.255 82.025 79.173 79.213 79.358 79.825 81.828 87.403 87.793 88.39 86.758 81.083 79.46 79.483 79.48 79.528 79.535 79.593 79.72 80.14 82.39 84.093 81.42 80.215 80.243 80.263 80.248 80.243 80.338 80.555 80.603 80.98 81.01 85.628 87.643 88.308 89.64 89.563 89.045 87.898 82.548 81.725 82.13 83.503 84.005 85.165 85.493 85.535 85.055 83.358 84.025 82.685 82.183 82.255 82.933 83.218 83.158 83.355 83.903 85.498 85.645 89.035 88.268 88.828 88.42 86.433 86.265 92.553 94.38 93.952 94.215 93.287 96.085 92.165 89.62 88.31 88.827 89.585 93.347 93.787 92.685 92.612 90.69 90.04 90.382 90.822 91.282 91.632 91.622 91.687 91.875 96.197 100.87 101.64 99.105 92.427 92.467 93.152 93.53 93.68 93.787 93.817 93.99 94.192 96.777 96.265 96.927 101.445 98.85 98.97 99.08 95.537 96.587 95.16 96.465 96.527 98.082 98.03 96.737 94.665 98.792 100.975 100.922 102.037 100.762 96.692 94.912 94.857 99.502 105.02 106.517 106.91 105.557 104.202 97.29 94.89 94.885 94.82 94.787 94.772 94.642 94.35 94.005 95.497 94.93 93.817 93.792 93.737 93.557 93.475 93.427 93.297 93.23 93.087 93.087 93.107 93.155 93.22 93.177 93.207 93.21 93.187 93.25 95.14 94.11 93.027 93.117 94.86 94.11 94.972 93.697 93.172 93.265 95.197 94.652 96.335 94.185 93.907 93.427 93.472 95.855 99.145 98.57 93.432 91.805 91.805 91.835 91.767 91.74 91.67 91.63 92.182 92.06 91.635 96.662 99.66 99.702 99.755 98.065 99.692 99.76 95.137 91.525 91.747 92.117 91.58 92.09 94.26 97.94 93.312 91.66 92.15 92.185 93.202 91.66 91.345 90.415 90.682 89.9 89.714 89.659 89.657 89.627 89.674 89.647 89.942 90.302 92.479 92.297 89.809 89.957 89.974 89.987 90.077 90.137 90.152 90.167 90.097 90.049 90.134 90.127 90.054 90.097 90.109 90.129 90.224 90.224 90.122 90.102 90.037 90.049 90.037 90.169 90.102 90.134 92.074 96.099 96.002 94.114 90.832 90.167 90.174 90.114 90.519 91.559 90.272 90.117 90.272 90.582 91.127 91.639 91.899 92.054 92.019 93.099 95.037 95.567 96.112 96.449 96.057 93.932 92.062 92.082 92.127 92.284 93.734 96.897 97.067 97.262 96.439 94.899 93.359 92.569 92.469 92.347 92.304 92.372 92.994 92.524 92.397 92.377 92.397 95.709 96.504 96.554 96.582 96.624 96.642 96.677 96.732 96.739 96.782 96.799 96.827 96.844
82.351 83.716 84.328 84.491 84.071 82.788 80.681 75.478 75.498 75.373 75.926 75.841 75.473 75.508 75.523 75.581 75.561 75.916 75.798 75.781 75.778 75.858 76.136 75.951 75.771 75.783 75.816 75.776 75.808 75.883 75.883 75.895 75.943 75.98 76.005 76.048 76.103 76.16 76.238 76.313 76.343 76.373 76.393 76.423 76.435 76.42 76.483 76.48 76.488 76.513 76.54 76.728 76.91 76.955 77.008 77.078 77.06 77.13 77.183 77.308 78.763 86.203 87.46 86.03 80.638 78.568 78.263 79.148 80.26 80.688 83.625 85.803 85.325 80.245 79.353 83.128 85.568 86.608 86.568 87.28 85.938 83.555 81.113 85.825 85.935 85.328 85.503 84.83 80.055 85.12 85.018 83.87 81.295 79.403 79.635 79.063 79.913 80.075 78.97 79.005 78.985 79.065 78.98 79.795 81.605 90.483 93.515 93.343 94.538 93.65 81.728 79.183 79.235 79.925 80.105 79.265 82.235 82.655 85.058 83.265 81.72 79.773 80.19 81.883 80.46 79.59 79.603 79.758 79.873 82.168 82.638 81.243 80.238 80.295 80.258 80.27 80.27 80.363 80.49 80.858 81.353 81.005 86.183 88.68 88.858 89.68 90.073 89.148 86.695 81.513 81.405 81.23 81.95 82.255 82.313 83.55 84.325 85.048 84.555 85.278 84.698 83.84 83.415 84.863 87.173 85.158 84.863 83.618 85.295 87.703 88.053 89.963 85.818 86.558 85.765 85.49 86.208 86.848 86.987 87.292 91.122 93.7 92.84 90.33 88.475 94.892 91.845 93.327 95.955 95.037 92.822 90.555 90.065 90.447 90.902 91.35 91.612 91.62 91.652 91.72 100.36 101.457 102.39 100.177 93.255 92.192 93.825 93.812 93.777 93.79 94.315 94.347 94.205 94.387 94.472 96.012 98.752 98.962 98.045 95.517 96.812 97.03 96.522 97.725 98.387 98.805 96.237 99.337 97.077 99.335 100.365 99.125 101.425 99.232 95.092 94.912 98.355 104.735 106.242 107.05 106.865 106.385 105.187 103.48 97.802 95.115 94.855 94.84 94.852 94.822 94.73 94.472 94.175 94.422 94.57 93.92 93.81 93.777 93.595 93.505 93.462 93.347 93.28 93.14 93.077 93.107 93.167 93.222 93.202 93.22 93.192 93.155 93.142 93.115 94.057 93.02 93.097 94.215 96.77 96.732 94.287 93.332 93.342 94.092 93.545 93.56 93.782 93.322 93.877 96.147 96.545 94.567 93.292 91.885 91.902 91.865 91.832 91.812 91.752 91.665 91.677 91.7 91.977 92.835 97.392 99.725 99.715 99.725 99.772 99.68 98.905 94.98 91.802 91.515 91.815 93.61 93.377 94.797 92.757 91.58 91.55 92.125 93.217 93.677 93.68 90.47 90.687 91.152 89.959 89.754 89.712 89.729 89.702 89.639 89.649 89.947 89.829 92.027 92.392 90.442 90.084 90.002 89.954 90.124 90.112 90.134 90.114 90.072 90.097 90.074 90.192 90.082 90.062 90.139 90.089 90.192 90.204 90.227 90.134 90.034 90.139 90.137 90.014 91.824 96.032 96.242 96.109 95.987 95.319 91.079 90.179 90.172 91.842 90.262 90.182 90.127 90.144 90.249 90.542 91.104 91.674 92.077 92.159 92.062 92.264 94.557 95.474 95.997 95.554 92.019 92.499 92.132 92.212 92.212 92.439 95.317 96.302 94.109 92.914 92.547 92.564 92.492 92.354 92.307 92.312 92.419 92.504 92.467 92.414 92.379 92.394 94.279 96.389 96.524 96.569 96.622 96.647 96.649 96.704 96.734 96.769 96.794 96.834 96.834
80.983 82.018 82.741 83.443 83.588 82.103 78.018 75.301 75.873 76.211 77.623 75.981 75.878 78.391 76.516 75.796 76.346 76.196 76.238 76.153 75.936 76.108 76.718 76.228 76.103 76.506 75.846 75.823 75.9 75.945 75.988 76.11 76.148 76.193 76.165 76.075 76.058 76.113 76.2 76.25 76.375 76.388 76.338 76.428 76.458 76.478 76.523 76.58 76.57 76.57 76.573 76.565 76.683 76.785 76.785 76.895 76.995 77.09 77.293 78.213 79.093 82.885 88.903 89.33 86.54 78.575 78.263 78.503 78.95 78.495 78.678 79.848 81.073 78.995 78.655 83.508 85.545 85.22 85.733 86.315 85.348 80.718 83.23 86.538 87.533 87.368 86.438 85.12 82.123 85.573 85.235 85.195 85.655 85.03 81.1 83.625 83.905 81.95 79.065 78.995 78.97 79.105 78.985 79.15 83.078 85.133 93.11 93.523 93.588 84.35 79.16 79.213 79.338 81.08 80.758 79.198 79.23 81.025 82.093 80.965 81.62 83.298 82.05 80.885 83.355 82.228 80.003 79.695 79.678 80.605 81.725 81.095 80.238 80.303 80.308 80.278 80.3 81.388 81.725 81.69 81.098 80.818 82.558 86.6 87.533 87.99 88.648 88.658 85.32 82.738 81.535 81.258 81.41 81.488 81.698 82.39 83.225 82.97 83.27 82.358 83.32 83.693 85.473 86.978 85.545 84.238 87.068 84.26 86.725 90.42 86.278 86.983 85.54 85.213 85.195 85.523 86.298 86.643 86.702 88.075 88.89 94.672 93.9 90.82 88.992 91.83 91.427 95.675 94.397 91.72 90.275 90.897 90.152 90.587 90.997 91.397 91.582 91.577 91.7 96.335 100.972 102.065 102.22 101.11 98.115 93.595 93.882 97.12 98.212 95.867 95.247 94.677 94.732 94.362 94.447 94.525 96.13 94.997 95.12 95.905 96.87 96.972 97.915 98.682 95.862 95 94.822 96.915 103.195 99.972 99.302 100.545 100.702 97.327 95.107 97.042 103.86 105.672 106.8 106.017 105.622 106.772 106.732 105.522 103.56 99.895 96.145 95.517 94.862 94.862 94.84 95.012 95.33 94.747 94.287 94.217 94.06 93.8 93.772 93.682 93.437 93.42 93.345 93.29 93.16 93.06 93.152 93.12 93.165 93.192 93.212 93.165 93.145 93.132 93.087 93.047 93.007 95.837 95.307 95.592 97.322 97.942 93.7 93.41 93.535 93.602 93.63 95.202 93.992 93.742 93.335 92.407 92.017 91.945 91.947 91.96 91.885 91.835 91.782 91.79 91.72 91.762 92.07 91.595 92.522 97.397 99.672 99.74 99.695 99.67 99.69 99.38 94.787 91.587 92.39 92.167 93.292 94.437 93.147 91.61 91.582 92.282 93.577 96.075 97.04 94.127 91.107 90.385 90.007 89.979 89.839 89.809 89.772 89.754 89.714 89.714 89.739 89.789 91.199 92.599 90.619 90.007 89.979 89.887 90.049 90.114 90.107 90.104 90.149 90.092 90.092 90.067 90.082 90.052 90.134 90.112 90.099 90.184 90.212 90.227 90.152 90.029 91.717 95.387 96.467 96.379 96.237 96.142 96.014 95.477 92.937 91.307 90.732 90.179 90.137 90.122 90.139 90.152 90.192 90.454 91.077 91.654 92.014 92.187 92.132 91.969 94.107 94.889 92.147 92.402 92.329 92.189 92.167 92.124 92.254 93.329 92.424 92.462 92.534 92.534 92.489 92.342 92.284 92.269 92.349 92.489 92.549 92.734 92.459 92.412 92.394 92.414 96.062 96.524 96.544 96.594 96.612 96.649 96.664 96.724 96.764 96.782 96.812 96.832
78.071 79.178 80.746 81.768 82.331 81.443 75.611 75.623 76.121 79.516 82.271 80.866 79.486 82.746 82.668 80.421 77.493 76.133 76.823 76.081 76.033 76.228 76.321 76.541 76.053 76.011 75.976 77.608 76.408 76.005 76.078 76.34 76.215 76.503 76.293 76.22 76.05 76.113 76.165 76.218 76.36 76.385 76.42 76.448 76.48 76.518 76.555 76.565 76.603 76.643 76.695 76.65 76.668 76.728 76.723 76.785 76.868 77.078 78.495 78.743 78.845 80.423 80.84 86.458 85.018 78.535 78.495 78.083 78.223 78.39 78.863 79.365 78.675 78.685 78.598 80.585 83.49 82.813 84.563 85.643 84.263 79.748 85.415 86.948 87.908 87.79 86.235 83.033 82.735 85.72 85.265 85.253 86.158 85.323 81.135 85.785 86.893 85.028 81.37 79.79 79.188 79.163 78.993 80.41 83.103 83.888 88.018 87.753 85.993 79.228 79.205 79.248 79.36 79.57 79.255 79.233 79.258 79.515 79.405 79.77 80.965 82.395 81.46 80.128 82.935 83.993 82.353 81.425 80.145 80.925 81.315 80.463 80.308 80.323 80.348 80.298 80.373 80.598 80.803 81.388 82.333 82.268 81.46 83.78 83.753 85.458 88.403 88.295 84.71 81.725 81.215 81.288 81.615 81.505 81.953 82.115 82.17 82.998 82.373 83.143 90.323 89.405 84.36 85.115 85.07 85.803 86.893 87.923 87.098 87.94 87.173 85.473 87.608 87.71 87.735 86.403 87.175 86.713 86.65 87.452 87.947 88.735 90.515 89.867 88.877 94.12 91.377 92.117 92.487 95.487 94.572 90.21 90.232 90.687 91.127 91.457 92.805 91.685 91.642 100.455 102 102.932 101.527 100.42 93.507 96.122 97.997 98.307 99.577 99.742 98.49 96.157 94.985 94.727 94.612 94.947 95.29 94.815 95.127 94.63 95.577 96.807 96.98 97.005 96.645 95.035 94.827 98.742 101.885 99.207 100.057 99.442 96.432 95.137 95.097 95.01 96.977 104.525 105.61 104.812 104.117 105.292 106.472 106.842 105.745 104.5 102.897 97.355 94.965 94.865 94.942 95.825 98.072 94.767 94.455 94.047 94.79 94.69 93.812 93.797 93.957 93.565 93.422 93.375 93.28 93.2 93.062 93.097 93.137 93.172 93.197 93.2 93.172 93.17 93.137 93.097 94.037 95.512 98.665 97.192 97.612 97.225 94.352 93.352 93.477 93.537 93.555 93.46 93.355 93.242 92.555 92.195 92.072 92.062 92.035 91.922 91.905 91.825 91.96 92.165 91.81 91.737 91.742 91.742 91.592 92.532 98.052 99.702 99.65 99.712 99.717 99.69 99.465 94.195 94.42 93.56 91.847 91.842 91.722 91.632 92.12 93.322 92.13 94.295 94.637 93.297 93.302 90.417 90.059 90.054 91.684 89.912 89.839 89.799 89.732 89.707 89.727 89.844 89.849 91.159 92.814 91.349 89.842 90.152 89.849 90.054 90.054 90.107 90.162 90.119 90.104 90.079 90.092 90.149 90.089 90.097 90.149 90.164 90.269 90.294 90.162 91.117 96.509 96.742 96.617 96.482 96.382 96.247 96.177 95.479 94.782 92.424 90.659 90.159 90.169 90.157 90.149 90.134 90.149 90.157 90.412 91.054 91.637 91.937 92.104 91.952 91.974 91.989 92.422 92.242 92.122 92.114 92.214 92.314 92.432 92.357 92.389 92.459 92.532 92.482 92.359 92.302 92.242 92.274 92.407 92.552 92.542 92.624 92.492 92.397 92.369 92.404 93.602 96.514 96.552 96.582 96.617 96.652 96.682 96.682 96.727 96.767 96.784 96.822
78.023 78.041 78.056 79.043 79.898 79.356 75.321 80.078 78.711 82.083 83.558 83.288 82.623 83.501 84.281 82.911 79.996 77.168 77.613 76.243 76.168 77.221 76.733 76.161 76.168 76.178 76.103 78.961 76.92 76.325 76.45 76.113 76.155 76.193 76.363 76.145 76.068 76.128 76.165 76.215 76.28 76.383 76.398 76.435 76.495 76.53 76.615 76.573 76.69 76.713 76.718 76.753 76.745 76.753 76.788 76.805 76.773 76.913 79.28 77.313 80.253 79.208 79.213 78.348 78.693 77.788 78.035 78.545 78.393 78.123 78.225 79.023 78.523 78.438 78.485 78.563 78.66 82.24 84.83 85.488 82.37 81.048 84.958 85.745 86.483 86.703 85.613 80.96 85.215 86.74 86.575 85.995 86.2 84.31 82.613 86.403 86.515 84.94 82.858 81.85 79.393 79.008 79.015 78.958 79.78 81.958 81.825 80.033 79.178 79.21 79.23 79.278 79.995 79.92 79.213 79.248 79.288 79.318 79.528 80.025 85.083 86.585 86.675 82.565 81.058 81.5 81.338 81.873 80.523 81.095 80.9 80.36 80.298 80.358 80.373 80.348 80.43 80.535 80.61 80.693 80.79 80.91 81.12 81.075 81.98 83.525 86.408 87.473 83.995 81.603 81.223 81.298 81.398 81.545 82.008 82.355 82.248 82.088 82.188 84.193 88.79 87.368 83.133 83.178 83.215 83.308 84.348 86.685 86.123 85.445 85.275 85.948 87.855 87.97 87.91 86.758 88.165 87.87 87.62 87.332 87.28 87.947 89.812 89.307 88.53 88.757 88.552 90.535 91.795 91.542 90.522 89.84 90.317 90.787 91.192 92.187 94.62 91.96 91.522 93.215 102.112 101.997 100.885 96.227 95.16 97.882 96.015 98.86 100.26 100.587 97.35 95.445 94.682 95.482 94.967 94.532 94.832 95.235 94.62 94.632 94.642 95.067 96.79 96.967 96.247 94.885 98.832 99.042 100.437 98.95 97.835 95.055 95.08 95.115 95.182 95.18 95.065 97.205 102.96 102.152 95.252 100.662 104.977 106.195 106.852 106.9 105.025 103.055 95.467 94.96 95.005 98.912 104.232 102.045 95.555 95.305 94.07 94.095 94.187 93.94 93.777 93.73 93.595 93.44 93.39 93.282 93.225 93.112 93.315 93.092 93.12 93.795 93.16 93.195 93.152 93.082 93.07 98.142 99.757 98.372 94.46 93.952 94.557 93.575 93.382 93.472 93.505 93.48 93.32 92.732 92.395 92.227 92.167 92.142 92.025 92.065 92.09 92.047 92.027 92.797 91.937 91.845 91.772 91.725 91.715 91.717 95.71 99.652 99.705 99.732 99.66 99.672 94.852 93.815 100.642 100.107 95.725 92.652 91.82 91.815 93.297 91.657 91.497 92.59 94.957 94.37 94.457 91.085 90.899 90.497 91.647 90.054 92.789 91.824 89.839 89.744 89.749 89.752 89.769 89.912 90.744 92.732 91.317 89.964 89.952 89.884 90.047 90.089 90.094 90.142 90.159 90.157 90.057 90.109 90.172 90.134 90.134 90.184 90.289 90.224 91.052 95.434 96.989 96.834 96.732 96.614 96.497 96.387 96.292 96.197 96.059 95.942 93.464 90.569 90.164 90.162 90.199 90.179 90.137 90.134 90.149 90.479 91.004 91.579 91.787 92.057 91.942 92.057 92.022 92.022 92.004 92.387 92.609 92.519 92.312 92.369 92.392 92.429 92.464 92.392 92.279 92.252 92.254 92.399 92.452 92.482 92.564 92.517 92.522 92.447 92.387 92.402 92.997 95.917 96.542 96.537 96.594 96.619 96.632 96.679 96.704 96.744 96.764 96.812
76.951 78.041 78.023 78.041 77.911 75.256 77.048 82.316 82.836 82.886 84.386 84.903 84.213 84.276 83.863 82.211 77.951 78.568 79.671 78.808 78.306 77.631 77.103 76.201 76.258 76.791 76.783 77.153 76.715 76.423 76.43 77.055 76.6 76.14 76.218 76.17 76.23 76.338 76.203 76.25 76.455 76.495 76.44 76.463 76.508 76.568 76.59 76.618 76.718 76.72 76.775 76.778 76.798 76.83 76.858 76.875 76.845 76.913 76.92 77.005 80.188 78.875 77.37 77.315 77.48 77.538 77.515 77.6 77.815 78.37 77.833 77.933 79.48 78.223 78.35 78.503 78.568 78.968 79.59 82.123 80.335 79.53 83.073 85.755 85.725 85.17 84.363 81.965 85.81 87.563 88.178 87.33 85.838 83.835 85.298 86.803 86.125 85.488 85.318 83.07 79.25 79.095 79.013 79.215 80.76 82.07 81.038 80.023 79.188 79.223 79.255 79.288 81.21 80.258 79.238 79.968 80.193 80.485 79.745 80.143 86.78 88.263 87.863 86.773 86.253 84.598 81.393 81.465 81.483 81.473 81.575 80.39 80.345 80.42 80.395 80.375 80.498 80.76 80.663 80.74 80.82 82.493 83.683 83.15 81.328 81.305 81.263 81.183 81.375 81.965 81.333 82.21 83.853 84.81 82.653 82.673 84.175 82.553 82.148 83.823 85.443 83.065 83.165 83.218 83.285 83.38 83.488 85.708 83.655 84.613 85.685 88.288 88.965 88.73 86.995 87.495 88.19 89.563 89.44 87.84 88.97 91.28 91.415 88.917 88.805 89.122 88.582 88.81 89.017 89.287 89.48 89.89 90.367 90.78 91.2 91.4 92.392 91.42 91.482 93.542 100.585 101.452 100.252 93.54 92.355 92.835 94.602 98.41 100.972 100.12 94.817 94.36 94.937 94.947 94.615 95.115 95.295 95.4 94.612 94.627 94.61 94.632 94.967 96.285 95.137 95.64 98.34 99.012 99.16 97.292 95.097 94.88 95.04 95.102 95.152 95.2 95.202 95.112 96.175 95.542 95.16 95.05 97.917 104.552 105.902 106.922 106.352 105.105 102.555 96.257 96.955 103.12 105.68 105.212 103.28 97.38 94.765 95.037 94.265 94.385 93.89 93.775 93.777 93.605 93.452 93.4 93.275 93.235 93.642 95.14 95.165 95.32 93.71 93.13 93.16 93.122 93.087 93.095 95.482 97.097 96.257 95.127 93.14 94.46 93.785 93.347 93.422 93.41 92.977 92.51 92.335 92.322 92.272 92.145 92.337 92.38 93.01 92.517 92.265 91.985 91.852 91.882 91.852 91.742 91.742 92.272 92.24 95.58 99.75 99.627 99.665 96.612 92.71 100.335 100.527 100.535 99.917 95.365 92.327 93.075 92.757 91.645 91.557 91.487 93.062 92.317 91.245 91.61 91.257 91.267 91.957 91.924 95.184 93.127 91.162 91.402 89.762 89.777 89.762 89.762 89.887 90.164 92.654 91.927 90.622 90.102 90.089 90.042 90.092 90.069 90.077 90.134 90.147 90.059 90.132 90.154 90.212 90.294 90.189 90.512 94.774 96.492 97.129 97.017 96.862 96.772 96.654 96.534 96.437 96.312 96.179 96.097 95.979 94.184 91.934 90.209 90.207 90.222 90.164 90.139 90.127 90.177 90.364 90.767 91.199 91.777 91.957 92.009 92.022 91.967 92.119 92.414 92.387 92.317 92.219 92.217 92.314 92.392 92.377 92.272 92.209 92.199 92.324 92.452 93.289 93.964 94.384 92.497 92.759 92.462 92.377 92.372 92.392 95.119 96.512 96.562 96.582 96.594 96.639 96.654 96.732 96.749 96.759 96.792
74.916 75.271 76.928 78.041 77.011 74.941 78.511 82.776 82.643 83.001 83.841 84.523 85.066 84.643 83.138 80.218 78.836 82.428 82.231 82.058 80.476 80.938 82.238 79.558 78.066 77.376 77.403 77.063 76.46 76.993 77.368 76.755 76.768 76.383 76.248 76.26 76.248 76.285 76.258 76.508 77.33 77.873 76.7 76.558 76.523 76.543 76.545 76.65 76.728 76.763 76.835 76.833 76.863 76.89 76.895 76.915 76.963 76.96 76.975 76.985 77.033 77.023 77.08 77.188 77.45 77.54 77.565 77.65 77.658 77.688 77.698 78.173 79.253 78.005 78.448 78.773 78.72 78.53 78.535 78.525 78.89 78.725 79.568 83.44 85.163 82.573 82.14 83.195 86.013 86.868 87.438 86.915 85.225 82.508 87.188 87.393 87.445 86.913 86.048 82.063 81.775 79.39 79.085 79.343 79.93 81.51 79.763 79.323 79.353 79.235 79.245 79.47 80.673 79.89 79.575 80.483 80.645 82.095 82.198 82.973 88.02 88.358 87.403 86.393 86.695 86.725 83.903 79.963 80.32 81.305 81.068 80.415 80.39 80.425 80.41 80.408 80.785 80.613 80.705 80.783 80.853 85.023 87.8 87.705 87.65 87.823 86.56 84.465 81.033 81.258 81.475 82.778 85.478 85.413 82.58 82.578 86.143 82.78 82.23 83.53 85.398 83.103 83.528 83.243 83.343 83.44 83.505 83.618 83.73 85.163 90.003 93.553 93.67 88.148 85.208 85.39 86.548 88.745 88.445 88.292 88.282 91.587 92.725 89.442 89.837 88.682 88.61 88.85 89.07 89.277 89.52 89.955 90.445 90.832 91.232 91.592 91.415 91.387 91.587 99.105 101.067 102.02 100.352 95.355 92.32 92.74 93.58 97.085 99.36 96.645 93.88 94.11 94.552 94.71 94.735 95.577 96.83 96.877 95.77 94.667 94.562 94.6 94.615 95.43 96.525 97.737 98.512 98.527 96.487 95.975 94.805 94.862 94.98 95.057 95.162 95.18 95.217 95.215 95.177 95.127 95.135 95.17 95.057 98.93 104.405 105.6 106.737 106.572 105.405 103.53 103.215 105.52 106.797 106.257 104.855 100.627 95.282 97.51 96.977 94.41 94.642 94.035 93.755 93.797 93.785 93.502 93.355 93.257 93.472 95.57 98.57 95.7 99.06 94.28 93.127 93.13 93.14 93.06 93.04 93.007 92.962 92.947 93.077 94.695 96.177 94.17 93.307 94.005 92.717 92.515 92.435 92.377 92.242 92.252 92.415 92.37 92.612 92.887 96.102 92.737 91.895 91.82 91.897 91.865 91.792 91.925 91.722 91.575 93.765 99.66 97.82 92.73 99.895 100.485 100.877 100.57 100.53 100.315 95.17 91.842 91.717 91.72 91.715 91.8 91.605 91.38 91.362 91.287 91.339 90.992 91.497 90.979 95.652 94.232 93.967 92.837 93.099 89.839 89.819 89.762 89.834 89.864 90.302 92.027 92.494 90.452 90.099 90.082 89.932 90.112 90.127 90.119 90.144 90.154 90.162 90.192 90.274 90.227 90.157 92.189 97.317 97.347 97.254 97.137 97.007 96.874 96.792 96.659 96.559 96.452 96.339 96.227 96.112 96.004 95.809 91.364 90.177 90.219 90.199 90.137 90.149 90.147 90.159 90.279 90.637 90.859 91.394 91.764 91.904 92.154 92.142 92.304 92.327 92.217 92.184 92.194 92.189 92.237 92.239 92.207 92.192 92.237 92.394 93.029 94.669 93.557 93.584 92.499 92.572 92.517 92.419 92.384 92.374 92.672 96.514 96.537 96.574 96.597 96.619 96.634 96.694 96.732 96.744 96.769
74.696 74.896 74.978 75.286 75.486 75.658 78.768 80.351 81.163 80.603 82.191 82.876 83.623 83.858 82.573 78.453 82.331 83.756 83.468 83.821 83.101 82.903 83.906 83.416 82.556 78.771 78.118 76.816 76.495 76.51 76.785 76.518 76.498 76.443 76.385 76.403 76.995 76.363 76.365 76.428 77.313 78.488 76.745 76.643 76.693 76.525 76.58 76.645 76.663 76.74 76.813 76.803 76.888 76.935 76.95 76.99 76.983 77.023 77.018 77.07 77.08 77.063 77.115 77.103 77.268 77.438 77.535 77.638 77.698 77.675 77.643 77.698 77.795 77.865 78.698 80.645 79.1 78.635 78.408 78.78 79.018 78.993 79.4 78.72 79.078 79.86 78.943 82.913 84.8 86.098 85.938 86.033 83.895 83.708 87.453 88.033 88.333 87.38 85.598 81.963 85.543 85.33 83.275 81.66 80.518 79.743 79.925 79.255 79.308 81.203 81.083 80.598 80.633 79.315 79.82 79.458 81.093 82.22 82.925 85.593 88.253 88.253 86.88 85.27 82.823 84.385 81.855 79.928 80.045 80.423 80.78 80.415 80.425 80.46 80.42 80.493 80.618 80.65 80.818 81.778 81.275 86.833 87.388 87.628 88.033 89.148 88.703 86.935 81.15 81.075 81.34 81.698 81.715 81.798 82.643 84.423 88.083 87.163 83.74 82.658 83.323 85.13 84.233 83.215 83.355 83.478 83.523 83.635 83.65 84.428 86.473 92.97 91.445 86.275 85.258 85.468 85.668 85.96 86.25 86.997 86.87 87.49 90.065 92.205 90.505 92.807 91.45 88.85 89.075 89.31 89.582 90.08 90.55 90.905 91.22 91.287 91.365 91.36 96.442 100.64 101.705 101.925 100.865 98.555 92.33 92.657 92.697 94.28 95.382 96.332 95.817 95.815 94.577 93.807 94.5 96.145 96.907 96.91 96.9 95.997 94.67 94.617 95.012 98.767 98.967 100.58 100.005 98.12 95.872 96.45 94.86 94.875 94.915 94.947 95.12 95.157 95.167 95.192 95.227 95.207 95.19 95.245 95.222 95.105 95.305 102.68 105.267 106.49 106.8 105.617 105.302 106.677 106.757 105.26 102.825 95.285 97.58 98.75 97.832 94.555 94.05 93.945 93.762 93.747 93.732 93.825 93.817 93.317 93.975 96.285 98.682 100.43 97.597 94.585 93.11 93.115 93.107 93.1 93.065 93.025 92.975 92.947 93.197 94.962 95.17 96.58 94.687 93.647 92.685 92.602 92.495 92.39 92.36 92.445 92.977 93.097 92.56 98.407 101.435 99.17 93.03 91.902 92.61 92.285 91.887 91.822 91.827 91.752 91.61 93.93 92.492 91.972 97.297 100.492 100.627 100.455 100.532 100.617 100.617 97.042 92.97 91.725 92.407 92.387 91.5 91.48 91.457 91.312 91.389 91.339 92.112 91.002 92.344 91.422 94.024 91.664 96.939 90.624 89.872 89.832 89.809 89.862 89.894 89.879 91.957 91.737 90.569 90.102 90.064 89.927 90.077 90.104 90.104 90.144 90.127 90.224 90.237 90.192 93.329 97.039 97.162 97.279 97.357 97.297 97.119 97.057 96.934 96.812 96.692 96.574 96.484 96.364 96.239 96.122 96.052 95.749 91.314 90.187 90.217 90.187 90.154 90.269 90.752 90.159 90.232 90.427 90.802 91.214 91.679 92.012 92.172 92.337 92.509 92.637 92.154 92.132 92.129 92.154 92.187 92.152 92.177 92.302 92.432 92.447 92.837 92.464 92.912 92.579 92.662 92.589 92.452 92.372 92.367 92.389 94.539 96.529 96.559 96.579 96.617 96.647 96.669 96.697 96.724 96.772
74.566 74.643 74.893 75.008 75.121 76.793 78.806 78.823 78.858 78.866 79.458 80.343 81.828 82.533 81.761 79.168 83.206 84.673 84.898 85.116 84.748 83.761 84.861 84.363 82.558 77.566 77.476 77.318 76.55 76.555 76.553 76.575 76.53 76.505 76.513 77.045 76.905 76.57 76.523 76.445 76.44 76.515 77.325 77.655 76.715 76.485 76.578 76.595 76.695 76.755 76.79 76.825 76.873 76.955 76.983 77.013 77.05 77.095 77.095 77.113 77.133 77.145 77.163 77.203 77.23 77.233 77.298 77.473 77.575 77.51 77.595 77.75 77.725 77.813 77.85 78.198 78.433 79.175 78.253 78.395 79.225 78.615 79.48 79.288 79.14 79.375 79.958 81.655 84.628 85.818 84.675 84.085 80.943 84.923 85.868 86.663 87.128 87.57 85.18 83.663 86.473 86.885 86.348 85.758 84.998 80.98 80.668 79.645 79.29 82.198 82.22 80.973 79.488 79.35 79.38 79.413 79.475 80.513 81.848 86.648 88.253 87.923 86.35 84.418 80.325 80.003 80.538 80.115 80.533 80.6 80.785 80.75 80.603 80.53 80.47 80.53 80.635 80.675 80.755 80.868 81.273 81.008 81.473 85.938 87.823 89.373 89.52 87.135 81.225 81.305 81.413 82.08 81.72 81.628 81.73 81.853 84.013 85.4 85.723 86.858 87.01 85.138 84.565 85.428 85.545 83.43 83.513 83.62 84.36 84.92 85.445 86.905 89.508 87.533 85.435 86.1 86.02 85.99 86.282 86.657 86.925 87.255 88.662 92.12 90.35 92.747 89.347 90.465 89.627 89.327 89.68 90.297 90.715 90.975 91.235 91.33 91.315 91.42 98.862 101.502 102.117 101.295 99.612 93.012 92.297 92.582 92.915 95.31 96.165 97.32 97.392 96.777 95.532 94.885 94.08 94.507 95.61 96.905 96.87 96.867 96.227 94.702 96.717 100.537 101.36 100.89 101.63 97.677 94.765 96.112 95.252 94.905 94.93 94.972 95.025 95.112 95.15 95.185 95.215 95.25 95.26 95.237 95.195 95.147 95.137 94.917 102.01 104.975 106.24 106.88 106.577 106.827 105.502 103.57 95.395 97.112 98.575 97.13 95.352 94.79 94.58 94.087 93.825 94.48 93.9 93.717 93.92 93.99 93.85 96.117 95.747 97.737 97.827 97.525 95.252 93.095 93.09 93.095 93.13 93.052 93.027 92.942 93.405 97.872 96.332 97.22 93.41 92.812 92.737 92.662 92.567 92.5 92.822 92.907 92.605 92.792 98.07 101.467 101.945 101.665 100.162 92.737 92.172 92.68 91.947 91.89 91.865 91.91 92.085 92.317 92.312 91.745 92.135 95.592 99.725 100.44 100.58 100.542 100.542 100.27 95.507 91.932 92.565 91.647 91.597 91.555 91.472 91.415 92.122 93.177 91.544 93.622 90.592 90.199 92.934 93.792 93.442 92.224 89.904 89.852 89.842 89.819 89.864 89.964 90.132 91.517 92.892 90.957 90.249 90.102 89.974 90.107 90.142 90.119 90.242 90.194 90.147 92.392 95.699 96.912 97.032 97.122 97.242 97.359 97.302 97.172 97.064 96.962 96.849 96.709 96.619 96.489 96.384 96.272 96.159 96.064 94.902 92.617 90.199 90.214 90.257 91.279 90.137 90.154 90.162 90.179 90.464 90.509 91.159 91.814 92.149 92.304 93.177 92.897 92.974 92.134 92.109 92.137 92.132 92.107 92.149 92.299 92.432 92.502 92.547 92.869 92.769 92.647 92.692 92.652 92.507 92.404 92.387 92.397 93.207 96.522 96.532 96.557 96.599 96.627 96.649 96.694 96.712 96.757
