ncols 395
nrows 31
xllcorner    527186
yllcorner    187722
cellsize     2
NODATA_value -9999
104.718 104.456 104.841 105.426 107.061 107.941 108.531 108.721 110.763 112.941 114.626 113.978 112.326 111.026 107.308 104.841 105.446 105.236 104.986 105.518 106.746 105.518 104.906 104.851 104.878 104.828 105.846 106.383 105.438 105.166 105.063 106.666 111.493 112.171 112.906 113.198 113.158 112.348 111.851 111.653 110.308 107.088 109.323 108.838 112.306 110.256 110.806 109.251 109.813 110.001 107.101 113.746 108.133 108.201 109.086 112.751 113.731 112.353 105.233 110.928 112.628 111.838 111.563 111.603 110.276 109.511 108.451 105.338 105.688 105.876 105.628 105.958 104.846 104.781 104.726 104.731 104.723 104.733 104.728 104.726 104.733 104.738 104.858 104.771 104.818 104.771 111.506 113.276 113.463 113.378 113.546 113.776 113.408 112.813 106.931 105.178 105.383 105.081 105.761 104.983 105.866 105.061 105.038 104.983 104.931 104.973 105.063 104.973 105.578 108.658 112.13 113.578 112.338 111.915 110.453 106.808 104.83 104.823 104.71 104.483 105.423 104.968 106.245 106.958 105.738 106.7 106.578 106.26 105.02 109.033 108.623 109.428 108.163 106.33 108.41 110.155 114.608 110.668 109.523 108.4 109.315 108.933 107.908 112.315 112.055 109.413 109.385 109.353 107.578 108.915 109.92 109.758 108.305 105.7 104.13 104.08 104.045 104.05 104.045 104.028 104.043 104.04 104.01 103.92 103.778 103.803 105.083 110.233 108.76 109.83 109.095 111.973 109.463 107.483 104.115 104.72 104.1 103.588 104.91 105.813 104.29 103.168 103.205 103.265 103.285 103.155 103.11 103.193 103.198 104.22 104.145 103.36 104.173 109.825 111.455 111.9 111.678 113.248 113.125 111.965 108.888 106.753 106.383 103.335 103.333 104.1 105.278 105.108 104.11 103.81 103.7 103.725 103.735 103.743 103.748 103.758 106.838 106.84 108.903 105.973 112.558 113.288 112.56 116.035 113.053 111.753 107.065 106.24 105.763 105.74 105.76 105.76 105.778 105.778 105.79 105.78 105.74 105.74 105.75 105.753 105.745 105.653 105.725 105.658 105.825 110.1 111.465 108.493 108.785 109.168 112.13 112.955 113.75 111.64 108.605 108.38 110.44 112.302 109.7 107.682 112.312 119.395 113.097 113.715 110.657 109.005 107.665 108.195 107.48 110.545 108.34 108.682 107.285 107.062 107.045 107.047 107.055 107.04 107.06 107.407 107.925 108.277 108.525 108.567 108.57 108.56 108.757 109.152 109.065 109.625 109.855 108.91 109.585 110.55 117.472 120.61 120.152 117.53 112.25 109.087 108.067 108.062 108.29 108.375 108.382 108.59 108.007 107.89 107.85 107.822 107.805 107.815 107.81 107.8 107.71 107.697 107.652 107.62 107.567 107.545 107.505 107.71 110.877 108.35 107.442 107.425 107.415 107.38 109.91 107.235 108.275 107.075 111.355 118.96 117.447 115.592 113.365 111.347 106.805 106.782 106.702 106.692 106.705 106.675 106.695 106.72 106.707 106.727 106.99 110.785 108.79 106.467 111.425 112.79 112.545 110.477 109.662 108.335 109.265 107.34 108.162 106.585 106.277 106.615 106.625 106.555 107.487 113.787 108.925 111.29 108.487 109.125 110.192 110.887 109.742 114.702 112.532 111.395 111.627 111.312 110.075 107.607 108.435 110.312 111.74 113.887 113.23 110.285 111.732 113.027 115.115 113.8 110.65 111.247 111.67
105.758 104.588 104.926 104.931 104.911 105.001 106.331 108.738 111.006 113.678 114.733 113.746 112.006 107.566 105.126 104.923 105.991 105.113 105.058 105.368 106.143 107.558 106.271 105.033 104.961 104.941 106.233 107.076 105.276 105.553 105.708 106.588 108.656 111.943 113.398 113.971 113.783 112.583 111.783 111.708 109.838 106.883 107.268 104.988 105.948 108.018 109.288 110.973 108.156 111.118 108.933 113.461 109.478 107.833 108.081 112.521 112.013 112.516 107.628 107.371 113.666 117.853 115.493 114.896 114.086 111.836 107.841 105.446 105.883 105.731 105.613 105.888 104.876 104.826 104.763 104.771 106.833 105.648 105.796 104.766 105.103 105.408 105.066 105.871 105.753 105.741 110.413 112.118 112.426 113.378 113.341 113.351 113.561 111.696 105.153 105.246 105.408 105.071 105.668 105.038 105.743 105.148 105.053 105.008 104.931 104.993 105.331 104.943 104.863 106.938 112.42 113.583 112.733 110.548 109.17 106.708 104.848 104.81 104.865 104.488 104.503 104.5 104.498 104.523 105.853 105.475 104.958 104.708 104.443 104.823 104.448 105.663 106.513 107.205 110.065 107.545 112.593 109.97 111.425 114.278 112.785 110.768 110.8 114.513 111.833 112.07 111.12 110.108 107.558 110.713 110.18 109.918 108.655 108.923 105.185 104.255 105.06 104.11 104.05 104.043 104.018 104.008 104.008 103.79 103.753 103.763 106.51 110.725 110.815 110.218 110.88 111.78 112.208 110.028 105.433 103.6 103.583 103.528 103.5 104.133 103.238 103.183 103.253 103.3 103.255 103.118 103.173 103.36 103.433 104.333 104.35 104.123 104.805 108.828 110.368 111.55 112.73 113.608 112.325 110.99 107.135 106.353 104.165 103.285 103.608 104.343 104.315 104.588 105.213 104.793 104.365 104.568 104.64 103.805 103.79 103.79 103.788 107.153 106.303 106.333 110.925 114.403 114.265 112.85 114.378 111.895 107.378 105.74 105.758 105.755 105.78 105.763 105.805 105.805 105.835 105.763 105.758 105.783 105.795 105.773 105.773 105.765 106.148 106.26 105.79 105.755 108.388 109.395 107.07 109.783 111.373 111.403 111.878 113.83 110.838 116.008 114.578 114.002 112.432 108.21 113.142 113.887 114.642 117.132 109.842 109.137 107.49 108.982 107.727 111.14 111.487 108.912 107.672 107.152 107.085 107.07 107.087 107.09 107.35 107.862 108.677 108.667 108.67 108.672 108.792 109.307 110.905 110.8 110.002 110.722 111.162 110.315 111.79 115.377 113.872 118.567 117.17 109.097 107.752 108.4 109.33 108.395 108.55 108.337 108.24 108.08 108.577 108.735 108.095 108.375 109.855 107.922 107.885 107.845 108.125 107.925 107.612 107.57 107.532 108.205 110.667 111.732 113.52 111.682 108.73 108.217 109.55 111.24 112.95 107.352 107.255 107.56 116.22 114.11 111.595 113.512 116.077 113.237 106.787 110.86 108.242 106.697 106.717 106.695 106.682 106.722 106.8 108.142 111.837 112.412 112.075 108.657 106.862 111.275 111.1 108.56 110.472 106.91 108.87 107.482 106.577 106.482 106.672 106.677 106.652 108.197 112.71 113.337 110.662 107 106.582 108.967 108.532 112.17 109.247 113.482 113.232 116.707 115.327 111.835 111.442 110.53 108.12 108.125 110.312 110.367 114.625 112.56 113.76 113.47 116.675 110.155 110.19 110.555 110.12
104.923 104.686 104.836 104.901 104.966 104.923 107.136 110.866 112.441 113.953 114.743 113.648 111.216 105.968 105.071 104.926 105.238 105.053 106.103 108.326 106.591 106.251 104.983 105.043 105.041 105.476 106.018 107.888 109.021 105.803 105.933 106.598 109.841 112.433 113.861 114.261 114.073 112.186 108.563 107.561 107.691 108.363 105.558 105.016 104.846 106.531 107.996 108.556 107.983 111.143 108.503 109.758 112.531 113.336 111.171 112.078 116.718 108.203 110.286 109.873 113.946 115.181 114.411 110.683 113.316 110.281 105.896 105.528 105.851 105.703 106.016 105.448 104.863 104.783 104.771 107.536 107.568 107.948 109.923 106.861 109.058 107.303 105.613 106.368 107.933 107.928 109.093 109.383 112.038 113.426 113.388 113.391 113.496 111.496 106.056 104.973 105.003 105.078 105.561 105.101 105.756 105.148 105.073 105.018 104.951 105.018 105.456 104.95 104.915 108.28 111.913 113.005 112.765 109.658 106.958 106.208 104.87 105.213 104.758 104.498 104.523 104.54 104.523 104.52 104.54 104.51 104.548 104.525 104.465 104.475 104.87 106.315 104.49 104.49 104.848 105.6 110.63 107.355 111.26 110.443 114.508 112.418 110.788 111.855 114.4 107.47 109.553 110.253 112.87 110.1 108.93 105.743 106.825 108.61 105.408 105.098 105.478 104.358 104.053 104.01 104.003 103.985 103.853 103.775 103.938 105.288 106.78 109.105 110.418 111.513 110.998 110.088 109.648 107.503 104.38 103.895 104.048 103.653 103.79 103.333 103.188 103.253 103.32 103.318 103.198 103.183 103.425 103.403 103.458 104.123 103.22 103.408 103.62 104.78 105.698 110.618 112.908 112.79 111.123 108.21 106.76 105.763 103.545 103.383 103.873 104.493 104.653 104.238 104.205 105.035 105.728 105.918 105.49 105.923 106.91 103.863 105.665 104.87 103.84 109.918 110.365 113.5 114.348 107.295 109.153 109.468 105.743 105.76 105.763 105.783 105.818 105.795 105.838 105.835 105.77 105.79 105.813 105.795 105.803 105.77 105.785 105.8 105.805 105.75 105.753 105.81 105.928 107.955 109.055 109.133 109.853 109.428 109.913 114.87 115.303 118.11 116.48 111.397 111.607 108.407 108.507 109.007 112.852 113.227 112.542 111.247 107.512 107.552 110.695 109.77 107.577 107.58 107.772 107.942 107.332 107.11 107.107 107.287 107.857 108.37 108.597 108.71 108.71 109.77 109.965 111.207 112.01 111.66 111.017 109.507 111.262 113.357 117.11 117.192 115.807 110.69 111.675 109.5 108.55 109.265 109.72 109.455 108.337 108.477 109.045 108.577 108.332 109.405 108.797 110.332 114.885 110.017 109.647 108.647 108.422 107.922 107.645 107.657 107.607 108.885 109.977 111.26 111.375 109.24 111.675 113.837 110.147 113.64 109.067 112.41 109.042 108.492 112.095 112.475 114.547 116.525 111.262 114.08 107.812 110.56 112.402 109.507 106.745 106.767 106.752 106.77 109.35 112.592 112.897 112.627 112.345 111.342 108.192 107.495 109.592 108.107 107.772 107.98 108.04 106.562 106.55 106.682 106.655 106.635 108.765 113.092 113.37 113.597 113.96 111.467 106.63 107.642 108.94 109.345 109.315 112.295 118.805 120.26 116.94 113.917 110.452 114.655 108.832 108.69 108.872 108.015 109.945 109.307 113.957 118.307 112.385 111.222 112.28 112.532 110.17
105.313 104.781 104.828 105.163 104.953 104.906 108.621 112.453 112.696 113.818 114.288 112.873 111.018 105.416 104.943 104.941 104.996 105.096 105.143 105.973 106.108 105.741 105.103 105.101 105.103 105.351 105.761 106.738 105.853 105.408 105.423 108.971 111.976 112.403 112.786 114.183 113.936 111.701 105.968 106.568 105.968 107.236 105.478 104.971 104.848 104.831 104.848 104.833 105.548 110.906 108.958 113.171 112.736 111.103 113.018 114.793 111.481 111.493 114.268 121.188 117.671 122.186 117.451 112.873 111.148 110.821 106.418 105.441 105.646 105.646 106.041 105.518 104.868 105.256 106.521 109.983 108.646 108.461 110.518 108.401 112.131 109.981 106.041 106.506 107.928 107.908 107.903 108.181 111.083 111.583 112.186 112.683 112.856 109.996 105.568 105.731 105.223 105.068 105.106 105.058 104.973 105.083 105.081 105.066 104.981 105.031 105.826 105.918 105.748 109.238 111.178 110.155 109.603 108.118 107.878 106.258 105.338 105.718 105.118 104.838 106.233 106.723 105.15 105.525 104.818 104.678 104.66 104.648 104.69 104.803 106 105.613 104.763 104.495 104.485 104.865 107.73 105.888 108.215 108.228 109.925 110.795 109.96 106.6 108.005 104.598 106.395 108.63 113.078 110.045 108.52 105.748 104.328 104.178 104.313 104.413 104.523 104.79 104.573 104.02 104.068 104.115 104.313 103.843 104.693 105.753 106.995 108.555 111.078 112.538 112.318 111.68 110.798 107.383 104.443 104.71 105.71 105.48 104.18 103.275 103.25 103.295 103.34 103.25 103.158 103.243 103.59 103.538 103.358 103.475 103.245 103.758 103.673 104.435 104.878 104.675 106.583 111.088 110.49 107.338 106.583 104.76 103.343 103.6 104.538 104.653 105 104.265 104.295 104.298 104.323 105.163 106.978 108.335 106.965 106.818 106.833 104.098 104.47 111.653 112.81 115.913 116.343 114.61 109.028 106.205 105.748 105.783 105.798 105.798 105.785 105.823 105.84 105.81 105.805 105.783 105.835 105.815 105.818 105.793 105.788 105.775 105.828 105.833 105.868 105.888 105.985 106.278 107.313 106.175 109.413 109.315 111.293 112.403 116.995 115.415 115.87 113.777 109.292 107.982 108.98 109.437 109.175 107.74 107.53 107.57 107.562 107.587 107.602 107.602 107.635 107.647 107.662 108.41 109.63 107.367 107.592 107.817 108.362 108.677 108.752 108.707 108.945 111.06 113.025 113.52 112.39 111.78 111.705 110.017 109.822 117.267 119.21 119.187 119.34 116.23 110.87 109.047 109.117 110.192 109.785 108.77 109.115 108.6 108.517 108.285 108.255 113.647 111.65 112.09 111.742 110.007 110.95 112.715 108.19 108.495 108.512 108.395 110.55 112.095 112.747 113.34 110.667 109.8 115.525 109.922 109.915 115.532 111.67 111.022 111.602 111.627 108.252 108.235 114.267 113.21 107.94 110.635 111.17 116.322 113.39 106.95 108.29 106.787 106.785 108.17 112.822 113.37 113.145 112.877 112.612 112.322 111.725 106.98 107.05 109.145 108.115 107.385 106.442 106.685 106.792 107.077 106.712 109.765 113.227 113.395 113.595 114.23 115.98 115.357 110.192 106.615 107.612 106.682 107.665 110.46 119.917 121.7 118.072 111.817 113.217 110.687 108.057 111.485 108.3 108.522 110.582 110.095 111.6 112.592 111.372 113.73 114.155 113.485 111.595
105.353 105.153 105.321 105.868 107.076 106.273 108.953 109.926 111.908 113.061 113.103 112.826 111.518 105.211 105.076 105.116 105.068 105.168 107.446 106.618 106.056 106.763 105.203 105.211 105.193 105.126 105.333 105.593 105.153 105.153 105.633 109.811 112.958 113.126 113.966 114.251 113.723 110.658 105.398 106.673 106.091 106.468 105.018 105.076 104.988 104.961 104.928 104.891 105.126 109.653 111.321 108.921 113.096 108.751 113.453 115.853 112.268 109.921 110.701 120.626 119.261 119.673 112.858 115.251 111.733 108.658 106.486 106.333 107.291 105.908 108.031 110.603 111.266 111.071 110.618 109.831 111.381 111.128 111.028 109.191 113.228 110.991 104.816 105.026 106.196 105.608 105.521 105.333 105.476 105.526 106.151 107.133 107.236 107.201 105.533 105.916 106.276 106.221 105.573 105.078 105.003 105.043 105.061 105.046 104.991 105.036 106.361 106.368 106.585 108.225 109.863 109.343 109.03 106.453 106.58 106.245 105.665 105.228 105.478 105.825 108.518 108.473 107.655 106.498 105.913 105.673 105.235 105.498 105.613 106.525 106.12 105.913 105.398 104.67 104.83 104.88 105.68 105.75 107.843 107.38 109.255 108.475 107.945 106.503 104.833 104.213 104.755 106.578 111.425 110.46 107.663 106.15 105.965 104.868 104.193 104.085 104.41 104.798 104.495 104 103.988 104.058 106.385 106.425 105.778 106.638 108.308 110.32 111.975 112.763 111.585 112.14 112.293 107.215 104.263 104.448 104.425 107.163 104.17 103.238 103.303 103.363 105.118 105.15 107.228 103.408 103.775 103.928 104.198 103.185 103.658 107.143 107.328 105.103 105.77 104.948 103.485 104.41 107.403 106.998 106.03 104.038 103.47 103.94 104.005 104.215 104.293 104.313 104.33 104.33 104.323 104.335 105.798 108.948 109.418 107.953 108.2 105.423 105.03 113.753 113.09 116.133 117.283 116.283 108.273 105.973 105.788 105.79 105.818 105.795 105.818 105.818 105.843 105.82 105.843 105.818 105.823 105.84 105.803 105.823 105.768 105.89 105.923 105.95 105.953 106.02 106.978 107.28 106.303 107.883 109.048 108.973 108.858 110.428 115.56 116.818 107.43 110.305 109.765 108.205 108.867 110.307 108.342 108.31 107.732 107.62 107.642 107.65 107.657 107.667 107.682 107.7 107.705 107.722 108.832 108.145 108.647 108.835 108.682 108.797 108.787 108.737 108.692 115.545 116.302 113.962 113.417 112.83 111.275 109.275 109.842 115.07 119.075 121.055 116.72 117.427 109.472 109.287 109.76 109.387 108.627 108.942 108.707 108.487 108.432 108.332 108.227 112.435 113.74 114.485 114.98 117.425 113.865 113.93 109.372 107.917 108.347 108.48 110.412 113.06 111.417 116.532 115.837 111.475 114.335 113.03 108.347 114.787 112.012 113.065 115.137 109.585 107.285 107.27 107.302 113.25 107.205 110.717 112.312 115.195 109.94 108.805 106.967 106.832 106.83 107.112 112.642 113.607 113.367 113.13 112.847 112.527 112.282 111.51 106.717 106.575 107.042 106.55 106.75 106.842 107.225 108.905 111.402 113.22 113.445 113.667 114.502 115.952 115.682 115.357 115.062 108.942 106.67 106.71 109.707 109.945 113.737 117.155 109.53 112.342 112.245 108.992 111.435 109.452 108.592 110.1 110.642 114.165 111.362 113.757 113.267 109.787 110.117 113.845 112.902
106.931 106.681 107.166 110.843 109.851 107.586 111.443 110.501 109.331 109.053 109.441 110.096 109.811 105.261 105.611 106.618 105.116 105.183 107.381 106.801 105.371 105.301 105.291 105.283 105.263 105.226 105.236 105.241 105.583 105.716 105.773 109.756 111.751 113.053 114.153 114.218 113.366 110.196 107.318 108.268 107.221 106.396 105.008 105.233 104.996 104.993 104.986 105.031 105.158 106.073 107.678 109.968 110.046 106.248 113.081 113.888 109.373 115.871 112.236 112.876 115.616 115.643 116.368 114.248 112.326 106.623 105.968 107.603 109.401 111.068 110.783 111.453 110.341 108.486 108.956 111.511 111.398 110.461 111.483 110.121 110.536 108.156 107.531 107.433 107.496 106.871 105.891 105.978 106.676 106.783 106.456 106.841 106.916 107.526 105.986 106.366 106.011 106.133 106.331 105.108 104.991 105.111 105.116 105.121 105.021 105.041 105.061 104.965 104.983 109.668 111.835 110.933 111.678 108.87 108.288 106.588 104.868 104.848 104.815 105.363 106.255 106.365 106.423 104.995 105.325 104.96 104.54 104.515 104.545 105 105.25 104.623 104.5 104.485 104.47 104.468 105.195 107.733 109.99 110.323 109.17 108.875 106.688 105.443 104.245 104.208 104.31 106.505 107.795 106.208 105.023 104.643 105.553 106.6 106.12 105.08 104.108 104.025 104.218 103.998 103.985 105.785 107.868 107.893 107.725 107.358 109.72 111.22 112.813 112.438 110.535 110.413 109.195 104.425 103.868 103.445 104.17 103.975 103.318 103.3 103.368 105.79 107.198 106.163 107.218 105.39 104.718 103.545 103.345 103.248 105.755 109.688 110.798 110.245 110.053 108.365 103.883 103.583 103.82 105.603 104.915 103.365 103.91 104.34 104.348 104.32 104.315 104.335 104.37 104.348 104.353 104.398 104.41 105.815 108.63 109.653 109.943 106.118 108.28 115.295 115.355 115.748 121.42 119.745 109.358 105.81 105.805 105.795 105.793 105.833 105.84 105.805 105.848 105.83 105.815 105.81 105.83 105.84 105.86 105.8 105.823 106.198 105.963 106.038 106.083 110.123 110.273 110.3 111.81 110.415 108.448 111.493 106.888 107.898 109.495 117.218 109.478 111.987 109.625 108.502 108.33 107.7 107.622 107.587 107.892 108.2 107.777 107.747 107.717 107.71 107.732 107.742 107.765 107.802 107.85 107.937 108.78 108.895 109.92 109.142 108.79 108.892 112.285 119.125 121.437 116.755 113.915 113.525 109.925 109.312 109.91 110.375 116.14 117.777 115.98 112.157 110.035 110.082 108.732 108.552 108.545 108.567 109 108.81 109.57 111.552 111.462 113.175 112.015 114.177 113.865 112.905 116.2 109.627 110.08 108.505 108.222 109.49 110.635 108.685 110.827 111.317 110.457 115.355 113.692 112.792 108.19 112.4 110.852 110.835 110.767 111.602 111.445 107.2 107.267 107.29 109.875 113.375 113.012 111.697 110.277 107.185 107.09 106.965 106.87 106.855 107.58 113.517 113.612 113.312 113.04 112.78 112.505 110.58 107.302 106.715 106.612 106.735 106.785 106.73 109.215 112.135 113.27 113.467 113.715 114.765 115.915 115.617 115.305 114.995 114.695 113.51 107.662 106.672 108.022 108.057 109.335 110.255 106.73 113.142 109.227 110.367 115.14 111.702 108.277 111.907 108.802 110.545 113.257 114.215 113.21 111.242 109.922 110.152 108.09
109.601 109.526 110.851 115.206 114.043 110.856 111.283 112.306 112.033 111.858 109.161 107.058 105.036 105.346 105.596 105.386 105.646 105.256 105.938 105.311 105.333 105.356 105.381 105.376 105.348 105.301 107.691 107.696 106.963 107.658 106.638 108.103 111.598 112.893 113.581 113.811 112.781 111.876 111.673 108.986 105.443 105.558 105.011 105.043 105.033 105.043 105.003 105.101 105.198 105.633 105.181 111.766 111.793 105.518 108.173 108.966 110.888 114.823 110.506 113.123 112.178 114.343 116.856 115.346 112.531 109.158 108.171 109.178 108.283 111.788 110.928 111.838 111.063 107.956 112.343 111.986 113.488 111.631 111.223 112.336 109.963 107.196 110.343 110.708 109.076 106.378 106.526 106.878 108.388 109.071 109.096 109.071 109.068 106.698 105.046 105.218 105.131 105.268 105.178 105.303 105.031 105.113 105.118 105.096 105.506 106.008 105.181 104.99 105.02 109.353 112.948 113.94 112.323 108.715 108.378 106.873 105 104.86 104.818 104.868 104.695 104.618 104.62 104.628 104.603 104.625 104.568 104.543 104.548 104.503 104.518 104.5 104.495 104.48 105.838 104.548 107.36 110.518 111.16 110.908 108.965 107.823 104.61 104.758 104.595 104.41 104.188 104.153 104.183 104.155 104.113 104.11 104.093 104.738 105.69 107.825 108.348 107.99 105.688 104.01 103.98 107.23 107.85 108.078 108.073 107.895 106.803 110.808 112.735 111.233 109.328 108.385 104.358 103.56 103.515 103.748 103.618 103.375 103.258 103.343 103.39 108.253 105.968 107.21 107.08 108.353 107.81 104.113 103.195 105.14 109.468 112.14 112.51 111.833 112.428 109.918 108.383 104.763 104.283 104.813 103.725 103.438 103.808 104.81 104.36 104.345 104.348 104.358 104.385 104.398 104.398 104.423 104.448 104.65 104.908 104.935 107.05 109.003 110.763 119.625 118.975 120.48 121.088 116.618 105.83 105.818 105.823 105.833 105.815 105.843 105.88 105.868 105.87 105.848 105.84 105.86 105.865 105.838 105.858 105.825 105.868 105.913 106.068 106.163 106.188 110.765 111.668 113.288 108.675 110.43 111.02 110.233 106.768 106.75 107.138 110.403 116.445 108.767 108.965 109.347 109.715 108.32 107.79 107.752 108.575 107.797 108.085 107.792 107.78 107.777 107.797 107.795 107.802 107.84 107.88 107.927 108.225 109.14 109.652 110.087 110.055 111.607 120.142 121.285 121.7 120.235 116.577 110.285 109.547 109.35 110.137 110.095 109.407 109.492 110.372 109.11 109.41 108.755 108.705 108.745 108.74 108.732 113.012 113.765 112.155 113.677 112.84 110.975 113.857 116.64 114.942 114.302 111.977 108.152 109.337 111.042 113.135 115.952 116.492 110.672 114.18 110.915 108.49 112.51 113.03 111.862 109.692 110.49 110.432 113.507 107.555 111.567 113.007 107.967 107.21 107.287 107.787 113.037 111.615 107.735 110.485 107.415 107.33 107.172 107.015 106.912 110.737 109.405 113.62 113.547 113.252 113.007 110.915 106.917 106.882 106.932 106.76 106.735 106.737 107.627 112.537 113.292 113.507 113.912 115.235 115.882 115.577 115.25 114.94 114.62 114.31 113.99 112.165 106.74 106.697 106.75 106.79 108.942 108.945 110.487 106.772 107.13 112.422 113.745 108.542 108.277 112.8 112.23 112.195 111.37 108.337 107.98 107.987 108 108.042
109.623 109.693 112.836 115.936 116.176 115.956 115.861 115.336 114.746 115.448 111.893 106.128 106.461 107.108 107.413 107.073 106.558 106.876 107.006 106.368 106.323 105.481 105.463 105.471 105.433 105.761 108.736 109.071 109.131 109.858 109.441 111.371 111.266 112.486 112.273 111.853 112.168 111.946 111.688 107.753 105.033 105.021 105.026 105.138 105.061 105.063 105.053 105.146 106.231 106.481 105.811 105.243 105.273 105.521 110.666 108.471 110.666 109.356 108.738 114.571 115.971 114.846 112.966 114.381 113.158 109.096 110.068 108.728 106.946 114.308 114.658 115.008 114.531 113.436 112.571 112.493 111.391 110.541 110.223 111.083 108.086 105.641 107.436 107.503 106.813 105.483 105.776 106.851 108.286 109.178 109.488 109.531 110.168 109.703 105.816 107.228 107.103 107.076 107.161 105.883 105.063 105.116 105.163 105.686 106.468 106.748 106.786 104.948 105.028 109.208 112.865 114.495 112.31 109.258 108.353 107.178 105.81 104.923 105.183 104.805 104.705 104.63 105.048 104.643 104.635 104.618 104.605 104.583 104.555 104.528 104.523 104.508 104.485 104.465 104.475 108.15 108.548 109.773 110.098 109.938 108.113 106.723 104.993 107.333 107.863 104.945 104.87 104.185 104.18 104.153 104.143 104.125 104.1 104.103 104.628 110.543 112.3 112.618 110.723 106.358 106.023 107.868 107.828 107.923 107.833 107.73 106.9 106.698 109.163 108.668 106.915 106.12 103.718 103.538 103.725 104.693 104.018 103.373 103.338 103.45 103.395 108.055 108.878 107.915 108.578 109.455 107.43 107.91 103.335 106.338 110.103 112.01 113.303 113.403 112.658 111.468 110.348 108.438 105.838 107.15 106.638 105.345 104.418 104.433 104.79 104.378 104.435 104.435 104.458 104.453 104.478 104.47 104.53 105.238 104.81 105.065 105.663 109.793 110.978 118.12 120.25 118.438 113.093 106.633 105.858 105.853 105.848 105.828 105.83 105.843 105.888 105.828 105.848 105.818 105.853 105.855 105.848 105.82 105.818 105.865 105.93 106.085 106.173 107.903 108.693 111.168 111.76 112.255 111.468 112.92 112.57 109.103 107.498 106.91 107.035 110.385 108.41 108.172 109.517 110.335 110.102 108.902 108.092 108.117 108.037 108.202 107.94 108.415 107.902 107.83 107.857 107.857 107.862 107.895 107.96 107.995 108.137 108.045 109.382 113.227 113.625 120.44 121.577 121.475 121.53 121.57 120.677 115.055 109.51 109.362 109.42 109.972 109.312 109.455 109.235 108.977 108.87 108.875 108.89 108.872 108.847 108.687 111.757 111.835 111.21 112.885 114.035 112.792 110.42 112.377 116.937 114.39 112.82 116.612 119.08 118.322 119.88 121.35 120.96 114.592 111.77 108.13 111.675 111.912 111.212 107.57 106.967 110.025 110.4 114.03 111.75 112.962 111.875 107.95 109.092 108.135 109.88 114.327 113.365 109.957 107.392 107.425 107.487 107.467 107.202 109.067 112.465 108.02 111.8 113.262 112.945 110.48 106.897 106.917 107.067 107.022 106.862 106.692 108.192 112.425 113.342 113.537 114.132 115.74 115.82 115.517 115.21 114.892 114.567 114.237 113.932 113.605 113.305 111.635 107.242 106.71 106.772 106.802 108.562 107.14 111.115 108.072 110.837 114.165 113.982 113.765 115.277 110.692 116.392 113.197 107.987 107.945 107.957 108.017 108.067
109.433 111.056 113.436 116.103 116.531 116.586 116.571 116.808 116.668 116.233 114.491 104.213 105.628 105.526 105.523 105.908 105.931 108.073 107.803 109.333 108.281 105.678 105.561 105.558 105.496 105.496 105.971 106.091 107.631 107.296 109.001 110.098 110.868 109.901 110.883 110.416 110.443 110.593 110.436 108.811 108.281 105.858 106.026 108.248 106.583 109.146 109.683 107.186 107.378 108.048 107.566 105.258 105.701 106.761 105.983 105.698 106.403 106.433 108.481 117.918 109.886 108.248 107.721 115.523 115.381 109.753 107.726 106.036 107.068 113.518 111.641 112.406 115.388 112.171 115.198 109.486 109.638 109.868 106.786 109.761 107.523 104.963 104.913 104.911 104.921 105.218 105.388 106.516 111.666 111.846 112.698 112.843 112.858 111.961 106.251 107.446 107.021 106.681 106.388 105.156 105.113 105.148 105.178 105.181 108.861 107.161 106.073 104.96 104.975 109.308 113.218 114.118 112.908 109.425 108.393 107.593 106.303 104.873 105.148 104.803 104.785 104.648 104.67 104.67 104.805 105.155 104.618 104.615 104.565 104.525 104.52 104.515 104.51 104.525 106.673 107.393 111.32 109.483 111.233 106.458 107.255 105.938 104.86 106.06 107.82 105.98 104.215 104.198 104.19 104.128 104.15 104.123 104.108 104.138 104.06 110.415 113.913 114.503 112.663 108.068 106.843 107.6 107.75 108.013 108.063 108.13 107.965 107.798 107.82 106.093 104.213 103.978 104.06 103.558 104.115 104.433 103.458 103.328 103.453 103.485 103.42 107.24 108.093 109.438 110.705 110.115 110.858 106.86 104.008 105.615 109.98 111.438 112.755 113.7 113.56 112.628 110.585 106.81 106.725 105.598 106.71 105.563 106.123 105.47 105.25 104.423 104.443 104.565 104.498 104.508 104.505 104.523 104.553 104.62 104.705 105.17 105.408 109.3 109.235 111.155 116.45 114.425 109.33 105.858 105.848 105.838 105.865 105.828 105.848 105.838 105.848 105.87 105.843 105.848 105.888 105.865 105.875 105.86 105.845 106.313 106.078 106.205 106.413 108.59 112.233 109.835 108.71 111.418 111.525 108.325 107.225 107.123 107.145 107.158 107.238 107.425 107.675 108.597 109.727 109.942 109.555 108.415 107.682 107.917 108.757 108.227 108.295 108.137 108.487 108.257 107.88 107.882 107.907 107.965 108.01 108.002 108.02 107.982 109.755 114.517 118.372 121.122 121.595 120.65 121.062 121.952 121.787 118.577 110.692 109.357 109.417 109.552 109.455 109.24 109.1 108.985 109.03 109.022 108.972 109.22 109.5 108.775 110.077 111.772 113.13 111.457 117.425 116.81 112.882 113.625 113.932 111.452 110.502 120.687 121.81 120.78 121.002 121.605 121.317 114.33 109.03 112.57 114.442 110.895 113.192 110.377 109.315 108.917 108.265 110.022 110.702 107.922 109.55 108.667 113.227 113.165 109.387 113.612 111.077 110.555 111.972 109.015 107.47 107.58 108.132 114.33 114.332 114.54 111.07 115.312 109.515 106.895 106.995 107.267 107.27 106.967 106.767 108.89 111.722 112.87 113.582 114.02 115.71 115.79 115.467 115.142 114.817 114.505 114.182 113.872 113.56 113.242 112.93 112.62 109.93 107.015 106.742 106.762 106.785 106.84 108.882 111.22 112.19 112.877 116.042 116.082 113.7 113.997 117.345 116.375 111.48 107.915 108.185 109.07 108.027
109.978 114.403 114.858 116.333 116.621 115.666 116.648 116.623 116.556 116.243 112.656 106.303 105.953 105.508 105.501 105.526 105.523 107.896 108.273 108.998 105.693 105.633 105.666 105.646 105.561 105.648 107.006 106.536 105.738 105.833 105.608 105.598 111.966 113.221 112.968 112.718 111.961 111.746 111.748 111.956 111.523 112.433 109.741 109.541 109.858 119.198 115.111 107.751 109.518 109.621 110.103 107.948 105.838 105.476 105.551 105.606 105.781 105.808 106.213 113.388 111.476 113.158 111.881 116.298 117.056 117.096 109.431 107.931 106.183 109.663 114.098 112.666 114.016 110.263 112.048 109.168 107.933 109.776 109.131 107.848 107.633 105.031 104.961 104.983 104.991 105.208 105.408 105.411 111.641 111.803 113.518 115.028 114.016 112.128 106.993 106.646 106.613 105.376 105.543 105.368 105.093 105.161 105.198 105.173 106.288 105.198 106.111 105.608 105.308 109.48 112.623 114.118 112.448 111.053 110.285 107.47 105.265 104.885 105.018 104.87 104.688 105.355 105.828 106.535 105.378 104.908 104.653 104.65 104.588 104.568 104.538 104.543 104.568 104.56 108.92 108.113 111.208 108.665 110.123 107.573 106.428 104.668 105.428 106.863 106.87 106.023 104.903 104.213 106.073 104.355 104.153 104.55 104.13 104.08 104.08 107.02 112.318 112.85 111.18 106.185 106.578 106.445 105.568 107.298 107.813 107.845 107.995 108.088 108.12 107.685 106.128 104.34 103.953 104.523 105.455 103.73 103.435 103.438 103.523 103.49 103.403 107.388 107.568 111.623 106.478 106.19 105.503 103.978 106.29 105.138 104.443 106.58 113.325 113.005 112.243 112.23 109.01 106.693 106.743 104.273 104.178 105.238 105.008 105.163 105.635 105.913 105.045 104.828 104.568 104.59 104.598 105.795 104.588 104.633 105.33 105.198 108.4 108.325 111.053 112.46 111.703 108.685 105.855 105.855 105.875 105.87 105.853 105.86 105.858 105.848 105.85 105.848 105.883 105.875 105.858 105.868 105.878 105.87 105.875 106.055 106.225 106.28 110.005 107.94 113.2 110.87 109.393 115.475 112.36 108.97 108.273 107.378 107.31 107.403 107.38 107.513 107.825 108.06 108.072 107.972 108.152 107.782 107.772 107.702 107.927 108.837 108.225 108.105 108.947 108.785 108.345 108.02 108.075 108.077 107.997 108.005 108.017 107.895 113.445 120.62 121.145 123.352 121.01 120.945 121.74 121.467 120.717 114.527 110.842 109.425 109.522 109.727 109.737 109.22 109.12 109.147 109.16 109.082 109.03 109.28 109.085 109.057 110.975 109.637 109.905 111.832 115.762 121.095 121.875 119.282 113.975 108.852 108.9 119.895 121.712 122.007 122.102 122.022 121.562 118.47 108.405 112.85 116.095 108.83 111.36 109.957 108.902 112.532 113.89 111.122 109.012 107.637 107.562 111.79 112.907 113.572 112.81 111.74 111.39 110.69 108.6 111.312 108.32 108.362 112.645 110.735 109.587 113.79 115.11 116.577 113.562 107.125 107.48 107.54 107.432 107.28 110.547 113.227 113.405 113.62 114.277 115.777 115.707 115.402 115.09 114.772 114.445 114.14 113.802 113.495 113.19 112.88 112.557 112.07 110.25 107.205 106.78 106.77 106.747 106.74 108.825 110.022 115.055 113.445 116.077 115.27 111.125 113.59 112.045 113.655 110.765 108.85 108.795 114.925 115.432
111.498 116.021 116.518 116.558 116.581 113.966 116.436 116.513 116.688 116.073 114.298 112.776 105.853 105.483 105.451 105.493 105.518 105.571 105.551 106.051 105.658 105.691 105.743 105.731 105.666 106.398 108.463 108.673 106.878 105.766 105.706 105.923 112.523 114.116 114.296 114.356 114.266 113.756 112.108 110.433 111.561 111.276 112.156 107.518 109.003 113.273 111.423 110.311 109.253 110.486 110.266 110.293 107.701 105.843 107.318 107.756 107.036 106.211 106.521 109.708 112.736 115.671 107.821 105.558 112.118 112.763 109.361 109.511 105.551 105.511 107.553 109.388 112.368 108.791 110.526 111.121 107.013 105.761 105.446 105.251 105.266 105.226 105.208 105.168 105.113 105.271 105.501 105.666 111.243 111.506 113.291 115.066 114.118 112.818 109.278 105.526 105.896 105.651 105.901 105.496 105.161 105.196 105.236 105.213 105.191 105.158 106.136 105.933 105.648 108.495 112.413 113.495 112.845 112.545 110.515 107.38 104.918 104.85 104.875 104.92 104.675 104.87 106.52 107.963 105.498 104.673 104.663 104.65 104.62 104.603 104.558 104.57 104.585 104.723 108.84 109.403 108.885 109.37 105.41 106.843 104.263 104.223 104.273 105.18 106.318 105.618 105.975 106.603 106.6 104.86 104.273 105.745 104.14 104.103 104.07 104.045 104.93 108.148 109.903 109.005 105.943 104.738 104.678 104.57 105.645 107.5 107.773 107.805 107.855 107.613 105.155 103.773 103.708 104.445 104.705 103.505 103.463 103.5 103.57 103.52 103.343 103.4 104 105.648 103.808 104.31 104.758 106.69 110.255 107.975 104.9 104.54 104.633 110.658 110.915 110.118 106.855 106.79 104.93 103.75 104.465 104.608 104.678 104.748 105.155 105.673 106.175 105.05 105.1 106.9 107.438 105.105 107.393 104.813 105.243 105.623 109.22 108.843 109.92 110.703 109.973 107.743 105.873 105.89 105.85 105.86 105.845 105.88 105.858 105.89 105.86 105.85 105.875 105.833 105.848 105.873 105.885 105.865 105.87 110.058 108.835 108.483 107.59 108.43 112.343 113.57 112.428 113.71 111.783 109.895 108.43 107.94 108.043 107.753 107.733 107.87 107.638 107.575 107.565 107.562 107.832 108.107 107.617 107.555 107.622 107.822 107.91 107.767 108.467 107.775 108.182 108.747 108.36 108.465 108.332 108.032 107.99 110.412 117.062 121.49 121.79 120.962 121 121.677 121.61 119.462 113.232 109.967 109.967 109.552 109.707 109.91 109.437 109.807 109.297 109.305 109.255 109.155 109.087 109.072 109.447 109.597 108.917 108.91 108.952 110.93 110.922 123.422 124.37 121.635 117.292 110.005 108.952 115.5 121.542 121.517 120.86 120.905 121.79 119.415 108.675 108.267 115.995 110.125 109.727 109.575 111.04 114.375 115.715 115.61 116.335 111.317 107.765 112.917 111.075 112.45 117.855 112.407 109.855 115.147 117.287 111.185 108.38 112.68 114.097 113.372 115.15 118.127 114.275 115.477 112.372 107.607 107.69 107.722 108.042 111.462 113.255 113.435 113.702 114.932 115.932 115.66 115.332 115.032 114.71 114.39 114.072 113.77 113.45 113.135 112.822 112.472 111.652 110.747 107.46 106.812 106.797 106.755 106.725 106.725 108.235 113.942 116.25 116.757 109.835 107.977 107.31 107.502 111.705 109.962 112.655 110.895 111.022 116.982 115.332
112.461 115.131 116.061 116.466 116.561 113.606 115.901 116.476 116.511 115.858 114.961 112.233 105.511 105.468 105.458 105.463 105.513 105.591 106.028 105.941 105.733 105.786 105.841 105.778 105.741 106.663 108.236 108.343 106.946 105.798 105.751 107.936 112.823 113.341 112.818 113.033 113.283 113.336 111.246 106.026 105.928 105.718 106.396 106.313 107.423 109.448 109.973 110.416 112.946 110.756 109.323 110.366 110.138 109.973 109.291 108.408 108.231 109.958 108.331 112.386 110.553 110.538 112.743 111.243 108.643 111.936 108.821 108.941 109.903 106.333 106.186 108.996 111.093 106.278 109.506 106.943 105.281 105.281 105.256 105.251 105.238 105.266 105.281 105.283 105.261 105.343 105.491 105.556 108.631 110.138 113.481 115.021 114.216 112.876 108.591 105.656 105.476 105.621 105.498 105.701 105.173 105.181 105.226 105.261 105.186 105.171 105.723 105.535 105.253 107.708 111.433 112.748 112.128 110.963 108.873 106.7 104.975 104.87 104.9 105.823 104.928 104.705 104.743 105.425 105.728 105.465 105.813 107.245 104.633 104.915 104.603 105.68 105.345 106.055 107.403 108.36 109.098 109.913 106.36 104.265 104.32 104.295 104.25 104.225 104.848 105.058 105.628 107.165 106.298 106.153 107.303 106.13 105.633 105.153 104.84 105.563 105.008 107.96 111.305 111.908 110.6 108.593 105.87 104.2 104.568 105.018 105.358 107.003 107.868 105.818 104.173 103.688 103.623 104.633 104.02 103.5 103.508 103.588 103.583 103.398 103.365 103.67 103.813 103.583 103.808 104.44 105.563 109.948 111.568 111.563 111.808 110.67 106.903 103.79 106.463 106.698 106.178 105.473 103.618 104.223 104.59 104.635 104.695 104.755 104.815 104.873 105.08 106.403 106.83 109.928 110.295 108.788 112.88 111.67 106.823 106.508 111.9 111.788 107.943 109.318 105.88 105.895 105.885 105.885 105.875 105.89 105.858 105.883 105.853 105.9 105.868 105.855 105.833 105.85 105.875 105.855 105.85 105.855 106.048 110.028 109.208 110.57 109.39 111.573 113.2 117.015 113.353 111.885 111.87 111.625 108.335 109.635 110.21 115.233 114.035 110.81 108.385 107.442 107.41 107.402 107.527 108.06 107.942 107.552 107.567 107.642 107.675 107.68 107.797 107.682 107.655 108.395 109.337 108.685 108.672 108.582 109.89 117.482 120.172 121.692 120.985 120.725 121.61 122.357 120.195 112.287 109.005 109.527 109.63 109.59 109.59 109.46 110.26 109.782 109.405 110.592 111.532 109.62 109.56 109.252 109.525 109.01 108.975 110.227 110.71 110.1 110.932 118.18 123.33 120.46 117.15 109.827 109.602 116.34 121.17 121.255 119.842 119.382 119.072 116.382 111.275 111.545 115.515 113.332 111.495 113.825 113.86 115.465 115.66 118.837 120.417 120.005 113.022 108.945 109.952 110.122 113.245 108.932 113.835 116.187 114.362 112.532 108.762 115.175 115.775 117.81 116.602 113.707 110.527 111.467 111.56 109.022 107.755 107.752 108.292 112.917 113.312 113.705 115.265 115.907 115.625 115.292 114.977 114.645 114.327 114.022 113.72 113.402 113.082 112.77 112.462 111.767 110.58 106.81 106.757 106.732 107.082 107.955 106.857 109.772 113.92 116.15 116.332 116.417 114.97 109.545 108.99 111.007 113.097 110.535 111.945 110.612 110.732 112.88 112.675
109.953 111.413 115.376 116.486 116.446 115.451 116.546 116.523 116.201 115.721 114.781 110.276 105.513 105.473 105.498 105.501 105.636 105.833 106.731 105.813 105.831 105.883 105.893 105.868 105.853 106.851 108.703 108.536 107.168 106.563 106.138 110.996 113.173 113.986 113.731 113.118 112.721 112.088 108.618 106.018 106.121 106.121 105.786 105.786 105.823 109.886 109.048 110.276 109.673 110.798 109.948 110.058 110.806 111.176 108.271 110.898 111.311 113.336 113.873 115.406 109.838 106.628 114.598 112.901 111.893 105.776 107.823 112.233 109.466 113.116 108.043 111.978 108.238 105.663 106.901 105.311 105.291 105.306 105.313 105.318 105.286 105.291 105.278 105.288 105.286 105.293 105.616 105.378 105.503 109.368 113.561 114.966 114.376 112.843 107.403 105.548 105.641 105.438 105.516 105.638 105.283 105.571 105.276 105.281 105.203 105.166 105.273 105.213 105.085 104.958 108.708 112.078 112.133 109.615 105.173 104.98 105.013 104.98 105.005 106.315 105.928 105.008 104.943 104.755 104.8 107.863 107.183 107.813 109.18 108.235 105.62 107.133 106.633 106.14 106.728 107.855 107.195 105.463 104.34 104.343 104.363 104.323 104.28 104.25 104.445 104.34 104.695 104.863 106.633 108.703 107.353 105.623 109.683 113.933 113.923 105.743 107.72 110.148 112.003 113.09 112.723 112.14 111.875 107.178 106.575 107.64 106.69 106.443 106.923 105.595 104.578 103.963 103.643 103.713 103.57 103.48 103.56 103.593 103.463 103.365 103.513 103.58 103.583 104.253 104.018 103.718 108.838 110.46 111.54 112.293 112.888 113.24 112 107.558 106.753 105.113 105.168 105.78 105.743 106.25 104.653 104.695 104.758 104.82 104.878 104.945 104.985 107.353 107.51 107.245 109.49 108.46 113.478 114.005 105.968 109.068 111.625 110.25 108.56 106.955 105.86 105.898 105.89 105.88 105.893 105.88 105.885 105.888 105.898 105.913 105.885 105.88 105.875 105.885 105.86 105.883 105.89 106.255 106.34 110.853 107.355 110.585 110.125 114.573 113.058 110.423 111.703 113.77 110.885 111.665 112.985 110.473 109.358 115.313 114.97 113.493 109.898 107.665 107.392 107.27 108.05 108.482 108.427 108.065 107.735 107.787 107.587 107.35 107.362 107.447 107.532 107.577 108.302 109.287 109.015 109.18 111.65 119.757 121.7 121.815 120.997 121.432 121.765 120.3 112.79 110.06 109.555 109.6 109.787 110.03 109.527 109.462 109.477 109.525 109.5 111.577 116.65 113.01 111.602 110.01 109.47 109.215 110.26 117.387 119.315 117.467 117.782 112.737 118.837 116.147 113.172 111.865 110.995 111.467 116.805 113.452 114.352 113.915 113.237 111.417 108.645 112.595 114.21 113.152 114.72 114.672 115.192 115.417 116.892 120.25 121.282 120.255 118.437 115.722 109.807 107.845 112.505 110.48 112.47 114.347 111.995 107.445 107.567 109.922 113.382 114.555 113.937 114.84 110.88 116.207 115.145 110.212 107.78 107.78 107.815 110.602 112.777 113.217 115.757 115.56 115.25 114.945 114.607 114.282 113.947 113.647 113.347 113.03 112.725 112.402 111.17 108.56 109.152 108.562 106.705 106.74 108.517 108.865 110.152 115.322 116.287 116.35 116.415 116.485 116.567 115.262 109.487 107.637 112.392 110.11 109.227 111.46 115.43 110.925 112.27
108.738 111.108 115.723 116.488 116.476 116.588 116.696 116.576 116.513 115.206 112.746 109.101 105.563 105.518 105.523 105.546 105.556 106.478 107.368 105.928 105.953 106.006 106.001 105.978 105.963 107.091 108.381 108.543 106.843 106.631 106.463 110.163 112.976 113.941 115.066 114.708 113.548 112.041 106.021 105.998 106.428 106.126 105.666 105.838 105.833 105.693 106.028 107.088 113.471 110.226 112.356 116.413 107.416 109.118 106.336 112.331 112.688 114.511 116.751 114.803 108.566 109.011 109.623 109.026 115.426 106.503 108.888 113.503 109.008 111.151 112.076 111.543 109.126 105.328 105.293 105.318 105.301 105.291 105.283 105.261 105.288 105.283 105.281 105.276 105.968 105.328 105.651 105.358 106.158 109.438 113.236 114.783 114.428 112.636 106.398 105.561 105.556 105.626 106.111 105.833 105.271 105.723 105.323 105.301 105.223 105.176 105.288 105.253 105.108 105.088 107.823 111.528 111.505 108.178 105.23 104.98 105.268 105.483 105.413 107.623 105.973 105.54 105.84 105.415 105.703 107.405 108.093 106.863 106.82 105.55 105.338 105.33 105.405 106.328 105.248 105.645 106.663 106.623 104.385 104.37 104.358 104.31 104.303 104.288 104.25 104.143 104.113 104.235 105.598 107.115 105.7 106.035 107.573 114.355 113.925 106.358 108.858 111.173 112.743 113.935 113.755 112.958 112.77 111.193 110.913 108.953 108.233 107.303 106.148 106.25 104.68 104.178 103.653 103.64 103.498 103.533 103.605 103.568 103.435 103.448 103.575 104.25 106.733 104.505 104.263 105.333 110.435 111.06 110.838 112.16 113.513 113.085 111.47 108.435 107.073 106.873 106.585 107.57 108.18 105.295 104.958 104.748 104.805 104.853 104.918 104.983 105.038 105.078 105.615 107.533 109.938 108.788 108.085 110.09 109.898 111.948 110.69 112.013 107.393 107.583 105.94 105.903 105.895 105.938 105.9 105.878 105.915 105.898 105.9 105.903 105.888 105.903 105.863 105.86 105.88 106.835 107.853 111.175 107.835 106.633 110.043 107.843 110.208 112.228 110.595 108.745 114.623 116.185 109.735 111.07 113.583 110.475 108.405 110.395 113.005 113.835 114.225 109.002 107.522 107.685 108.07 109.517 109.682 107.69 107.752 107.787 108.487 107.337 107.347 107.347 107.435 107.45 107.6 108.012 109.292 109.487 110.947 116.717 121.162 121.132 121.882 122.24 120.917 115.442 108.172 110.09 110.88 109.987 110.18 109.727 109.587 109.615 109.597 109.595 109.647 113.267 115.505 115.152 111.952 109.487 109.98 112.117 117.507 123.37 122.457 121.085 118.29 117.147 111.617 114.397 111.695 114.9 113.457 114.897 114.367 109.745 108.79 109.682 108.992 109.32 110.637 112.13 116.295 112.41 112.665 114.762 115.617 116.65 119.792 121.227 121.55 120.7 119.815 120.507 118.752 110.355 110.727 109.56 110.73 112.677 110.547 112.285 107.555 108.08 109.002 109.405 111.37 112.932 113.88 108.737 108.827 108.037 107.825 107.812 107.797 108.36 111.89 112.122 113.405 115.195 114.877 114.55 114.24 113.905 113.592 113.277 112.982 112.68 112.295 110.68 108.43 106.832 107.97 108.65 107.14 106.742 107.527 111.387 115.64 116.297 116.352 116.422 116.502 116.58 116.66 116.72 114.15 108.507 110.987 113.13 110.712 113.287 112.775 108.367 109.637
109.701 112.006 115.453 116.031 116.278 116.446 116.631 116.603 116.538 115.548 110.523 106.291 105.558 105.503 105.546 105.611 105.721 107.798 107.743 106.031 106.031 106.086 106.093 106.058 106.088 107.556 108.141 106.191 106.036 106.051 106.376 106.366 111.691 114.058 115.843 114.951 113.896 112.258 106.843 106.023 105.993 105.651 105.968 105.773 105.556 106.156 111.661 111.248 110.748 111.438 109.371 109.466 108.771 105.638 105.616 106.823 107.616 107.683 112.673 109.373 107.586 110.936 116.261 112.011 112.271 109.816 119.641 114.531 115.973 113.168 112.181 111.788 107.243 107.768 105.723 105.306 105.301 105.296 105.276 105.263 108.306 112.498 116.586 106.566 110.343 107.998 105.766 105.383 109.803 111.293 113.668 115.351 114.498 112.916 109.763 105.516 105.568 105.981 106.753 105.791 105.253 105.256 105.331 105.321 105.221 105.218 105.823 106.005 106.295 106.345 109.035 109.718 109.173 109.078 109.035 107.103 105.233 105.805 105.43 105.278 104.903 104.908 105.993 106.415 107.805 106.793 107.938 105.893 105.315 106.968 105.443 105.73 108.065 109.293 110.108 107.965 106.293 104.31 104.358 104.678 104.34 104.318 104.328 104.293 104.258 104.228 104.198 104.138 104.123 104.183 104.235 104.648 104.79 106.408 106.758 105.445 109.468 111.488 112.293 112.998 113.64 113.775 113.36 112.668 111.885 109.998 107.858 106.29 104.33 104.74 106.503 106.808 104.88 103.573 103.505 103.623 103.633 103.538 103.398 103.538 103.71 103.943 104.753 104.888 104.21 106.308 110.933 111.98 111.95 113.18 113.54 112.548 109.483 107.285 106.96 106.778 106.09 106.358 107.855 106.353 104.925 104.8 104.838 104.89 104.96 104.988 105.06 105.105 105.143 105.283 107.63 109.625 110.318 109.825 111.508 109.458 110.473 109.94 108.798 106.068 105.91 105.923 105.933 105.885 105.888 105.91 105.913 105.883 105.92 105.91 105.888 105.903 105.878 105.885 105.873 108.788 110.658 112.77 111.588 107.898 109.588 112.438 111.778 112.603 111.08 115.598 111.925 110.685 109.15 112.78 115.035 111.645 111.58 109.003 109.41 112.043 113.11 107.757 107.727 108.277 107.937 109.567 110.135 107.975 107.672 107.627 107.525 107.37 107.412 107.355 107.305 107.517 107.775 107.86 108.287 109.18 110.417 113.395 113.935 118.267 120.902 121.727 117.887 108.792 109.467 109.837 110.287 110.782 109.787 109.657 109.727 109.74 109.68 109.63 110.095 112.85 112.43 110.35 110.427 110.755 115.825 118.502 121.205 122.432 123.505 121.997 119.452 118.307 115.895 111.43 112.527 113.787 110.735 115.6 115.547 109.315 108.705 108.572 108.612 108.66 116.612 115.265 118.512 116.98 114.815 113.382 114.395 118.422 121.22 121.652 121.682 121.68 121.027 121.26 120.215 117.12 111.697 108.277 108.835 107.742 107.712 107.695 107.652 107.66 108.48 108.982 107.95 109.33 108.167 108.035 108.145 108.135 108.027 107.842 107.842 109.802 112.062 111.76 111.485 113.032 114.49 114.157 113.86 113.542 113.242 112.915 112.6 112.215 111.297 107.365 106.79 106.837 106.815 106.94 106.787 107.562 112.352 115.772 116.31 116.382 116.44 116.51 116.59 116.662 116.722 116.772 116.867 112.61 108.64 110.385 112.302 114.6 109.305 111.587 113.842
105.731 111.503 113.221 113.511 113.876 114.623 115.271 115.526 115.493 114.361 109.918 105.641 105.496 105.483 105.536 105.648 106.023 106.453 107.648 106.146 106.158 106.166 106.181 106.141 106.238 107.968 108.351 106.566 106.036 105.946 105.958 107.086 112.533 114.816 115.901 114.796 113.516 111.411 106.726 106.046 106.058 105.658 105.641 105.743 106.131 106.938 116.148 113.643 114.783 115.491 106.941 108.888 111.138 105.768 105.761 105.766 105.741 106.676 106.253 105.663 109.241 111.671 114.591 111.521 114.003 109.593 110.331 113.716 121.363 113.041 113.943 116.243 107.698 109.388 105.918 105.463 105.331 105.308 105.656 109.238 113.838 117.531 115.983 110.811 112.921 115.161 108.606 105.838 109.273 114.206 116.298 116.223 114.261 112.971 111.973 105.823 105.856 105.988 105.386 105.693 105.261 105.301 105.338 105.351 105.263 105.243 105.788 105.558 105.758 105.643 110.3 111.438 111.555 111.728 111.078 108.058 107.635 106.823 105.303 105.358 105.655 105.358 105.533 105.463 105.328 105.12 106.275 105.28 105.253 105.77 105.365 105.058 109.133 109.415 111.595 111.19 106.263 104.31 104.31 104.335 104.393 104.343 104.335 104.283 104.25 104.243 104.23 104.19 104.14 104.148 104.183 103.345 102.838 102.685 104.915 105.578 105.253 106.888 109.148 111.548 112.205 112.918 113.528 113.718 112.433 108.49 106.413 104.603 104.258 104.705 103.918 105.258 104.858 103.57 103.575 103.69 103.638 103.518 103.508 105.738 107.53 105.28 104.183 104.195 104.39 105.118 106.483 110.903 112.498 113.778 112.875 111.77 108.21 104.598 104.878 107.038 106.67 106.168 107.043 107.193 105.838 105.163 105.143 104.94 104.975 105.015 105.068 105.12 105.183 105.26 105.92 106.45 113.11 110.825 109.285 108.713 109.578 110.143 110.675 107.633 106.068 105.893 105.875 105.913 105.91 105.898 105.935 105.895 105.9 105.918 105.92 105.945 105.903 105.89 105.913 107.605 111.068 113.03 112.083 111.018 108.645 109.883 108.013 111.66 113.33 116.07 111.813 109.073 110.688 112.565 112.698 109.515 110.333 108.223 108.163 108.495 107.975 107.98 108.14 107.95 107.65 107.647 107.68 107.845 107.745 107.107 104.022 107.267 107.412 107.347 107.377 107.765 107.812 107.837 107.875 109.102 109.547 111.005 113.262 111.597 116.632 117.09 114.18 110.285 109.792 110.045 110.705 109.965 109.737 109.787 109.84 109.932 110.352 109.697 110.137 110.94 111.347 110.127 110.027 113.747 121.88 122.28 121.992 122.737 123.642 123.365 121.802 119.217 113.23 111.112 113.722 110.675 110.015 111.025 110.942 108.752 108.645 108.617 108.595 109.172 115.605 116.25 115.86 121.062 117.017 109.085 109.442 115.5 120.89 121.632 121.632 121.68 121.687 121.05 119.312 116.532 115.985 110.422 107.755 107.782 107.762 107.807 108.292 108.077 110.915 114.125 109.545 108.027 108.037 108.01 108.16 108.26 108.197 108.065 108.03 107.977 108.415 111.422 111.235 110.677 113.567 113.797 113.485 113.17 112.872 112.552 112.097 111.78 107.52 106.767 106.787 106.835 106.807 106.817 107.517 112.585 116.242 116.307 116.385 116.465 116.512 116.605 116.667 116.735 116.8 116.842 116.89 116.852 111.7 108.577 108.39 108 109.47 111.312 111.022
106.098 111.196 112.386 112.433 112.438 112.073 109.748 110.188 109.498 108.518 106.111 105.521 105.458 105.473 105.583 105.748 105.966 106.576 107.083 106.221 106.271 106.253 106.258 106.211 106.338 107.583 108.131 107.458 106.071 105.971 107.403 111.183 112.613 114.551 115.913 114.638 112.511 109.833 106.113 105.993 105.953 105.646 106.201 105.806 106.906 105.696 119.088 112.918 114.348 114.071 114.011 111.761 106.316 105.768 105.786 105.806 105.831 105.791 105.721 105.713 106.446 107.523 110.556 109.971 110.651 116.238 110.781 109.353 113.813 117.843 111.841 115.761 108.961 108.066 106.178 107.558 106.438 105.988 110.098 110.553 109.216 112.948 112.563 117.256 112.948 111.256 111.468 106.178 107.706 112.558 114.583 117.618 114.633 112.711 108.226 105.553 105.766 106.691 105.528 106.316 105.343 105.298 105.378 105.378 105.286 105.253 105.333 105.603 106.04 105.303 109.315 112.618 113.35 113.198 111.543 110.333 110.225 108.34 105.428 106.023 107.47 107.448 107.453 107.295 105.83 105.103 104.878 105.033 104.898 104.963 104.908 106.583 105.613 107.363 112.31 108.885 104.695 104.918 104.38 104.57 104.388 104.343 104.313 104.265 104.243 104.215 104.19 104.185 104.175 104.19 104.343 103.703 102.25 102.57 103.315 103.458 104.28 105.783 104.998 107.058 110.045 111.728 112.823 112.79 109.573 105.753 104.855 104.008 103.888 103.795 103.825 103.72 103.63 103.575 103.658 103.728 103.655 103.545 104.145 107.975 109.585 108.975 107.125 104.943 104.455 104.555 105.485 107.11 111.673 113.058 112.688 109.21 107.338 104.53 103.893 104.625 105.933 106.188 106.003 105.473 105.673 105.315 105.62 106.165 105.183 105.068 105.11 105.165 105.203 105.245 105.28 105.32 106.228 108.068 109.295 107.088 106.638 106.928 108.893 109.49 107.588 106.675 106.028 105.883 105.843 105.9 105.918 105.915 105.91 105.903 105.915 105.908 105.933 105.933 105.945 106.27 107.453 111.62 111.025 111.773 109.985 107.77 108.573 108.808 111.268 114.17 109.205 108.635 111.91 113.125 110.33 108.665 108.473 108.693 108.22 108.123 108.1 108.175 108.535 108.497 108.067 107.772 107.775 107.99 107.872 105.652 103.752 104.822 106.19 107.285 107.637 107.81 107.787 107.822 107.985 108.035 108.69 109.665 110.187 109.935 110.037 111.155 110.237 110.347 110.142 110.94 110.327 109.865 109.857 109.897 109.865 110.317 110.087 109.982 110.115 110.22 110.127 110.04 110.035 116.697 122.627 123.382 123.04 123.215 123.427 123.172 123.03 116.437 109.5 113.012 112.002 115.247 109.512 109.25 108.895 108.775 108.72 108.69 108.632 109.47 113.537 116.275 117.312 117.687 114.865 112.11 110.96 108.47 111.337 119.655 121.587 121.685 121.305 119.575 118.13 117.337 116.62 115.225 110.647 107.992 107.825 108.065 109.895 108.732 112.177 115.76 111.125 108.03 108.107 108.14 108.137 108.212 108.305 108.292 108.187 108.175 108.147 109.015 109.205 110.345 111.225 113.45 113.12 112.792 112.455 112.057 111.497 110.62 109.812 107.035 106.752 106.782 106.77 107.67 113.55 116.107 116.345 116.392 116.445 116.545 116.612 116.677 116.735 116.812 116.877 116.872 116.792 116.75 116.32 110.802 108.547 108.36 108.007 109.222 111.41
105.616 107.941 108.566 109.903 111.253 111.083 109.333 109.438 108.356 105.531 105.526 105.498 105.478 105.491 105.628 105.778 108.346 108.776 108.853 106.286 106.766 106.368 106.348 106.346 106.811 107.191 106.798 106.251 106.248 106.251 108.388 112.573 113.573 114.731 115.618 114.236 111.901 108.536 106.048 106.143 106.256 105.621 106.111 105.686 105.911 105.953 111.756 112.323 118.198 111.233 115.301 109.231 106.891 105.806 105.826 105.813 105.806 105.828 105.771 105.746 105.756 105.728 115.518 106.248 111.348 115.371 120.046 107.326 109.703 113.073 114.846 112.991 112.163 108.271 109.773 110.026 108.516 111.231 113.241 110.053 109.158 114.218 114.398 118.083 114.208 110.653 113.311 107.273 109.966 111.156 111.961 112.936 110.603 113.568 106.601 108.468 110.516 108.471 106.541 109.768 106.536 105.316 105.393 105.386 105.338 105.278 105.468 105.928 105.878 105.85 110.068 113.415 113.88 113.503 111.785 110.783 110.26 108.015 105.385 105.788 107.798 107.778 107.75 107.745 106.743 105.183 104.915 104.91 105.025 104.88 104.968 106.59 105.698 107.823 108.19 107.043 105.593 104.915 105.133 105.07 104.318 104.193 104.238 104.215 104.223 104.19 104.188 104.165 104.168 104.165 104.205 102.628 101.78 103.97 103.478 104.01 103.55 103.878 106.215 108.508 106.253 106.518 108.763 111.613 107.15 104.343 104.043 104.033 103.91 103.795 103.77 103.745 103.618 103.65 103.73 103.715 103.625 103.645 105.158 107.718 108.99 109.635 109.778 109.6 106.663 105.323 104.753 104.83 104.74 107.428 110.705 107.013 105.4 103.83 103.915 103.938 104.6 104.92 105.108 105.06 105.083 105.168 105.168 105.603 106.003 105.323 105.25 105.198 105.27 107.4 107.56 110.058 106.875 109.278 108.645 106.868 108.553 107.653 106.893 106.855 109.308 111.035 107.833 106.555 106.035 105.9 105.94 105.928 105.925 105.9 105.903 105.948 105.96 105.9 106.113 106.69 107.703 108.465 109.75 111.67 113.76 109.273 108.403 108.538 108.555 108.108 107.96 109.465 110.478 109.513 115.218 115.148 109.74 108.75 108.13 108.15 108.203 108.405 108.632 108.55 108.562 108.315 108.09 107.887 107.752 106.367 103.952 104.32 104.507 106.62 107.815 107.807 107.845 107.917 108.035 108.027 108.082 108.552 110.162 112.655 111.7 110.52 110.07 110.14 110.4 109.975 110.602 110.645 109.98 109.942 109.88 109.842 110.457 111.34 110.42 110.255 110.15 110.052 111.835 117.935 122.102 122.947 123.612 123.16 122.36 122.125 120.795 116.627 108.72 112.745 109.59 112.102 111.335 110.645 108.962 108.875 108.822 108.77 108.722 109.875 111.727 114.667 116.535 117.55 116.042 110.467 110.477 108.667 108.955 111.275 117.187 121.31 121.02 121.257 119.677 118.512 117.657 114.325 113.592 111.397 109.312 110.48 111.38 110.737 111.07 110.39 109.33 108.625 108.242 108.232 108.232 108.252 108.317 108.432 108.355 108.28 108.317 108.387 108.447 109.005 110.465 110.96 112.755 112.427 111.935 111.362 110.482 110.39 110.412 110.175 107.517 106.737 108.952 113.86 116.277 116.347 116.405 116.475 116.545 116.612 116.687 116.752 116.81 116.932 116.872 116.795 116.73 116.65 116.595 115.96 109.565 108.535 108.537 109.772 108.085
107.013 107.438 107.938 107.531 106.083 106.323 105.908 106.548 107.218 106.003 105.918 106.318 106.281 106.676 108.198 107.873 112.486 115.216 108.641 107.288 106.691 106.438 106.413 106.426 107.196 108.946 108.163 107.583 107.833 108.133 109.663 112.673 113.506 113.728 113.996 113.703 111.328 108.093 106.056 106.561 108.048 106.506 105.951 105.728 105.936 106.931 109.558 112.086 115.836 108.723 113.053 111.416 108.611 105.848 105.843 105.823 105.846 105.816 105.811 105.788 105.786 105.756 108.258 105.771 109.161 113.543 115.433 111.501 108.321 113.786 112.071 116.086 114.661 109.478 118.108 116.176 107.843 114.076 121.611 114.916 116.811 117.398 110.308 121.183 115.128 111.853 110.081 107.458 111.501 113.691 115.436 112.026 111.321 110.651 105.853 107.768 109.041 106.428 106.481 109.171 105.678 105.326 105.428 105.408 105.368 105.308 105.516 105.833 105.595 108.043 111.765 112.8 113.718 113.375 112.7 111.83 110.278 109.3 105.32 105.67 107.36 107.53 107.498 107.465 106.6 105.255 105.038 104.843 109.198 106.283 105.628 105.913 105.5 105.228 105.208 106.883 106.005 106.3 105.405 105.443 104.768 104.593 104.235 104.273 104.17 104.185 104.195 104.18 104.185 104.16 103.638 101.118 102.875 104.138 103.773 104.555 103.59 105.275 110.83 113.043 113.593 111.148 106.73 105.13 105.703 104.63 104.045 103.958 103.873 103.82 103.93 103.87 104.388 103.935 103.74 104.433 105.22 106.543 104.433 105.328 107.833 108.683 109.683 109.993 109.99 109.513 106.02 105.19 104.945 105.028 105.65 105.898 104.115 104.138 103.898 104.248 104.848 104.92 105.03 105.085 105.155 105.435 105.615 105.42 105.473 105.845 106.175 105.685 105.608 107.378 108.278 113.643 111.453 108.948 107.88 106.823 107.268 107.083 107.118 107.213 107.42 109.235 109.708 110.135 108.02 106.738 106.103 105.953 105.998 105.973 105.953 105.95 105.96 105.965 106.403 106.935 108.315 109.918 109.728 111.165 111.32 110.288 109.005 108.275 108.138 110.108 110.42 115.378 114.738 110.69 113.33 113.498 109.09 108.75 108.223 108.223 108.333 108.49 108.812 108.82 108.575 108.512 108.447 108.217 107.812 107.755 105.837 104.267 104.3 106.62 107.74 107.8 107.917 108.01 108.002 108.035 108.112 108.202 108.855 116.972 112.177 110.752 110.542 111.292 110.605 109.995 111.157 110.275 110.012 109.952 109.905 110.145 111.255 110.71 110.445 110.19 110.107 110.005 112.23 118.285 118.797 121.93 123.167 122.8 121.545 118.155 114.555 112.077 108.262 108.945 109.657 111.68 113.835 112.76 109.432 108.945 108.897 108.842 108.8 108.78 111.997 113.005 112.605 113.08 110.897 109.355 108.697 108.847 109.022 108.83 111.74 114.352 117.882 120.68 121.41 120.23 117.715 114.175 113.785 110.842 111.072 110.792 109.34 109.642 109.165 108.985 108.81 108.257 108.442 108.227 109.227 108.497 108.705 108.672 108.52 108.522 108.45 108.52 108.585 108.587 109.037 110.487 111.215 111.89 111.242 110.457 110.437 110.412 110.417 110.395 109.242 110.282 114.312 116.29 116.35 116.422 116.492 116.567 116.645 116.692 116.745 116.832 116.875 116.837 116.79 116.722 116.65 116.567 116.512 116.447 114.827 108.882 108.537 110.682 113.077
109.598 109.643 112.728 112.886 111.986 112.671 111.341 110.801 109.766 107.773 107.801 107.968 107.948 109.866 107.843 111.161 114.478 116.011 110.963 110.201 106.521 106.516 106.501 106.506 107.678 109.068 109.876 110.608 111.258 109.906 109.021 109.681 109.501 110.498 111.943 112.473 110.493 109.476 108.726 109.956 109.536 108.016 106.668 106.046 106.108 107.666 107.216 106.976 110.168 107.188 107.246 107.168 105.856 105.871 105.888 105.856 105.841 105.851 105.851 105.833 105.798 105.778 108.991 105.738 113.256 115.408 115.563 112.378 109.551 111.038 110.026 112.936 112.736 109.151 119.493 116.461 109.236 109.668 117.171 110.948 112.933 117.193 118.168 113.303 111.071 113.743 110.291 108.611 110.526 113.166 113.058 112.798 112.943 112.161 105.553 105.511 105.493 105.486 105.486 105.461 105.381 105.303 105.443 105.448 105.381 105.323 105.428 105.618 105.248 107.29 111.838 113.618 114.298 114.17 113.108 111.225 110.263 109.543 107.493 107.325 107.265 107.215 107.133 105.743 105.233 104.913 104.81 104.885 111.295 108.35 109.043 107.583 106.488 105.108 105.125 106.475 105.435 105.028 105.898 106.435 106.55 106.243 104.808 105.823 104.955 104.223 104.158 104.165 104.21 104.185 102.368 100.318 103.245 104.14 106.245 111.398 108.118 108.71 112.525 113.843 114.205 113.87 113.418 108.635 105.573 104.238 104.643 104.68 103.958 103.91 103.88 104.153 104.855 103.89 103.78 104.575 109.488 110.01 107.748 104.85 104.725 105.37 108.35 108.815 109.898 110.688 110.945 108.88 105.483 105.04 105.083 105.285 104.86 104.173 104.235 104.78 104.978 104.96 105.028 105.108 105.198 105.868 106.025 105.87 105.36 105.583 105.94 107.878 109.793 110.39 112.74 110.598 112.64 108.445 107.275 106.863 106.973 107.083 107.2 107.288 107.518 107.56 107.603 108.59 109.813 109.14 107.125 106.575 106.215 106.128 106.018 105.97 105.983 106.23 106.828 107.003 110.453 111.085 109.465 108.305 110.243 110.62 107.948 107.973 109.94 113.215 111.57 112.73 118.748 114.713 115.555 113.035 110.173 109.813 108.33 108.353 108.435 108.49 108.69 108.74 108.45 108.605 108.612 108.487 108.622 108.03 107.952 107.237 104.822 106.922 107.99 107.84 108.042 107.565 108.637 109.04 108.097 108.495 109.027 113.15 112.64 112.32 114.652 115.007 110.37 109.982 110.127 111.727 110.237 109.962 110.047 111.18 111.802 111.44 110.737 110.415 110.04 110.415 112.697 117.58 118.3 120.012 123.255 122.115 113.72 113.715 108.915 108.197 108.675 109.152 109.625 113.965 117.032 117.68 112.602 109.035 108.942 108.89 108.86 109.4 112.207 114.125 114.522 111.502 110.812 109.412 109.985 109.31 108.932 108.932 108.837 108.752 110.39 114.077 119.822 121.29 111.39 108.935 110.16 112.02 113.722 112.877 110.082 109.565 108.722 108.887 109.275 109.002 109.09 113.045 114.257 112.482 108.595 109.38 108.702 108.632 108.635 108.62 108.727 108.757 108.595 109.767 110.442 110.772 110.427 110.382 110.45 110.45 110.412 110.422 112.167 115.535 116.307 116.38 116.432 116.505 116.582 116.632 116.71 116.77 116.852 116.872 116.84 116.767 116.692 116.632 116.555 116.485 116.422 116.362 116.3 113.837 108.577 108.867 110.962
110.391 111.266 114.658 115.748 115.741 115.736 115.621 115.118 114.456 109.108 106.936 107.568 108.531 107.706 108.621 107.498 110.473 112.463 113.603 112.293 106.628 106.628 106.563 106.551 106.603 107.458 108.056 110.328 111.758 108.808 107.126 109.253 110.853 108.476 108.921 110.153 109.578 111.701 111.308 111.553 111.598 111.563 111.108 110.263 110.423 109.223 108.893 107.451 112.188 105.951 105.901 105.911 105.893 105.888 105.861 105.876 105.878 105.886 105.858 105.836 105.816 105.806 105.783 107.141 111.693 117.041 118.931 115.658 110.531 110.631 109.886 107.753 106.151 105.771 108.148 109.376 105.733 105.741 106.656 105.821 105.661 109.993 108.898 109.898 108.953 112.786 108.811 108.793 110.063 112.691 113.268 113.406 112.981 112.231 106.676 105.548 105.528 105.518 105.551 105.553 105.418 105.346 105.438 105.433 105.418 105.391 105.456 105.5 105.218 106.255 112.165 113.94 114.485 114.3 113.663 111.253 110.258 109.598 107.855 107.413 107.205 107.143 106.675 105.193 104.94 105.013 104.788 104.84 106.223 110.363 112.47 107.633 105.065 104.643 104.585 104.573 104.53 104.623 106.518 105.96 105.59 106.373 107.298 106.303 106.03 104.565 104.255 104.135 104.19 104.193 104.113 103.148 103.88 104.69 110.848 112.248 113.21 112.583 112.878 114.335 113.965 114.478 113.67 111.993 107.533 104.248 104.848 105.238 104.363 103.883 103.755 103.763 103.87 103.83 103.76 103.688 109.893 112.305 109.698 106.823 104.09 104.15 105.175 105.613 108.49 109.985 110.805 111.718 109.663 107.883 105.983 105.273 105.323 105.97 105.623 106.053 105.125 105.74 105.083 105.163 105.218 105.46 105.828 105.545 105.34 105.38 105.5 106.568 107.695 110.588 112.018 112.99 112.838 111.423 110.183 106.96 107.073 107.183 107.295 107.453 107.568 107.588 107.635 107.638 107.858 109.005 110.463 109.208 107.333 106.673 106.39 106.2 106.268 106.72 107.055 107.74 109.23 113.183 113.698 112.393 109.223 110.758 109.548 108.085 108.76 113.22 110.27 116.04 118.648 116.585 114.63 108.94 108.56 111.405 108.508 108.628 108.433 108.4 108.46 108.7 108.672 108.51 108.555 108.582 108.637 109.99 108.78 110.402 110.937 107.115 107.892 107.995 108.06 108.27 108.222 108.285 108.23 109.075 109.92 111.1 111.602 112.415 114.125 113.725 111.122 110.142 110.957 115.615 114.19 110.652 110.752 117.145 117.152 116.205 113.462 110.24 110.287 110.027 111.88 112.497 116.492 115.4 116.235 111.47 108.257 108.742 109.592 109 109.227 109.75 109.897 111.285 112.622 116.662 112.662 109.135 109.01 108.957 108.917 108.965 114.255 114.617 115.935 114.422 112.96 113.165 112.697 111.475 108.895 108.862 108.87 108.785 108.722 109.497 114.14 118.542 108.61 108.51 108.77 113.177 111.715 112.815 108.72 108.705 108.762 108.897 108.852 108.987 111.18 114.567 116.595 114.2 108.542 108.595 108.572 108.612 108.727 108.72 108.785 108.855 108.822 108.61 109.817 110.365 109.98 110.427 110.422 110.417 110.407 112.145 115.882 116.32 116.385 116.452 116.507 116.585 116.65 116.705 116.777 116.845 116.87 116.825 116.76 116.7 116.612 116.545 116.54 116.41 116.352 116.297 114.485 109.392 108.65 108.657 108.585
110.863 111.948 114.993 116.526 117.071 116.948 116.903 116.161 114.651 113.536 106.908 106.898 107.056 107.241 107.021 107.036 109.268 113.843 110.216 112.913 106.736 106.726 106.608 106.618 106.663 106.683 106.661 106.626 107.103 106.581 106.578 109.791 112.901 111.871 111.166 110.571 110.111 112.111 111.181 111.741 111.683 110.041 111.558 111.021 111.943 111.826 112.933 111.443 116.541 110.596 107.641 109.968 105.951 105.893 105.903 105.896 105.873 105.878 105.848 105.861 105.848 105.836 105.833 105.846 110.956 116.651 112.026 109.843 108.103 108.371 106.063 105.843 105.803 105.826 105.816 105.773 105.748 105.736 105.703 105.683 105.688 105.693 108.053 108.286 106.836 106.566 107.926 108.168 109.816 111.778 112.401 113.361 112.351 111.666 110.151 106.933 105.598 105.543 106.558 106.378 105.436 105.631 105.508 105.506 105.453 105.381 105.468 105.688 105.335 106.713 111.795 113.868 114.798 114.365 113.6 111.395 110.26 109.615 105.195 105.2 105.418 105.048 105.108 105.323 105.16 105.14 105.058 105.008 105.385 108.403 109.693 108.213 104.833 104.6 104.638 104.613 104.578 104.518 104.485 105.278 105.098 105.003 106.66 106.053 106.29 105.985 105.318 104.273 104.23 104.2 104.208 104.378 104.255 105.69 112.62 113.445 113.863 113.635 113.73 112.858 114.133 114.105 112.833 110.813 106.715 104.135 104.018 104.023 104.443 103.885 103.683 103.728 103.845 103.805 103.73 103.743 106.39 110.42 109.92 104.455 104.108 104.323 104.69 104.41 104.638 106.783 108.09 110.495 111 111.223 107.825 105.89 105.448 105.468 106.16 106.328 105.748 106.25 106.05 105.203 105.26 105.273 105.295 105.338 105.37 105.388 105.4 108.4 109.31 110.345 111.38 110.843 111.47 112.41 109.275 107.063 107.16 107.225 107.34 107.565 107.59 107.603 107.64 107.653 107.675 107.715 109.608 111.263 111.703 109.11 107.793 106.925 106.738 107.143 107.27 107.275 108.87 110.718 113.188 111.655 110.18 109.003 109.61 108.91 108.195 113 113.133 116.548 115.44 117.308 111.088 109.49 113.715 112.958 109.33 108.745 108.595 108.392 108.395 108.442 108.615 108.915 108.695 108.415 109.602 111.942 112.337 118.657 121.24 113.717 108.987 108.35 108.117 108.4 108.2 108.142 108.325 110.057 111.305 110.83 111.177 112.747 113.087 110.125 110.172 110.222 110.532 116.61 117.172 115.062 117.782 123.02 124.697 121.342 117.872 112.435 110.53 110.255 110.04 110.587 110.64 109.327 110.015 108.927 108.052 108.13 109.032 109.547 109.885 109.987 109.997 109.957 114.225 118.025 116.977 110.76 109.09 109.022 108.965 108.94 110.852 114.33 115.177 115.532 116.192 112.46 113.34 111.147 108.907 108.897 108.975 108.812 108.722 108.7 109.977 114.06 108.577 108.53 108.467 112.33 115.157 113.765 108.812 108.982 109.03 108.975 108.915 108.995 110.097 112.585 112.072 110.392 108.545 108.65 108.695 108.677 108.747 108.872 108.9 108.912 108.945 108.852 108.707 108.8 108.452 110.292 110.405 110.537 112.69 115.977 116.327 116.395 116.465 116.54 116.605 116.672 116.712 116.78 116.85 116.885 116.835 116.737 116.69 116.612 116.535 116.455 116.42 116.33 116.27 113.625 109.095 108.63 108.705 108.76 108.75
110.533 112.323 115.586 116.856 116.988 116.901 117.148 116.356 115.718 113.198 106.918 106.873 106.868 106.856 106.871 106.946 108.108 111.781 107.956 107.206 106.823 106.796 106.706 106.793 106.998 107.103 106.731 106.698 106.643 106.666 106.601 110.923 112.888 112.456 113.438 113.981 113.748 113.928 114.173 113.996 111.243 106.898 107.011 109.266 111.441 109.598 111.248 112.076 116.531 116.068 116.161 113.126 108.573 110.141 107.196 106.543 105.911 106.003 106.016 105.906 105.863 107.686 109.518 105.856 108.378 110.938 110.943 110.853 106.228 106.013 105.918 105.903 105.898 105.916 105.871 105.828 105.786 105.768 105.746 105.723 105.726 105.708 105.696 105.668 105.646 105.628 105.641 107.366 109.793 112.168 112.818 113.508 112.951 113.091 112.648 108.366 105.603 105.578 106.256 106.516 105.496 105.928 105.746 105.518 105.471 105.368 105.518 106.248 105.545 107.61 111.568 113.03 113.31 113.215 112.815 112.215 110.308 109.798 105.793 105.678 104.958 105.235 105.758 106.38 106.26 106.82 107.928 107.2 106.35 105.558 107.098 105.528 105.05 104.615 104.668 104.645 104.618 104.578 105.378 105.128 104.718 104.553 104.685 104.423 104.768 105.528 106.458 105.93 104.763 104.21 104.345 104.288 104.203 105.865 108.615 111.263 113.393 113.72 114.35 111.768 113.743 113.84 113.003 107.688 104.328 104.068 104.038 103.978 103.933 103.81 103.715 103.788 103.865 103.773 103.683 103.823 105.928 107.14 108.018 104.158 104.18 104.293 106.61 109.195 106.908 104.37 105.098 107.468 108.385 109.63 110.913 107.23 105.703 105.555 105.573 105.6 106.11 106.288 105.785 105.44 105.283 105.288 105.29 105.353 105.388 105.42 105.423 106.065 108.935 112.405 113.968 113.538 111.195 113.605 112.51 107.853 107.215 107.29 107.493 107.598 107.613 107.643 107.655 107.69 107.693 111.288 115.7 111.305 114.03 111.278 110 108.868 107.628 107.645 107.625 107.708 109.515 112.095 110.385 112.885 109.798 109.88 108.173 108.188 108.52 109.288 109.833 111.998 110.918 110.55 109.97 111.79 115.518 115.023 113.898 111.118 110.573 108.77 108.45 108.387 108.63 108.882 108.572 108.922 111.575 111.935 114.387 121.32 123.327 123.03 118.425 114.105 109.12 108.127 108.26 108.525 109.832 111.59 111.12 111.335 110.857 110.32 110.222 110.23 110.305 110.417 111.107 112.225 113.937 112.265 119.735 127.34 128.872 126.232 120.98 113.757 111.077 110.782 110.535 110.092 109.912 109.882 109.98 110.03 108.96 109.107 109.51 109.957 110.015 110.075 110.097 110 111.372 116.702 117.55 113.265 109.14 109.057 109.012 108.972 111.06 117.237 114.915 118.04 118.942 115.757 113.695 111.77 108.967 108.94 108.935 108.925 108.815 108.752 109.397 114.802 108.845 112.905 111.372 113.662 116.55 110.677 109.077 109.25 109.285 109.19 109.057 109.032 109.202 109.25 109.557 111.442 108.58 108.657 108.78 108.82 108.787 108.85 108.987 109.035 109 109.047 109.932 110.067 109.535 109.312 110.875 112.855 113.827 114.477 116.327 116.482 116.56 116.63 116.682 116.755 116.8 116.87 116.857 116.8 116.742 116.682 116.6 116.52 116.45 116.39 116.332 115.965 112.912 108.7 108.69 108.732 108.765 108.832 108.845
110.543 112.373 115.838 117.123 116.973 116.991 117.056 117.053 116.383 113.251 108.173 106.873 106.836 106.806 106.856 106.926 107.801 107.256 106.906 106.898 106.911 106.986 107.366 106.948 108.163 107.163 106.861 106.751 106.733 106.708 106.978 112.186 113.828 112.973 113.583 114.448 114.476 114.493 114.476 114.398 110.878 107.166 106.853 107.283 109.218 110.191 112.906 111.183 116.041 116.003 113.188 118.381 110.386 110.463 107.973 108.566 108.283 108.941 108.951 109.033 108.556 110.671 110.186 110.378 106.821 114.253 115.143 113.653 108.831 106.033 105.968 105.943 105.918 105.926 105.908 106.006 105.801 106.688 105.811 105.778 105.761 105.738 105.701 105.696 105.671 105.648 105.646 107.653 109.441 112.148 112.471 112.841 115.203 114.528 112.398 107.228 105.611 105.576 105.903 106.493 105.476 105.661 105.651 105.528 105.498 105.428 105.511 105.883 106.22 105.865 110.643 111.095 111.005 110.493 111.055 110.42 109.87 109.453 105.925 105.32 105.468 105.69 105.843 109.675 108.408 106.343 107.305 106.803 105.85 106.595 105.683 105.645 104.988 104.658 104.643 104.658 104.64 104.76 106.203 108.225 104.975 104.513 104.48 104.488 104.45 104.41 104.385 105.118 105.985 105.99 105.335 104.945 105.138 107.83 106.51 105.848 109.553 111.003 113.953 114.893 114.738 113.755 110.765 105.513 104.073 104.055 104.098 104.43 104.145 103.785 103.79 103.905 103.85 103.765 103.788 104.175 106.103 105.01 105.145 104.21 105.59 105.338 108.085 111.728 111.335 108.8 106.138 106.45 106.135 109.018 110.455 108.775 105.623 105.638 105.645 105.613 105.57 105.56 106.095 106.148 106.155 105.373 105.338 105.373 105.4 105.438 105.473 108.508 112.788 115.573 116.583 113.433 114.698 111.33 112.11 107.433 107.263 107.433 107.56 107.598 107.63 107.653 107.673 107.693 108.1 109.12 111.275 112.835 115.348 111.468 112.455 108.705 108.01 107.903 107.79 109.368 111.69 111.525 109.988 113.378 108.743 109.145 108.158 108.233 108.495 108.525 108.623 109.238 109.183 109.8 111.225 114.598 114.963 113.31 113.403 116.31 116.378 110.79 108.755 108.415 108.395 108.42 108.425 110.66 111.945 113.415 119.915 123.035 124.275 123.637 123.002 124.495 117.297 109.602 109.335 109.527 111.342 113.987 113.165 112.627 112.545 110.375 110.225 110.31 111.32 114.47 112.497 111.63 112.667 116.205 121.107 126.932 127.302 123.94 121.532 114.165 111.4 112.312 112.282 112.417 111.77 111.917 111.37 110.925 110 109.717 109.982 110.562 110.327 110.15 110.147 110.052 111.735 118.062 118.62 116.237 112.567 109.205 109.05 109.015 109.02 112.82 118.815 119.507 119.237 116.897 112.182 109.925 109.16 109 108.987 109.007 110.595 111.04 109.367 109.465 113.572 113.195 113.99 115.777 118.135 111.57 109.355 109.417 109.425 109.33 109.155 109.337 109.767 109.115 108.962 109.12 108.76 109.91 113.482 110.872 108.92 108.915 108.987 109.09 109.092 109.102 112.922 114.862 113.972 112.112 109.895 113.865 113.745 113.745 114.562 116.55 116.637 116.692 116.752 116.82 116.89 116.865 116.775 116.737 116.65 116.597 116.532 116.44 116.375 116.312 115.867 112.092 108.732 108.787 108.807 108.84 108.892 108.92 108.93
110.546 111.998 115.711 117.073 116.961 116.981 117.013 116.931 116.278 114.223 110.431 107.623 106.873 106.841 106.893 106.936 107.396 107.271 106.996 106.986 106.988 107.291 107.513 107.061 107.303 107.256 106.986 106.863 106.796 106.801 107.323 113.491 114.753 114.563 114.366 114.526 114.543 114.463 114.486 114.226 111.006 106.911 106.831 106.741 106.646 108.276 111.098 107.273 116.496 115.553 113.213 110.418 109.123 106.783 106.513 106.531 106.568 107.068 106.478 106.691 107.041 113.856 114.133 114.253 110.783 116.216 110.823 113.288 107.683 106.056 106.016 105.961 105.966 105.958 107.831 112.608 111.303 106.008 105.861 106.948 106.431 105.738 105.731 105.721 105.701 105.626 105.641 105.973 107.233 109.421 110.073 113.023 114.648 114.481 112.688 107.708 105.633 105.613 106.583 106.493 105.548 105.586 105.783 105.546 105.511 105.463 105.561 106.698 107.498 107.31 105.868 105.448 105.848 105.128 105.84 105.88 105.365 106.328 105.888 105.943 105.875 105.858 105.445 108.275 107.05 105.88 106.625 106.665 106.558 106.243 105.458 108.47 107.345 107.158 105.135 104.65 104.675 104.663 104.765 105.443 104.99 104.545 104.54 104.528 104.498 104.475 104.398 104.373 104.355 104.92 105.763 106.318 107.025 107.978 108.265 107.82 107.565 107.315 107.998 113.463 113.618 111.66 107.498 104.403 104.083 104.053 104.1 104.648 104.09 103.808 103.838 103.913 103.825 103.76 103.895 106.743 106.633 104.613 104.36 105.54 109.853 110.75 111.303 112.755 112.82 112.055 110.715 104.665 104.843 105.315 108.05 109.15 106.363 105.645 105.665 105.698 105.81 105.573 105.78 106.133 106.885 106.228 105.56 105.46 105.413 105.425 105.513 110.703 116.008 117.808 117.275 114.563 112.8 107.623 107.435 107.44 107.43 107.593 107.585 107.628 107.625 107.678 107.685 107.715 109.873 110.69 109.735 115.03 115.943 110.888 112.238 110.668 109.855 108.225 107.958 108.085 109.933 111.27 112.685 112.193 108.225 108.193 108.218 108.383 108.453 108.33 108.718 109.393 109.068 109.05 111.11 111.07 112.293 113.043 114.443 112.263 112.153 109.872 109.052 108.422 108.82 109.71 111 111.937 112.352 117.372 122.465 124.247 125.067 124.69 124.902 125.285 123.72 115.295 110.635 112.047 115.432 115.38 114.277 113.23 110.887 110.322 110.402 110.67 114.37 116.53 114 111.742 112.272 112.505 118.465 115.87 121.592 122.555 121.272 113.525 110.677 110.69 110.747 111.26 111.457 111.31 112.105 113.227 113.46 114.687 114.797 114.302 112.472 110.372 110.297 110.08 111.815 116.56 117.307 119.385 113.447 110.995 109.092 109.05 109.04 114.237 119.227 119.667 121.55 116.965 113.742 110.017 109.015 109.027 109.012 110.93 111.407 113.385 109.927 108.915 114.157 112.635 114.8 119.1 119.857 112.615 109.517 109.495 109.42 109.295 109.17 114.185 118.14 112.7 108.88 109.117 109.427 112.612 115.465 112.725 108.992 109.07 109.157 109.162 110.34 112.672 113.105 113.66 113.837 112.172 109.785 110.295 113.397 113.78 113.77 114.81 116.707 116.777 116.83 116.887 116.865 116.792 116.71 116.66 116.58 116.497 116.52 116.37 116.302 115.607 111.762 108.852 108.905 108.942 108.967 108.975 108.992 109.02 109.037
110.543 113.203 116.201 116.983 117.093 116.976 117.053 117.021 116.188 113.983 110.201 107.586 106.936 106.923 106.936 107.241 107.308 107.168 107.071 107.076 107.076 107.141 107.173 107.191 107.403 107.298 107.406 107.043 106.848 108.491 110.813 114.211 115.916 116.361 115.426 113.666 113.743 114.048 114.226 113.938 108.991 106.876 106.808 106.791 106.618 106.611 108.211 110.316 113.071 111.363 111.878 107.201 108.896 106.613 106.551 106.636 106.566 106.571 106.578 106.638 109.963 110.703 113.008 112.161 112.411 116.196 115.313 108.828 106.866 106.058 106.031 105.991 106.011 106.598 109.956 114.076 113.163 111.528 112.808 110.133 105.848 105.801 105.763 105.791 105.748 105.651 106.268 105.811 107.063 109.276 109.561 112.233 114.436 114.353 112.171 107.921 105.643 105.628 105.663 105.928 105.691 105.536 105.736 105.576 105.511 105.461 105.526 106.695 106.228 105.94 105.835 107.923 107.998 108.185 108.388 108.423 107.515 105.875 105.593 105.47 105.253 105.038 104.935 104.86 105.638 109.22 107.138 107.385 107.448 107.015 108.22 106.585 107.093 107.338 106.04 105.415 104.653 104.633 104.613 104.578 104.578 104.55 104.555 104.515 104.5 104.488 104.455 104.42 104.443 104.878 104.523 106.11 107.34 107.213 106.348 107.975 107.445 108.35 107.793 106.158 108.323 106.6 104.743 104.195 104.07 104.04 104.253 104.113 103.833 103.86 103.92 103.93 103.823 103.848 104.373 106.27 105.578 104.193 104.223 107 111.198 112.305 112.413 113.095 112.405 111.37 107.435 104.39 104.568 104.71 105.693 109.083 109.785 107.868 105.803 105.898 106.7 106.143 109.903 111.61 110.948 107.89 106.133 105.89 105.563 105.473 105.58 107.108 114.478 116.95 113.433 111.93 110.893 108.69 107.463 107.428 107.475 107.605 107.6 107.633 107.67 107.703 107.7 107.723 108.24 111.54 112.875 114.75 111.655 109.603 110.313 110.638 109.69 110.165 109.363 108.423 109.278 109.098 109.39 110.525 108.325 108.458 111.265 109.67 108.573 108.39 108.463 108.983 109.418 109.255 109.345 109.513 112.385 115.953 114.28 110.513 109.853 109.9 109.252 108.39 108.585 109.855 111.892 112.19 115.97 121.927 123.717 124.997 124.992 124.907 124.9 123.967 120.032 113.545 111.235 114.102 115.625 114.767 116.03 112.057 110.417 110.445 110.497 110.475 111.86 113.937 112.372 111.8 110.41 110.335 113.68 118.995 115.295 117.457 113.305 114.005 110.717 110.745 110.772 110.827 110.9 111.125 111.36 112.442 113.915 115.38 117.372 115.092 115.65 112.502 111.697 110.147 113.455 116.152 115.697 117.085 114.327 109.765 109.112 109.057 109.077 115.382 120.555 119.972 117.462 113.247 109.157 109.055 108.995 109.095 109.082 109.017 109.57 109.46 110 109.27 114.55 115.482 117.017 118.14 116.772 110.557 109.617 109.502 109.39 109.2 112.07 119.952 122.115 121.995 115.087 110.385 109.54 110.93 115.857 110.187 109.015 109.23 109.307 109.292 113.165 112.79 113.222 117.695 112.257 111.767 111.977 108.965 111.07 113.787 113.777 113.777 115.55 116.835 116.897 116.837 116.777 116.702 116.637 116.567 116.5 116.427 116.36 116.297 116.01 110.495 108.962 109.047 109.065 109.11 109.127 109.102 109.072 109.102 109.115
110.536 113.441 115.836 116.876 116.931 117.058 117.231 117.013 116.258 112.778 107.166 107.003 106.908 106.878 106.953 109.951 108.908 108.036 107.148 107.146 107.161 107.153 107.168 107.356 108.396 107.328 107.166 106.936 107.013 109.338 113.343 114.471 116.068 116.668 115.481 113.021 111.813 110.026 112.553 111.308 107.268 106.853 106.881 106.796 106.646 106.626 106.641 107.496 110.286 110.313 108.731 107.686 106.611 106.603 106.601 106.616 106.603 106.601 106.601 111.131 113.566 110.118 112.038 113.026 117.771 115.038 116.418 110.746 108.221 106.366 106.071 106.128 108.243 113.493 111.486 112.686 112.176 112.198 112.436 110.311 105.906 105.856 105.836 105.823 105.781 105.648 105.818 105.663 106.731 109.323 109.528 112.648 114.401 114.608 112.926 107.886 105.621 105.613 105.856 106.896 105.568 105.501 105.548 105.608 105.553 105.486 105.553 105.6 105.72 106.195 105.888 107.998 111.325 111.735 111.823 111.808 108.048 105.745 105.625 105.085 104.938 104.915 104.88 104.88 106.775 109.18 106.625 109.293 107.653 107.853 105.808 108.405 108.035 109.228 107.653 109.155 104.835 105.29 104.59 104.558 104.55 104.543 104.52 104.503 104.505 104.48 104.443 104.403 104.378 104.623 104.343 104.875 106.753 107.788 105.33 105.863 106.988 107.575 107.545 107.353 106.493 104.598 104.12 104.088 104.053 104.035 104.093 104.025 103.818 103.915 103.965 103.923 103.805 103.925 104.318 104.173 104.185 104.228 104.298 106.765 110.623 112.695 113.688 113.258 112.245 110.985 107.298 104.42 104.613 104.873 107.285 109.82 110.765 109.175 105.858 106.29 105.938 106.908 113.005 113.785 113.105 112.175 110.343 107.133 106.228 106.68 106 106.485 109.753 110.175 108.378 110.088 108.173 107.545 107.488 107.46 107.59 107.6 107.618 107.635 107.67 107.695 107.705 107.748 107.75 108.008 111.053 109.983 108.19 109.77 110.643 111.048 109.42 109.243 109.628 109.56 109.028 108.233 108.835 111.003 109.57 112.138 112.573 109.8 114.005 109.295 110.093 109.873 109.538 109.258 108.915 111.04 111.668 110.028 109.758 109.728 109.528 109.342 108.657 108.402 108.437 109.312 110.897 112.642 120.422 123.38 124.87 125.09 124.962 125.087 124.41 123.01 113.697 111.712 112.44 111.987 113.815 113.997 113.997 110.542 110.47 110.552 110.612 111.825 114.06 115.482 115.45 112.755 110.382 112.887 121.877 123.8 121.75 114.707 111.272 110.742 110.74 110.76 110.822 110.805 110.835 110.865 110.895 110.995 112.532 112.057 115.6 114.81 117.037 112.37 114.507 110.872 114.827 114.677 118.805 123.16 122.407 113.622 109.172 109.117 109.122 110.427 116.302 115.732 110.78 109.437 109.205 109.042 109.067 109.095 109.092 109.057 109.007 108.992 108.97 108.992 113.667 115.735 117.072 115.48 111.387 109.805 109.69 109.445 109.36 110.422 117.835 121.682 122.79 121.592 120.235 116.062 110.665 109.53 110.635 109.125 109.14 109.792 109.397 109.472 112.27 115.98 114.612 113.595 114.022 112.707 112.402 109.98 110.212 112.217 113.767 113.78 114.13 116.345 116.82 116.757 116.697 116.622 116.572 116.51 116.417 116.365 116.292 115.605 109.215 108.995 109.115 109.172 109.227 109.272 109.277 109.245 109.187 109.2 109.235
110.706 114.186 116.258 116.951 117.058 117.043 117.158 116.816 115.476 113.503 106.911 106.878 106.851 106.866 107.108 109.496 114.036 108.863 107.261 107.256 107.886 108.621 109.351 107.768 107.711 107.148 107.003 106.941 107.058 108.441 112.688 114.728 116.353 116.466 115.188 113.003 111.083 108.786 110.158 109.403 106.873 106.836 106.833 106.678 106.653 106.656 106.666 106.673 107.398 107.128 106.653 106.631 106.638 106.643 106.623 106.633 106.626 106.626 106.628 109.013 107.636 107.706 112.026 113.958 112.978 113.763 117.388 116.613 115.721 109.713 106.426 106.153 112.041 113.088 110.523 112.153 114.313 111.368 107.066 110.528 106.371 105.908 105.873 105.863 105.796 105.648 105.656 105.638 106.453 109.188 109.903 112.233 114.263 114.588 112.923 109.076 106.336 106.373 105.741 105.961 105.601 105.531 105.588 105.633 105.593 105.531 105.568 105.625 105.678 106.363 106.66 109.345 112.273 113.415 113.513 112.495 108.235 105.968 106.373 105.148 104.945 104.9 104.873 104.865 106.923 107.778 113.778 112.29 108.623 107.585 106.103 106.568 107.775 109.405 107.538 109.395 105.463 104.79 104.768 104.52 104.525 104.533 104.515 104.498 104.473 104.453 104.405 104.36 104.545 104.435 104.448 105.868 107.41 107.72 106.42 107.228 107.698 106.98 106.718 107.52 107.773 107.39 105.193 104.083 104.07 104.148 104.05 103.858 103.855 103.953 103.95 103.85 103.82 104.305 105.525 104.505 104.18 104.648 105.415 107.59 111.39 113.47 114.525 112.993 112.068 110.593 104.743 104.535 104.663 105.588 109.358 110.478 110.245 107.693 105.893 105.988 105.943 106.17 111.388 112.758 113.825 113.673 112.923 111.53 109.078 109.823 108.943 107.118 107.558 107.348 107.338 107.428 107.558 107.583 107.45 107.55 107.58 107.608 107.645 107.668 107.693 107.685 107.74 107.75 107.773 108.375 108.693 108.328 108.17 108.338 109.083 110.35 113.063 111.008 109.535 109.278 110.9 111.645 112.6 116.528 114.19 111.805 112.173 114.245 110.818 113.493 111.153 110.515 109.913 109.365 110.853 112.065 112.483 111.588 109.365 110.098 109.973 108.882 108.665 108.465 108.372 108.57 108.727 110 120.762 124.085 124.94 124.93 125.042 124.76 123.205 121.215 111.78 111.417 111.48 112.065 115.59 115.545 111.24 110.62 110.57 110.595 111.285 112.297 113.9 116.147 115.947 112.587 112.14 118 123.35 124.872 124.095 122.13 117.605 110.84 110.777 110.807 110.845 111.81 112.107 111.997 112.587 112.385 112.41 112.747 114.475 116.257 115.44 112.872 114.992 114.162 111.075 110.097 118.352 124.942 125.82 117.41 109.555 109.187 109.157 109.287 115.035 118.76 112.69 110.45 109.187 109.06 109.047 109.087 109.022 109.032 109.005 108.992 108.987 109.235 114.325 115.79 113.987 111.962 109.945 109.852 109.702 109.522 110.3 116.592 121.145 122.832 122.872 122.08 121.285 121.64 117.24 110.347 109.7 109.852 111.077 116.02 115.127 113.585 109.487 115.185 115.765 113.177 111.297 111.115 110.04 112.437 110.872 110.427 112.95 113.857 113.927 114.14 116.097 116.665 116.617 116.53 116.47 116.447 116.34 116.287 113.437 109.152 109.037 109.145 109.232 109.307 109.347 109.377 109.387 109.335 109.27 109.292 109.315
111.161 114.316 115.698 116.211 116.053 116.261 116.296 116.293 115.106 109.156 106.921 106.866 106.793 106.866 107.058 108.266 109.103 108.283 107.351 107.798 110.043 110.513 112.968 110.631 110.926 107.141 107.183 107.768 107.331 107.233 111.446 115.198 116.338 116.056 114.541 113.466 110.648 109.028 110.241 109.063 106.873 106.858 106.888 106.751 106.708 106.696 106.693 106.678 106.658 106.673 106.678 106.663 106.663 106.646 106.643 106.648 106.641 106.631 106.613 106.606 106.568 106.581 112.638 112.583 115.581 112.071 117.901 115.476 121.151 109.351 108.186 106.673 107.713 112.886 110.851 107.976 112.301 113.348 111.061 109.563 110.163 105.936 105.901 106.666 106.101 105.926 105.661 105.641 106.396 109.073 110.033 112.638 113.808 114.141 113.068 108.841 106.188 106.138 105.668 105.966 105.671 105.543 105.588 105.626 105.623 105.556 105.583 105.953 105.735 105.9 107.058 111.898 112.643 113.843 114.315 112.865 107.925 106.068 105.77 105.2 104.948 104.895 104.883 104.88 106.013 111.108 110.408 108.83 107.973 105.46 107.485 107.248 106.313 105.388 105.893 106.86 108.768 108.35 107.485 105.045 104.655 104.508 104.485 104.473 104.468 104.453 104.39 104.423 104.853 104.38 104.7 106.968 108.4 108.17 108.088 107.98 107.108 107.51 107.855 107.55 107.23 106.888 105.565 105.323 104.605 104.52 104.05 103.833 103.925 103.988 103.965 103.865 103.918 105.6 107.648 106.63 104.675 105.7 108.015 109.24 111.378 112.918 113.613 112.763 110.323 107.715 104.468 104.62 104.735 105.503 111.038 111.85 110.14 107.358 105.7 105.67 105.85 108.115 111.203 112.643 113.793 113.08 113.305 111.928 110.698 109.093 107.63 108.475 107.81 107.485 109.315 111.42 108.555 107.56 107.495 107.57 107.603 107.63 107.653 107.683 107.693 107.723 107.74 107.775 107.798 108.735 108.228 108.185 108.605 109.38 109.603 111.583 113.365 109.138 109.165 112.293 110.768 111.8 116.563 113.66 113.653 118.008 116.463 119.043 113.025 113.458 110.81 110.038 110.348 109.715 111.568 112.448 111.983 110.108 110.118 111.538 112.368 110.07 108.81 108.857 108.352 108.265 108.337 108.505 108.425 119.842 123.605 124.582 125.037 123.887 122.03 119.342 114.085 111.405 111.235 111.812 115.31 114.535 110.627 110.595 110.635 110.632 111.8 114.557 115.65 113.505 113.287 112.007 118.002 121.9 123.067 124.142 125.06 124.34 122.417 114.89 110.815 110.83 111.2 113.745 113.772 113.737 113.787 113.765 113.765 114.517 116.127 112.342 116.377 116.077 114.562 113.01 111.485 110.102 111.43 118.592 121.225 116.892 111.807 109.272 109.222 109.692 113.597 115.945 114.502 117.09 110.155 109.062 109.045 109.047 109.057 109.005 109.015 109.027 109 110.79 114.665 117.047 116.55 110.752 110.012 109.935 109.825 109.752 109.632 118.625 122.747 122.41 122.962 123.087 122.512 122.85 121.652 116.137 109.915 109.55 114.162 116.412 114.72 114.15 111.75 113.005 115.305 113.927 109.727 110.442 111.542 118.572 115.782 113.58 109.97 113.12 113.782 113.77 113.957 116.205 116.545 116.452 116.39 116.33 116.247 112.805 109.072 109.062 109.145 109.247 109.345 109.402 109.447 109.447 109.45 109.422 109.382 109.38 109.395
110.558 111.726 113.631 114.223 114.126 114.113 113.143 114.508 114.418 108.546 106.898 106.843 106.841 106.961 107.126 107.301 107.471 107.456 107.448 111.336 109.588 113.041 113.493 111.443 111.701 111.656 107.408 107.181 106.996 107.103 112.261 114.393 115.248 114.936 114.888 113.376 109.871 108.991 110.973 108.586 106.876 106.858 106.866 106.728 106.691 106.681 106.683 106.746 106.733 106.693 106.686 106.668 106.678 106.668 106.673 106.671 106.661 106.638 106.646 106.608 106.578 106.578 107.858 107.881 111.958 112.211 113.383 113.211 114.486 111.013 111.121 110.183 106.516 108.808 109.906 111.698 114.343 110.411 109.738 110.181 107.571 107.588 106.436 107.843 110.553 105.751 105.738 105.648 106.153 109.153 109.223 111.646 111.188 112.181 110.156 108.938 106.251 106.256 106.628 106.768 109.151 105.998 105.618 105.691 105.638 105.606 105.621 105.703 105.763 106.515 107.203 112.133 113.87 114.415 114.32 112.795 108.135 106.063 105.798 105.22 104.948 104.91 104.895 104.905 105.903 111.263 113.065 108.853 106.548 111.493 115.813 113.273 107.315 104.855 105.238 104.88 105.245 107.935 107.685 108.885 108.1 105.253 104.585 104.45 104.443 104.435 104.433 104.44 104.97 104.368 104.265 105.89 107.18 108.155 110.193 110.455 110.64 109.98 108.558 107.87 105.6 105.27 105.935 105.198 104.77 104.05 103.95 103.898 103.953 104.005 103.908 103.853 103.98 104.363 105.105 106.243 106.51 105.87 106.908 108.545 109.803 111.368 112.015 110.323 107.888 107.308 104.668 104.65 110.703 109.893 106.84 115.533 111.163 112.733 109.583 106.455 107.583 110.013 111.893 113.55 114.75 113.86 112.355 112.71 111.26 107.983 105.983 107.303 107.74 107.955 109.545 111.753 108.23 107.505 107.548 107.588 107.643 107.648 107.663 107.68 107.725 107.738 107.76 107.785 108.925 114.485 112.678 113.203 108.735 109.02 109.9 112.703 111.93 110.7 112.813 118.953 118.78 113.26 117.42 113.075 114.655 119.728 119.78 116.91 113.733 113.31 108.823 109.243 109.468 111.205 112.308 112.198 111.278 109.398 111.368 112.355 112.2 111.052 109.365 109.327 108.71 108.35 108.297 108.285 108.312 108.377 110.485 117.845 123.847 122.2 121.595 117.142 111.657 111.08 111.02 112.802 115.155 111.417 110.637 110.735 110.732 111.552 113.837 116.287 112.13 111 110.815 116.3 124.477 123.675 123.947 124.86 124.755 124.462 124.262 117.22 110.967 110.86 111.12 113.6 113.775 113.787 113.81 113.785 114.542 116.12 117.112 116.392 112.922 114.13 113.3 113.352 110.817 110.115 111.547 115.78 116.795 114.862 110.345 109.317 109.322 111.555 110.96 112.625 115.367 116.015 112.98 109.082 109.077 109.082 109.045 109.042 109.032 109.052 109.177 110.3 111.815 116.305 118.495 110.497 110.142 109.99 109.952 109.897 109.74 111.74 121.672 121.305 121.512 122.715 123.06 121.795 120.767 118.635 115.94 110.39 116.137 114.905 113.735 120.412 116.367 111.617 112.037 109.62 109.715 110.36 112.722 120.15 112.547 114.765 109.82 109.86 112.807 113.785 113.81 114.327 116.247 116.372 116.317 116.242 110.952 109.222 109.125 109.175 109.267 109.37 109.425 109.462 109.507 109.53 109.55 109.51 109.49 109.492 109.447
110.076 110.368 110.683 110.766 110.836 110.766 110.473 110.378 110.401 107.993 106.966 107.193 107.521 107.851 107.803 107.518 107.548 107.518 107.536 107.556 110.636 113.783 113.608 115.456 113.318 112.171 111.503 107.908 107.988 108.201 108.836 108.451 112.398 111.023 111.248 112.026 109.596 108.143 108.783 107.636 106.893 106.846 106.748 106.721 106.698 106.733 106.698 106.858 107.701 106.866 106.686 106.668 106.681 106.673 106.686 106.688 106.688 106.681 106.663 106.641 106.646 106.603 106.641 106.983 112.563 113.491 111.788 113.106 111.251 109.788 112.346 112.606 108.808 115.108 115.138 110.891 112.471 114.311 110.976 110.528 116.406 117.418 111.551 110.268 109.938 106.778 106.743 107.211 107.176 106.866 107.193 107.838 107.888 106.901 106.656 107.568 108.043 108.416 110.796 110.518 108.271 108.676 106.411 105.656 105.666 105.596 105.651 105.933 105.775 106.353 106.6 112.235 114.028 114.963 114.45 113.025 109.08 106.073 105.89 105.245 104.985 104.915 104.923 104.925 106.84 113.165 113.658 110.515 108.295 113.393 121.508 117.28 115.778 105.335 104.678 104.66 104.668 104.738 104.708 106.63 107.61 106.565 105.795 106.235 104.648 104.555 104.548 104.655 104.37 104.213 104.118 104.105 104.165 105.285 109.463 111.158 111.853 111.708 111.115 110.225 106.718 105.32 104.905 104.838 105.433 104.085 103.878 103.955 104.045 104.018 103.918 104.545 104.71 104.298 104.665 106.075 104.705 107.195 105.513 105.828 107.525 108.653 109.51 108.988 107.408 106.205 104.61 104.698 111.318 110.738 112.408 113.608 115.403 115.21 111.703 109.843 108.528 110.843 113.24 114.538 114.505 113.15 111.645 111.303 109.945 105.865 105.815 106.603 107.115 107.973 108.648 107.963 107.635 107.555 107.593 107.608 107.633 107.628 107.67 107.698 107.74 107.75 107.793 108.08 114.448 117.365 111.293 114.878 109.538 108.84 109.645 110.21 111.12 109.19 109.36 114.188 113.43 114.468 116.19 110.745 115.603 114.278 117.848 114.858 115.6 112.5 111.37 109.145 109.815 112.05 112.41 111.35 109.538 110.553 112.058 112.43 111.41 109.592 111.22 111.847 110.432 112.34 108.36 108.822 109.292 108.63 108.692 109.082 115.227 113.217 114.877 114.682 111.817 111.3 111.007 111.432 112.195 110.71 110.815 110.815 110.722 110.69 115.115 113.135 112.38 111.232 110.757 116.76 123.875 124.86 124.917 124.91 123.922 123.122 116.952 112.15 111.097 110.907 111.052 112.565 113.075 113.785 113.785 113.8 113.792 113.147 110.772 111.86 112.787 115.322 112.975 112.01 110.252 110.99 110.412 114.75 116.25 116 110.512 109.397 111.307 112.382 111.047 114.455 115.785 117.042 113.917 109.1 109.095 109.087 109.077 109.065 109.05 109.05 109.32 113.072 113.565 114.74 112.502 110.19 110.115 110.035 109.992 109.975 109.952 109.695 111.882 119.627 121.167 122.652 122.24 120.182 119.11 119.58 118.842 116.847 110.425 116.31 116.755 112.64 113.172 110.24 109.765 109.765 110.147 112.885 113.94 122.352 114.515 114.59 109.425 109.185 110.077 113.882 113.777 113.78 114.962 116.292 115.902 111.72 109.152 109.212 109.26 109.317 109.402 109.465 109.507 109.535 109.592 109.625 109.65 109.602 109.58 109.567 109.52
