ncols 444
nrows 31
xllcorner    527056
yllcorner    185318
cellsize     2
NODATA_value -9999
77.765 77.725 77.653 77.533 77.565 77.445 78.345 79.188 81.675 79.22 78.513 78.255 77.51 79.765 79.26 76.71 77.175 77.41 77.625 77.833 82.795 76.18 77.245 76.553 77.388 76.755 75.243 74.245 74.168 74.033 73.895 73.723 73.59 73.498 73.413 73.35 73.273 73.305 75.295 73.233 73.1 73.17 73.418 76.005 77.89 76.443 74.103 73.938 73.955 74.685 75.135 75.295 75.3 74.98 73.938 73.575 73.948 74.218 74.485 74.875 75.098 75.223 75.163 80.283 85 84.885 84.81 84.885 84.963 87.708 91.86 93.17 96.412 93.525 91.627 94.195 94.375 94.377 94.422 94.51 94.445 94.497 94.457 94.417 94.212 88.605 86.907 106.865 104.185 120.537 122.925 121.312 119.615 119.555 119.572 119.152 112.337 100.882 90.272 80.535 75.677 73.535 80.73 102.63 119.52 119.542 119.525 119.62 121.735 123.64 124.667 125.447 124.047 123.665 121.735 123.502 123.635 119.512 119.53 114.875 83.767 69.297 72.39 72.49 72.45 72.492 72.53 71.467 71.675 72.492 71.927 84.792 88.997 89.4 88.752 84.46 83.05 81.957 82.59 81.677 82.062 80.582 77.422 72.695 72.687 72.69 73.835 73.685 78.09 79.717 76.805 77.292 86.055 88.227 88.192 91.28 93.09 92.52 89.825 88.292 88.315 88.33 88.405 74.047 67.865 64.845 65.495 65.087 64.455 62.435 60.21 59.587 59.595 59.825 62.572 60.785 69.225 74.28 82.372 82.41 83.68 84.852 85.84 85.715 83.767 79.892 66.875 64.017 58.962 57.172 57.332 57.297 57.277 57.862 57.392 57.5 80.45 83.282 80.15 82.467 80.727 75.495 80.095 83.277 73.442 72.97 60.157 56.437 56.312 56.222 56.135 56.067 56.05 56.062 56.212 56.95 57.935 56.387 56.34 59.95 61.2 59.112 58.495 58.14 58.19 55.29 55.137 55.16 55.127 55.11 55.44 55.165 55.352 56.967 58.187 58.11 55.565 56.267 56.015 55.01 55.242 54.872 54.97 55.207 54.787 54.772 54.555 54.347 54.197 54.035 54.06 54.122 53.99 53.965 53.965 53.972 56 58.267 58.402 57.417 53.95 53.887 53.867 53.797 53.755 53.702 53.675 53.667 53.652 53.647 53.717 53.742 53.742 53.732 53.705 53.472 53.362 53.06 52.777 52.555 52.375 52.222 52.147 52.05 52.03 52.065 52.117 63.247 65.942 66.242 66.282 64.56 53.955 51.987 51.88 51.85 51.795 51.71 51.647 51.635 51.582 51.655 51.755 61.142 65.412 65.462 65.447 59.315 51.577 51.647 51.74 51.825 52.182 56.477 55.755 58.46 56.45 54.75 51.855 52.137 53.207 51.712 51.822 51.805 51.625 51.592 56.465 57.162 55.805 57.102 54.652 55.002 57.862 56.61 53.822 57.725 60.285 60.212 57.675 55.737 56.565 55.52 56.182 57.342 57.57 56.702 54.477 51.707 51.732 51.847 51.83 51.512 51.207 51.11 51.097 51.515 52.835 53.14 53.567 53.422 54.605 55.437 55.12 54.457 57.227 59.815 59.787 59.87 55.857 49.445 49.472 49.255 49.112 49.025 49.025 49.045 49.025 48.987 49.01 48.945 49.112 50.365 50.345 50.285 49.862 47.727 47.447 47.562 47.707 49.282 49.53 49.487 50.197 50.247 50.755 48.782 49.065 49.042 49.35 49.722 50.005 50.17 50.025 49.917 49.837 49.847 49.897 50.152 51.362 52.392 56.877 58.097 57.86 57.795 57.782 57.762 57.762 57.735 57.745 54.727 52.38 57.592 57.605 57.6 57.665 57.21 54.52 55.147 51.267 49.945 48.255 49.655 52.117 49.825 54.487 49.355 48.642 50.322 46.922 52.17 50.18 52.1 52.215 48.315
77.755 77.725 77.65 77.598 77.56 77.728 78.405 77.593 78.79 77.423 77.555 76.753 76.93 79.113 78.898 81.655 79.205 78.148 79.228 78.418 77.048 78.438 74.9 77.39 75.845 76.925 74.508 74.365 74.288 74.123 73.963 73.81 73.65 73.56 73.443 73.42 73.308 73.32 74.958 74.125 73.305 73.298 73.373 75.478 76.3 76.06 74.148 74.888 73.993 74.283 75.138 75.313 75.383 75.348 74.49 73.66 73.675 74.128 74.578 75.353 75.548 75.615 75.35 74.6 85.018 84.933 84.795 84.85 84.995 89.08 98.688 99.105 95.137 89.5 87.347 93.11 94.402 94.402 94.445 94.485 94.437 94.395 94.37 94.392 94.335 90.942 86.692 93.39 109.79 110.622 118.812 113.32 113.857 110.585 102.722 94.897 86.855 80.24 75.207 72.857 71.067 69.332 75.932 92.36 103.2 119.552 120.052 120.34 119.935 125.915 126.152 126.142 124.742 123.862 123.005 122.607 123.667 120.15 119.525 119.697 80.062 69.33 71.195 72.492 72.522 72.547 72.517 72.56 72.517 72.47 72.477 78.455 85.775 85.525 81.195 80.615 81.287 83.615 83.925 83.425 80.72 80.602 80.702 73.107 75.742 76.347 78.162 80.812 79.797 78.077 74.475 73.52 74.892 88.255 88.2 89.992 92.322 92.332 91.745 88.39 88.292 88.31 88.35 79.547 68.177 65.547 64.97 65.19 64.462 62.327 62.917 62.917 63.63 61.875 63.76 61.345 66.282 67.937 78.557 82.412 85.4 85.767 85.87 85.77 85.652 83.517 73.65 64.125 56.917 57.25 57.705 57.31 57.29 57.27 58.155 57.34 68.51 83.28 82.757 80.93 72.21 66.65 60.4 67.585 60.905 56.52 56.437 56.33 56.267 56.215 56.2 56.135 56.1 56.672 58.112 59.085 57.642 57.085 56.617 58.155 58.922 60.65 60.18 58.162 57.097 55.175 55.15 55.127 55.14 55.737 57.14 55.595 55.112 55.04 55 55.15 55.192 55.14 55.022 55.335 55.075 54.915 55.232 55.752 54.882 54.7 54.45 54.332 54.285 54.23 54.095 54.015 53.972 54 54.005 53.992 54.54 55.287 54.76 56.722 53.927 53.887 53.857 53.787 53.777 53.717 53.66 54.902 53.725 53.737 53.822 56.785 58.82 61.285 55.102 53.26 53.227 53.037 52.81 52.59 52.392 52.27 52.17 52.167 52.005 52.052 52.387 59.167 66.502 67.577 67.895 66.707 60.16 51.995 51.947 51.895 51.84 51.74 51.61 51.652 51.505 51.5 51.602 63.157 65.492 65.492 65.485 65.107 54.845 51.592 51.655 51.767 54.795 57.74 58.78 56.772 57.11 55.307 54.35 52.63 52.622 51.765 51.78 51.775 51.662 51.572 54.467 56.142 57.922 59.347 54.965 59.78 61.002 57.577 54.437 56.712 59.285 60.77 58.97 56.54 55.132 53.972 55.485 57.017 56.405 53.337 51.7 51.735 51.71 51.732 52.052 52.23 53.097 54.21 53.207 52.587 51.752 51.47 52.507 56.105 55.892 55.68 55.255 53.72 57.482 59.167 59.772 59.852 58.197 50.465 49.822 49.582 49.075 48.992 49.025 48.997 49.017 48.98 48.947 48.925 49.057 49.91 50.445 50.467 50.307 48.17 47.462 47.475 47.662 48.802 49.677 49.542 50.49 49.915 50.34 49.527 50.135 50.187 50.182 50.1 50.17 49.952 49.972 50.065 49.982 49.975 50.425 54.765 57.717 58.075 58.022 58.055 57.817 57.772 57.777 57.78 57.755 57.792 57.775 56.79 49.215 57.28 57.617 55.422 51.75 50.097 48.297 47.667 47.4 47.305 52.38 48.532 49.975 48.862 49.74 49.017 46.825 48.767 48.502 52.255 49.475 51.995 52.302 48.92
77.74 77.703 77.67 77.648 77.588 77.453 77.465 77.425 77.3 77.34 77.353 77.338 76.825 77.538 78.325 78.023 77.673 75.77 79.018 77.36 78.49 75.683 74.955 76.338 74.758 74.81 74.575 74.43 74.29 74.173 74.045 73.93 73.783 73.648 73.533 73.46 73.41 73.378 74.225 75.2 73.473 73.525 73.48 74.048 75.93 75.1 74.388 75.56 76.535 75.665 75.985 75.328 75.463 75.485 75.058 73.945 73.535 73.808 74.315 75.163 75.513 75.233 74.928 74.703 83.393 84.99 84.853 84.803 84.943 85.08 95.958 95.62 90.2 86.192 86.962 89.8 94.447 94.417 94.4 94.4 94.552 94.41 94.532 94.36 94.312 93.707 87.445 86.54 87.81 87.432 93.36 102.967 92.415 83.745 81.082 77.397 77.377 75.382 72.535 68.965 68.507 68.585 71.205 80.59 101.24 120.047 119.575 119.555 119.585 123.155 126.075 125.75 124.177 123.707 123.68 121.04 121.135 120.037 119.677 119.955 90.12 70.142 70.562 72.532 72.527 72.487 72.502 72.47 72.462 72.51 72.472 74 80.432 81.505 81.6 83.97 84.13 83.922 83.947 84.035 82.22 81.947 81.215 78.752 79.212 80.785 78.85 80.265 78.05 76.65 71.547 69.122 70.677 88.16 88.2 88.235 92.265 92.33 92.322 89.207 88.297 88.29 88.432 87.86 73.872 67.09 64.99 64.742 64.682 60.377 59.745 60.555 61.012 62.537 63.96 63.037 63.24 67.917 76.78 82.397 83.972 85.745 85.85 85.822 85.695 84.825 79.01 66.857 62.527 62.34 58.34 57.317 57.347 57.675 58.177 57.315 59.595 82.57 80.497 79.075 70.99 59.482 56.915 57.297 56.62 56.435 56.407 56.355 56.327 56.332 56.402 56.492 56.232 56.615 61.475 60.13 57.815 56.752 56.837 56.88 59.705 60.032 60.535 58.045 57.092 55.09 55.197 55.13 55.155 55.16 55.332 55.167 55.11 55.31 55.115 55.32 55.117 55.25 54.935 55 54.92 54.955 55.242 55.205 54.915 54.595 54.39 54.255 54.162 54.092 53.985 53.94 53.99 53.977 54 55.322 56.582 57.245 58.095 59.66 55.8 53.915 53.87 53.825 53.805 53.762 53.78 56.535 54.805 53.61 62.72 65.885 66.03 64.532 58.405 53.25 53.155 53 52.805 52.622 52.452 52.35 52.225 53.282 51.995 52.042 52.095 52.625 66.52 67.642 66.772 66.032 60.915 51.997 51.965 51.902 51.837 51.722 51.602 51.62 52.247 51.41 51.607 59.922 65.502 65.512 65.467 65.465 58.755 51.537 51.62 53.842 54.96 58.962 58.767 58.8 55.557 54.177 56.597 53.687 51.85 51.735 51.775 51.837 51.645 51.625 51.715 51.735 52.222 54.955 55.737 56.977 58.382 57.852 53.577 56.437 58.395 60.24 60.242 54.79 52.845 51.99 51.84 52.82 51.712 51.742 51.767 52.705 53.315 54 54.61 52.952 53.18 51.4 50.325 50.53 50.502 50.787 51.72 57.267 55.827 55.572 55.307 53.852 57.037 58.812 60.127 60.39 58.18 50.612 49.55 50.452 49.38 50.312 48.96 48.95 48.955 48.982 48.937 48.892 48.99 49.47 50.337 50.33 50.295 49.985 47.51 47.497 47.587 48.05 49.727 49.667 49.592 50.87 50.312 50.19 50.26 50.16 50.095 50.052 50.072 50.122 50.14 50.825 53.137 55.49 57.955 58.052 58.032 58.022 58 58.022 57.942 57.787 57.777 57.78 57.782 57.852 57.81 57.975 51.275 51.232 54.697 51.22 47.96 47.582 47.545 47.43 47.365 49.772 52.23 50.727 53.42 47.602 48.67 50.767 46.892 52.767 52.087 51.097 51.635 48.555 49.492 47.572
77.685 77.67 77.633 77.618 77.59 77.543 77.5 77.418 77.32 77.285 77.313 77.305 77.298 76.965 77.79 77.933 76.298 76.073 75.87 78.323 77.325 76.785 75.023 74.933 74.8 74.713 74.59 74.46 74.348 74.253 74.115 74.02 73.92 73.775 73.628 73.535 73.493 73.448 73.505 75.783 74.14 73.663 73.71 73.828 75.128 74.263 74.295 77.1 77.728 77.618 78.625 75.093 75.43 75.47 75.393 74.498 73.533 73.485 74.14 74.678 74.918 74.713 74.21 74.373 77.99 85.04 84.898 84.8 84.88 85.023 89.753 92.12 92.037 83.422 86.462 88.245 93.48 94.38 94.367 94.482 94.33 94.365 94.422 94.417 94.347 94.355 88.47 86.515 86.51 86.517 86.042 82.582 80.817 79.462 76.385 73.872 72.615 71.63 69.897 68.607 68.577 68.587 69.597 74.73 85.115 117.632 119.567 119.555 119.587 119.947 124.065 123.605 123.53 123.512 123.617 122.37 120.162 121.155 119.52 119.79 111.567 72.5 72.512 72.542 72.505 72.452 72.462 72.445 72.45 72.43 72.385 71.655 78.022 80.65 81.322 83.947 83.965 84.027 84.037 83.865 81.967 80.582 80.622 82.475 80.237 78.057 73.367 78.632 76.627 76.617 72.075 69.447 69.192 85.062 88.212 88.322 90.897 92.322 92.347 91.24 88.37 88.34 88.382 88.477 78.455 68.115 64.86 64.732 64.63 63.485 59.625 59.61 59.74 59.672 59.792 62.765 60.862 67.72 72.037 82.382 82.417 84.9 85.797 85.862 85.742 85.622 81.862 68.34 63.455 63.72 60.36 57.41 57.422 57.56 57.765 57.985 57.272 68.482 65.11 61.52 57.125 57.96 56.74 56.655 56.58 56.575 56.482 56.542 56.69 58.637 59.342 57.377 63.297 60.112 64.515 64.472 61.265 58.17 58.695 56.857 57.727 56.532 57.087 55.377 55.892 55.177 55.087 55.1 55.107 55.142 55.142 55.132 55.1 55.357 55.385 55.66 55.332 55.097 55.282 55.872 55.042 55.127 55.815 55.385 55.072 54.405 54.212 54.1 54.635 54.155 56.102 57.622 59.195 58.682 58.355 60.2 60.127 59.947 59.662 59.675 56.482 53.965 53.912 53.892 53.805 55.785 57.95 60.02 57.63 53.317 64.197 65.695 66.37 65.095 61.842 54 53.185 53.02 52.815 52.617 52.465 53.052 55.767 55.2 54.275 52.017 52.075 52.147 62.997 65.892 65.917 65.967 64.962 52.047 51.987 51.937 51.85 51.695 51.652 51.59 51.677 51.405 51.647 54.225 63.002 65.432 65.45 65.455 60.475 51.575 51.655 53.885 56.335 58.922 56.41 57.012 56.035 55.572 55.65 55.97 51.875 51.787 51.805 51.742 51.687 51.72 52.987 52.897 51.752 51.767 56.705 57.25 58.497 52.372 55.515 58.402 60.172 55.582 52.775 51.842 51.74 51.735 51.755 52.097 52.657 54.015 54.36 54.54 54.61 54.677 54.427 53.285 50.995 50.575 49.342 49.035 50.75 51.925 51.212 56.422 56.49 56.33 55.752 54.325 53.755 58.007 59.77 59.855 59.925 52.882 49.62 50.78 53.282 52.585 48.95 48.947 48.96 48.975 48.93 48.935 49.19 49.255 50.317 50.337 50.31 50.095 47.89 47.515 47.512 48.21 49.637 49.94 49.687 49.952 50.262 50.14 50.132 50.117 50.11 50.142 50.805 52.792 54.132 57.092 58.362 58.09 58.03 58.017 58.05 57.992 57.98 58.005 58.045 57.792 57.802 57.835 57.857 56.805 54.757 55.24 51.277 48.147 48.827 47.662 47.572 50.04 47.512 50.422 48.49 47.995 50.39 53.502 54.172 48.125 50.077 50.487 48.712 49.905 47.187 47.277 47.247 48.792 50.805 49.75
77.75 77.665 77.615 77.59 77.573 77.53 77.483 77.41 77.378 77.318 77.26 77.258 77.25 77.288 77.015 76.42 76.045 75.745 75.578 76.765 77.603 78.42 75.788 74.97 74.855 74.79 74.68 74.525 74.47 74.39 74.265 74.153 74.065 73.878 73.728 73.623 73.578 73.518 73.56 75.273 75.198 73.88 73.848 73.935 74.638 75 75.975 77.105 75.638 78.105 76.728 74.798 75.4 75.503 75.43 75.028 73.935 73.645 74.333 74.545 74.468 74.048 74.38 74.505 75.223 81.483 84.948 84.835 84.835 84.95 86.79 91.598 93.077 83.057 87.172 86.685 92.522 94.335 94.295 94.335 94.33 94.522 94.365 92.762 94.392 93.137 93.255 86.495 85.8 82.74 83.895 79.31 76.612 73.495 72.362 71.47 71.592 69.985 70.362 69.587 70.15 71.192 71.377 74.55 80.367 100.552 119.595 119.532 119.525 119.595 123.117 123.472 123.49 123.507 123.5 123.567 120.327 120.025 119.592 119.832 119.76 89.955 72.44 72.472 72.412 72.495 72.452 72.41 72.41 72.385 72.382 71.685 76.165 80.65 80.64 83.56 83.945 82.587 81.415 80.805 82.252 83.39 87.512 87.935 72.91 67.942 70.767 75.517 76.677 76.61 76.397 69.347 69.487 75.52 88.267 88.195 89.292 92.335 92.332 92.33 89.435 88.367 88.455 88.367 88.48 69.73 66.302 64.91 65.357 64.345 60.277 59.815 59.7 59.782 59.715 62.367 63.132 68.91 72.047 80.335 82.435 84.767 85.752 85.857 85.787 85.68 83.847 72.79 65.47 65.622 62.865 57.537 57.375 58.555 57.43 57.942 57.217 57.31 58.12 57.475 57.07 58.875 56.855 57.405 57.567 61.375 57.947 58.102 59.947 60.332 61.775 61.13 61.107 65.427 59.892 60.567 61.85 62.127 62.19 57.117 56.725 56.317 55.17 55.12 55.255 55.545 55.707 60.605 74.512 55.177 55.145 55.165 55.165 55.1 55.057 55.142 55.877 55.14 55.587 55.407 55.08 55.107 55.362 55.07 54.62 57.285 57.035 59.96 59.645 59.77 60.52 60.175 59.83 59.662 59.68 59.665 59.647 59.655 59.677 59.642 59.31 54.012 53.962 53.915 53.86 55.405 56.49 61.907 55.95 53.43 61.807 65.275 66.43 65.54 63.075 55.875 53.215 53.05 52.882 52.675 52.487 53.982 55.157 56.16 54.76 52.357 52.032 52.01 57.925 65.94 65.952 65.932 65.967 55.495 52.007 51.972 51.867 51.727 51.69 51.61 51.462 51.445 51.522 52.217 61.497 65.427 65.43 65.445 65.26 53.265 51.685 52.265 55.145 57.847 56.527 59.22 58.392 56.285 57.157 54.887 51.835 51.787 51.825 51.755 51.69 52.33 51.785 53.84 56.875 57.605 56.49 54.74 56.072 55.98 57.84 54.955 59.36 53.525 51.74 51.755 52.725 52.832 54.342 54.347 53.49 54.772 52.925 54.555 56.365 56.635 56.097 55.175 50.837 51.557 49.485 48.212 49.112 51.9 51.2 54.407 57.085 56.25 55.777 54.6 53.515 57.497 59.84 59.802 59.832 55.477 50.615 51.585 53.36 51.382 51.27 48.912 48.905 48.965 48.945 48.952 49.81 49.002 49.795 50.35 50.29 50.267 48.925 47.475 47.47 47.98 49.645 50.232 49.732 50.117 50.205 50.272 50.35 50.237 50.352 52.44 56.617 58.35 58.092 58.23 58.255 58.137 58.017 57.992 57.98 58.017 58.012 58.012 58.03 57.935 57.88 57.205 53.65 50.882 48.892 49.982 48.42 47.792 47.665 48.207 48.097 48.66 51.237 48.48 48.657 48.375 51.035 49.732 50.06 49.927 50.63 50.73 52.69 50.322 51.5 50.517 47.352 46.94 46.795 48.732
78.133 77.715 77.67 77.508 77.513 77.523 77.498 77.458 77.425 77.373 77.295 77.235 77.198 77.228 77.218 77.015 76.508 77.26 77.505 77.438 78.103 77.8 75.23 75.083 74.97 74.91 74.863 74.775 74.62 74.513 74.413 74.325 74.138 73.978 73.87 73.743 73.658 73.605 73.645 74.348 75.698 74.248 74.068 74.088 74.268 75.913 78.66 75.39 77.26 79.535 78.06 76.638 75.263 75.43 75.415 75.375 75.008 74.933 75.038 74.823 74.218 73.988 74.093 74.465 74.46 78.718 85.008 84.86 84.795 84.903 85.038 90.428 92.83 91.307 86.587 86.522 87.895 94.375 94.337 94.355 93.465 92.915 94.4 94.425 93.497 90.657 85.305 82.065 80.745 78.48 76.095 72.617 72.3 71.765 71.185 71.337 73.01 72.282 71.995 70.345 71.727 71.78 71.505 68.982 77.887 90.127 119.557 119.51 119.522 119.572 121.375 123.46 123.482 124.06 123.49 123.72 120.685 119.775 119.577 119.55 119.662 94.732 72.105 72.417 72.465 72.407 72.385 72.38 72.425 72.34 72.417 72.037 72.305 80.317 80.647 81.21 81.11 80.775 84.085 86.317 88.022 88.542 88.505 88.522 71.45 64.795 65.742 72.355 74.905 76.622 76.63 71.832 69.382 72.737 88.022 88.215 88.445 91.407 92.325 92.33 90.492 88.295 88.33 88.397 88.447 78.562 68.015 64.992 65.045 64.742 61.607 59.78 59.692 60.062 59.777 60.675 65.58 66.832 70.997 77.24 82.392 83.125 85.702 85.827 85.862 85.73 83.717 77.095 67.982 67.77 65.512 58.155 57.457 57.79 57.532 57.307 57.227 57.237 57.212 57.172 61.655 62.825 63.247 58.297 60.747 61.16 59.032 60.41 58.77 62.17 61.965 58.94 62.63 60.65 57.765 61.355 62.275 59.987 59.122 55.267 55.212 56.69 55.387 55.137 55.247 55.34 80.05 91.545 94.527 70.002 55.217 55.182 55.15 55.765 55.445 55.68 57.232 55.215 55.632 55.092 55.15 55.332 54.995 55.792 54.382 58.63 59.73 59.685 59.675 59.677 59.685 59.657 59.667 59.677 59.655 59.642 59.632 59.675 59.63 59.625 60.897 54.025 53.982 53.952 53.902 53.872 53.877 55.26 58.125 53.645 55.955 64.812 66.202 65.985 64.607 57.87 53.21 53.135 52.97 52.752 52.57 54.807 53.875 54.082 56.372 53.067 52.012 52.06 57.652 64.502 65.95 65.922 65.937 59.75 52.065 51.987 51.835 51.757 51.72 51.562 51.46 51.457 51.497 51.965 58.597 63.232 65.412 65.47 65.51 56.32 51.735 51.695 55.335 55.672 55.61 53.925 54.505 56.21 56.255 54.072 51.787 51.772 51.792 51.775 51.707 51.78 51.815 51.81 57.037 60.052 57.895 51.777 54.4 56.68 59.092 56.782 56.63 54.482 54.227 54.28 54.025 52.665 55.097 56.892 59.257 58.517 56.907 53.745 55.427 55.595 56.177 55.72 51.37 51.6 50.582 48.332 48.837 50.53 50.757 52.17 56.39 56.287 55.867 55.592 54.147 57.427 58.772 60.187 60.25 57.222 50.407 49.525 49.937 51.55 51.57 49.36 48.887 48.907 48.93 48.905 49.435 49.027 49.48 50.35 50.302 50.385 50.19 47.77 47.492 49.127 50.082 50.307 50.285 50.342 50.372 50.52 51.75 55.337 56.67 58.355 58.24 58.247 58.227 58.2 58.185 58.282 58.07 58.025 57.28 58.032 58.09 58.08 58.012 57.377 54.807 52.56 48.685 47.932 47.932 48.162 47.905 47.742 48.612 47.925 51.91 48.2 49.915 49.2 50.795 47.727 48.54 48.32 47.77 48.095 47.247 49.03 49.157 50.065 50.097 49.042 47.002 46.88 48.505 49.055
78.068 78.058 77.75 77.653 77.508 77.458 77.465 77.453 77.428 77.42 77.355 77.285 77.218 77.133 77.193 77.193 77.343 79.785 80.17 79.115 76.803 75.52 75.42 77.51 78.523 75.078 74.935 74.858 74.72 74.62 74.533 74.4 74.29 74.09 73.958 73.858 73.82 73.79 73.72 74.008 78.168 79.265 76.278 74.305 74.37 74.73 76.268 76.65 78.05 80.338 79.033 75.475 75.17 75.255 75.41 75.378 75.233 75.115 75.043 74.783 74.16 73.988 73.983 74.438 74.485 75.325 85.095 84.933 84.805 84.85 84.973 86.108 93.862 94.6 83.085 86.55 86.792 93.447 94.352 94.377 93.507 91.102 91.162 87.012 83.947 79.972 80.79 77.075 74.545 72.935 72.515 72.102 71.295 71.165 72.007 74.132 74.715 74.662 72.58 70.78 71.442 71.737 71.757 70.802 71.91 85.085 118.205 119.535 119.537 119.575 119.56 123.44 123.507 123.192 122.435 120.61 119.567 119.542 119.877 119.537 119.635 119.735 69.917 72.18 72.387 72.347 72.372 72.43 72.317 73.535 75.015 79.047 79.762 80.617 81.067 82.075 85.022 88.597 88.985 88.922 88.567 88.502 88.477 88.56 79.71 65.817 64.877 69.01 76.635 76.62 76.602 74.76 68.74 69.345 82.555 88.255 88.215 90.022 92.317 92.335 92.307 88.72 88.295 88.327 88.372 84.462 68.315 65.622 65.002 65.602 63.465 59.88 59.832 59.912 59.867 59.892 65.09 64.562 70.407 73.252 78.86 82.402 85.18 85.775 85.87 85.38 84.267 82.052 69.652 67.805 67.78 59.64 57.597 57.512 57.447 57.43 57.347 57.33 57.365 60.565 62.537 65.71 66.097 64.122 61.927 63.75 59.775 60.35 58.832 57.405 57.27 58.655 61.807 62.877 58.897 57.597 57.682 56.277 55.397 55.285 55.24 56.015 56.057 55.522 56.922 69.385 78.76 95.922 95.802 86.885 55.257 55.22 56.65 55.347 55.19 56.7 55.465 55.417 56.067 55.14 55.16 56.16 55.12 55.012 54.297 58.075 59.887 59.645 59.655 59.672 59.657 59.63 59.642 59.642 59.63 59.62 59.607 59.602 59.582 59.607 59.697 54.865 53.987 53.985 53.972 53.912 53.887 53.997 55.177 53.862 53.822 63.02 65.72 66.307 65.025 58.767 53.197 53.317 53.025 52.867 52.687 54.027 54.242 54.615 53.175 52.025 52 52.087 52.535 64.585 65.925 65.94 64.677 59.407 52.007 51.897 51.775 51.695 53.077 52.39 51.522 51.462 51.457 51.747 57.087 63.015 65.47 65.492 65.515 59.775 51.672 51.655 52.585 54.067 53.197 52.262 51.987 51.825 52.142 51.907 51.782 51.81 51.795 51.687 51.715 51.802 51.965 52.762 54.807 56.922 59.012 53.94 53.79 55.637 58.075 55.91 57.44 54.552 52.64 52.462 52.08 52.322 57.552 59.837 59.78 59.43 57.617 55.397 55.142 55.845 56.125 56.3 53.277 50.745 50.575 48.565 48.657 50.367 50.565 51.125 55.792 56.295 56.07 55.342 52.905 55.742 58.667 59.777 59.82 59.995 52.35 49.497 50.26 50.302 51.635 48.837 48.872 48.91 48.9 48.83 48.9 49.332 49.01 50.237 50.317 50.402 50.305 49.432 50.132 50.305 50.362 50.392 50.532 51.437 55.245 57.29 57.012 58.535 58.422 58.255 58.227 58.217 58.2 58.205 58.242 58.24 58.11 58.042 58.067 56.542 56.012 53.057 53.44 52.455 50.32 48.065 51.22 48.01 51.527 51.822 48.207 47.652 49.577 50.82 53.26 52.072 50.962 53.167 50.537 48.555 47.57 47.495 47.397 47.292 47.205 47.105 47.57 49.182 48.88 48.785 46.915 46.855 46.847 46.83
78.05 78.105 77.813 77.788 77.585 77.483 77.413 77.405 77.415 77.423 77.378 77.285 77.28 77.19 77.125 77.128 77.158 77.818 79.51 79.528 75.858 75.668 75.845 78.58 79.203 77.008 75.163 74.985 74.815 74.735 74.595 74.523 74.405 75.183 76.408 74.82 73.988 73.945 73.873 77.948 82.62 83.208 82.195 76.333 75.518 76.135 74.848 75.993 76.428 76.98 78.628 76.198 75.013 75.053 75.253 75.298 75.173 74.99 74.793 74.51 74.188 73.958 73.998 74.373 74.488 74.365 81.09 84.983 84.845 84.815 84.913 85.67 92.27 91.77 87.325 84.142 86.627 90.622 94.357 93.415 90.427 85.087 81.007 81.55 77.812 75.232 73.21 73.19 72.71 71.827 71.565 71.46 71.302 71.117 70.947 73.125 73.372 74.72 73.47 71.402 70.912 71.735 71.75 71.595 70.265 80.742 112.802 119.567 119.54 119.552 119.575 122.13 121.322 119.84 119.567 119.56 119.697 119.572 119.69 119.535 119.537 119.685 91.832 71.65 72.347 72.367 72.137 73.862 73.662 78.667 80.59 80.565 80.71 84.157 87.78 89.075 88.965 88.927 88.925 88.922 88.775 88.485 89.187 89.905 90.832 69.022 64.69 66.397 76.665 76.655 77.045 77.21 70.17 73.427 82.66 88.295 88.22 88.757 92.33 92.325 92.315 90.51 88.297 88.31 88.357 87.922 74.437 67.435 64.875 65.102 65.25 60.777 59.952 59.942 59.935 59.962 61.495 63.635 64.985 68.39 76.79 82.382 83.485 85.025 84.482 84.535 84.647 83.062 78.51 69.142 67.752 63.482 57.71 57.595 57.607 57.542 57.502 58.767 57.915 58.635 60.765 66.445 63.9 61.292 57.36 60.552 57.347 57.435 57.14 57.097 58.182 58.14 61.355 61.552 57.967 56.697 57.835 57.02 57.812 56.34 55.262 55.452 64.547 75.572 88.572 95.9 95.852 93.317 86.215 96.125 55.262 55.252 55.252 55.382 56.502 55.795 55.31 55.212 55.302 55.217 55.177 55.26 55.197 54.927 54.352 56.437 59.895 59.622 59.625 59.632 59.627 59.617 59.602 59.607 59.597 59.587 59.597 59.595 59.562 59.585 60.07 57.63 54.032 54.015 53.962 53.955 53.927 54.037 54.02 53.96 53.47 59.372 65.262 66.38 63.795 60.315 53.167 56.867 54.412 55.212 52.775 52.647 52.485 53.957 52.255 52.117 51.992 52.105 52.295 61.262 61.685 56.435 54.372 52.425 51.932 51.8 51.722 51.705 54.452 55.905 52.11 51.515 51.455 51.695 52.93 61.087 65.467 65.47 65.47 63.452 52.107 51.66 51.632 51.65 51.885 51.705 51.68 51.805 51.91 51.89 51.777 51.797 51.812 51.707 53.41 52.167 53.83 53.487 53.245 54.057 53.9 54.7 54.967 55.185 55.652 55.197 55.417 52.447 52.112 51.112 52.09 52.167 53.08 59.845 59.792 59.772 57.925 54.732 54.98 55.857 56.195 55.997 53.505 50.507 50.952 49.31 48.225 49.555 50.625 51.587 54.895 55.892 55.66 55.555 54.485 56.582 58.162 59.67 59.78 59.872 53.682 50.457 50.247 49.67 49.145 48.897 48.835 48.85 48.907 48.88 48.822 48.935 48.98 50.15 50.317 50.3 50.295 50.287 50.297 50.3 50.485 51.845 53.382 57.87 58.507 58.51 58.47 58.457 58.495 58.242 58.217 58.237 58.225 58.257 58.277 58.285 58.265 57.872 56.592 51.667 49.735 48.812 48.225 48.465 48.035 48.012 50.4 51.612 55.36 50.255 49.16 47.83 49.14 52.627 49.757 53.05 47.817 51.025 48.635 47.795 47.782 47.75 47.692 47.645 47.565 47.427 48.682 48.817 48.2 48.785 46.94 46.935 46.945 46.945
78.088 78.018 77.82 77.665 77.605 77.548 77.408 77.373 77.385 77.425 77.403 77.345 77.275 77.268 77.218 77.12 77.71 77.135 77.415 77.218 76.175 75.915 77.105 76.385 77.673 77.243 75.31 75.033 74.89 74.76 75.145 75.28 78.365 78.495 78.205 79.123 77.343 74.123 74.328 78.883 82.268 81.988 81.805 76.865 74.648 75.063 76.618 75.433 75.073 77.538 79.108 75.08 74.865 74.98 75.073 75.088 75.103 74.885 74.515 74.213 74.528 73.998 74.065 74.42 74.463 74.47 79.098 85.03 84.913 84.8 84.875 85.03 88.195 85.715 83.657 85.685 86.602 87.28 88.692 85.722 80.85 78.9 74.967 73.362 72.772 72.987 72.735 72.195 71.92 71.752 71.61 71.447 71.26 71.077 70.927 73.302 73.082 74.417 72.382 70.152 70.24 71.302 71.78 71.622 69.65 75.11 93.547 119.595 119.582 119.55 119.58 119.615 119.61 119.627 119.59 119.672 119.617 119.52 119.522 119.595 119.532 119.645 106.26 70.705 74.812 75.33 78.502 78.027 80.815 80.642 82.04 85.83 89.172 89.397 89.27 88.935 88.91 88.905 88.9 88.905 88.912 88.822 91.02 90.987 91.102 75.177 64.667 66.602 73.255 77.357 78.34 78.307 74.382 79.76 86.06 88.592 88.785 89.227 90.335 92.317 92.32 91.187 88.307 88.302 88.35 88.39 81.625 68.11 65.337 65.065 65.567 62.772 60.082 60.077 60.07 60.07 60.985 60.675 61.725 67.257 72.107 81.61 82.417 83.84 84.325 83.822 82.882 82.442 81.07 72.667 67.765 67.41 59.04 57.792 57.705 57.677 57.825 58.55 62.21 59.132 58.502 58.207 58.03 57.69 57.54 57.582 57.667 57.74 58.547 58.122 57.965 58.467 61.8 62.055 57.897 56.922 56.575 59.205 58.177 58.222 55.915 55.257 71.767 95.84 95.892 94.725 98.385 97.987 95.87 95.857 72.775 55.407 55.375 55.335 56.915 57.52 55.802 55.837 55.22 55.26 55.537 55.377 55.44 56.187 57.827 54.177 60.07 59.595 59.6 59.587 59.61 59.572 59.59 59.602 59.595 59.602 59.6 59.61 59.575 59.58 59.57 59.105 54.387 54.3 54.005 53.932 53.93 54.047 54.067 54.04 53.742 58.627 64.72 63.79 56.337 54.935 54.072 54.417 57.635 54.957 52.832 52.692 52.545 52.417 52.35 52.172 51.965 51.99 52.072 52.857 52.575 52.027 51.997 52 51.99 51.8 51.817 52.207 53.15 57.387 52.76 51.582 51.465 51.497 51.65 60.252 65.457 65.465 65.645 65.51 57.342 52.045 51.645 51.665 51.717 51.75 51.807 51.852 52.007 51.862 51.775 51.825 51.79 51.75 52.385 53.565 53.977 54.28 54.887 54.487 52.99 54.992 55.58 55.16 55.08 55.145 55.517 53.3 50.14 50.01 51.975 52.37 52.182 59.852 60.547 59.907 58.11 57.337 54.837 55.41 55.677 55.782 54.537 50.647 51.167 50.012 48.235 49.39 51.092 51.217 52.9 55.81 55.62 55.56 55.345 54.465 57.305 59.7 60.39 59.91 57.27 49.872 49.482 49.445 49.245 48.905 48.78 48.845 48.857 48.837 48.82 48.905 48.942 49.69 50.312 50.297 50.32 50.285 50.567 50.442 50.467 57.627 58.502 58.492 58.467 58.467 58.46 58.442 58.527 58.342 58.212 58.265 58.262 58.285 58.347 58.09 56.547 53.82 49.647 48.345 48.177 48.132 48.107 48.08 50.722 52.517 52.162 52.092 51.24 50.98 50.93 51.747 50.627 50.44 48.552 49.777 52.792 53.147 47.795 47.787 47.805 47.765 47.737 47.655 47.562 47.437 49.34 49.79 47.145 47.632 47.105 47.08 47.112 47.095
81.745 77.93 77.435 77.683 77.64 77.588 77.525 77.423 77.348 77.388 77.383 77.358 77.31 77.278 77.258 77.23 78.005 78.558 77.24 77.198 77.13 76.408 76.878 77.015 77.31 76.625 75.295 75.16 75.023 75.783 79.238 75.265 77.968 78.26 80.51 79.463 81.518 79.97 76.118 78.153 80.673 82.973 78.62 76.795 74.86 76.675 75.1 75.62 78.743 77.688 76.968 74.838 74.84 74.78 74.668 74.665 74.595 74.27 74.163 75.013 74.02 74.053 74.34 74.418 74.478 74.488 74.53 84.213 84.953 84.808 84.813 84.96 82.735 80.97 81.137 78.895 82.842 83.567 80.63 80.05 75.085 73.177 73.032 72.927 72.9 72.425 72.227 72.095 71.947 71.8 71.582 71.417 71.2 71.05 70.862 70.69 71.367 71.997 71.03 70.127 69.917 70.697 71.77 71.767 70.147 72.682 83.362 112.762 119.59 119.53 119.537 119.542 119.937 120.815 120.26 119.582 119.522 119.54 119.522 120.242 121.2 120.645 117.39 80.877 78.927 80.362 80.715 81.505 83.897 86.942 88.52 89.34 89.32 89.315 89.32 89.007 88.94 88.857 88.875 88.897 88.95 88.79 90.297 89.635 88.435 81.232 66.652 65.277 68.502 79.172 78.227 77.42 77.215 85.895 88.64 88.582 88.297 88.272 89.565 92.302 91.895 89.11 88.292 88.29 88.32 88.372 86.165 70.082 65.585 63.805 62.14 60.315 60.21 60.207 60.2 60.192 60.477 60.472 60.322 64.402 68.392 80.077 82.397 82.407 82.7 82.45 82.43 82.415 82.362 80.87 68.347 67.757 63.187 57.897 57.807 58.205 59.162 63.027 62.54 61.9 60.057 58.162 57.995 57.862 57.877 57.99 58.237 58.385 59.895 59.462 58.885 59.257 60.65 62.177 66.702 59.402 61.245 61.57 59.992 59.097 56.042 55.307 73.952 93.322 95.875 98.412 100.342 99.795 87.237 95.72 90.875 55.37 55.31 55.362 55.705 57.155 55.752 56.21 55.345 55.272 56.127 55.905 55.522 55.515 55.227 54.372 60.275 59.585 59.597 59.592 59.597 59.582 59.59 59.595 59.577 59.575 59.547 59.57 59.555 59.545 59.57 59.662 54.015 54.037 54.02 53.962 53.98 54.065 54.352 54.14 54.21 61.982 64.377 63.705 59.715 54.937 53.73 57.515 55.575 53.075 52.907 52.772 52.567 52.457 52.347 52.137 52.007 51.987 52.015 52.092 52.1 52.132 52.102 52.05 52.005 52.36 52.402 54.377 56.482 55.08 53.735 51.707 51.505 51.507 51.617 54.742 65.487 66.655 67.355 66.815 59.787 52.477 51.69 51.707 51.732 51.805 51.835 51.895 51.965 52.047 52.007 51.827 51.795 51.745 51.8 52.022 54.44 57.695 58.292 56.912 54.725 54.377 55.587 55.027 55.05 55.09 55.357 54.052 51.477 50.812 51.682 52.165 52.087 57.845 59.817 59.77 59.445 57.177 55.002 55.407 55.815 56.7 56.132 51.877 51.3 50.572 50.607 51.272 50.615 50.787 51.692 55.602 55.65 55.595 55.275 51.992 58.02 59.045 59.812 59.817 58.64 50.572 49.45 49.55 49.555 48.942 49.17 48.997 48.837 48.842 48.805 48.772 48.9 49.325 50.105 50.325 50.32 50.287 50.325 50.335 50.302 54.355 58.467 58.46 58.49 58.485 58.455 58.47 58.48 58.497 58.285 57.717 56.72 55.26 52.977 52.417 52.522 49.92 49.037 48.417 48.2 48.1 48.1 49.272 51.357 53.135 53.442 53.597 50.48 50.86 50.992 51.795 51.395 51.29 52.337 54.937 52.185 49.557 47.68 47.63 47.522 47.437 47.39 47.332 47.25 47.262 47.257 47.24 47.487 47.78 47.01 46.01 43.472 43.615
85.843 81.36 77.535 77.598 77.67 77.585 78.283 77.563 77.453 77.355 77.313 77.313 77.343 77.32 77.303 77.265 77.225 78.073 79.288 77.455 77.17 77.12 76.485 76.05 75.795 75.638 75.505 75.35 75.235 75.81 78.265 80.873 83.418 79.94 78.938 81.818 76.653 78.41 76.773 74.475 78.228 80.118 77.375 75.018 75.065 75.09 75.2 75.205 75.12 75.265 75.638 75.838 74.62 74.375 74.465 74.288 74.183 76.81 77.128 76.245 74.438 74.233 74.423 74.445 74.463 74.498 74.478 78.015 85.005 84.875 84.79 84.918 83.03 80.602 81.31 79.235 79.662 76.892 73.95 73.502 73.12 73.12 72.997 72.75 72.627 72.452 72.297 72.145 71.987 71.797 71.585 71.392 71.19 71.012 70.782 70.557 70.402 70.195 70.032 69.942 69.865 69.445 71.727 71.805 71.682 69.43 77.687 101.402 119.555 119.577 119.565 119.545 120.727 122.852 120.962 119.545 119.535 119.522 119.562 118.712 122.52 122.237 113.625 97.932 80.797 82.29 86.842 89.517 89.362 88.812 89.31 89.292 89.282 89.28 89.312 89.24 89.14 88.857 88.84 88.892 88.922 88.89 88.515 88.48 88.485 88.527 76.757 64.715 65.382 77.082 77.785 79.392 84.19 87.007 88.517 89.017 88.305 88.907 92.502 92.285 92.34 88.265 88.252 88.282 86.825 81.827 80.407 71.935 61.455 60.615 60.515 60.4 60.425 60.317 60.315 60.31 60.79 61.92 60.342 61.165 68.727 77.057 82.39 82.397 78.767 82.407 82.43 82.4 82.4 82.372 71.092 66.51 63.14 58.085 59.212 59.417 62.867 63.595 62.727 62.475 62.087 58.855 58.337 58.157 58.352 58.655 59.087 59.817 59.372 59.535 59.397 60.507 59.982 66.48 62.91 59.762 57.885 56.972 59.507 60.985 57.837 55.312 56.485 87.145 95.82 97.477 100.43 100.39 97.415 79.807 92.9 56.747 55.377 55.35 55.455 56.387 55.4 55.72 55.367 55.337 55.597 56.99 55.467 57.225 55.86 55.312 60.797 59.57 59.557 59.597 59.59 59.585 59.57 59.595 59.572 59.56 59.552 59.555 59.552 59.585 59.557 59.757 54.02 54.065 54.022 53.935 53.995 54.077 55.142 54.41 54.237 58.817 63.972 64.132 61.54 55.095 53.227 54.322 54.817 54.192 53.955 52.772 52.6 52.452 52.347 52.237 52.105 52.13 52.15 52.065 52.15 52.107 52.135 52.102 53.335 57.892 54.072 53.52 55.89 53.412 55.807 51.785 51.575 51.562 51.595 52.112 64.307 66.895 66.927 66.372 65.187 51.717 51.712 51.72 51.73 51.747 51.812 51.875 51.972 52.685 52.5 51.8 51.872 52.297 51.862 52.015 58.482 59.902 59.752 58.46 57.355 54.272 55.425 55.332 56.015 55.702 55.812 54.77 52.582 53.177 52.75 52.062 52.1 53.305 59.87 59.792 59.432 57.535 56.052 55.177 55.532 55.61 56.092 52.685 51.497 51.78 51.272 51.735 50.727 51.75 52.015 55.402 55.705 55.582 55.54 53.12 55.447 58.205 59.77 59.8 59.885 52.36 49.637 49.752 49.675 49.24 49.05 49.705 48.81 48.802 48.8 48.735 48.817 48.907 49.742 50.22 50.63 50.29 50.317 50.297 50.282 52.1 58.532 58.452 58.447 58.482 57.197 58.52 58.507 58.302 57.412 55.537 52.255 49.292 48.54 48.37 48.312 52.237 53.332 50.072 50.937 48.132 48.135 48.637 49.477 49.682 51.812 51.705 47.76 48.845 52.09 50.402 51.217 49.33 51.092 51.952 56.827 53.71 50.517 47.37 47.37 47.37 47.335 47.552 47.712 45.747 45.347 43.785 42.547 41.382 40.2 39.867 39.385 39.312
87.853 86.193 80.533 78.483 77.738 77.673 77.845 78.19 78.1 77.403 77.33 77.283 77.31 77.348 77.348 77.288 77.258 77.178 77.585 77.453 77.118 77.155 77.185 76.898 76.23 75.925 75.725 76.718 76.275 77.143 78.15 79.76 80.298 77.56 81.053 85.358 85.068 79.188 80.185 74.463 78.325 77.285 75.948 75.945 75.245 75.258 75.418 75.415 75.265 75.34 75.523 74.96 75.973 74.225 74.385 74.318 74.108 76.165 75.48 74.59 73.975 74.113 74.263 74.488 74.518 74.578 74.635 76.573 85.093 84.925 84.81 84.843 85.02 79.79 78.017 77.705 72.942 73.565 73.695 73.39 73.235 73.097 72.952 72.82 72.722 72.522 72.36 72.202 72 71.81 71.667 71.48 71.252 71.035 70.765 70.55 70.302 70.09 69.927 69.742 69.757 69.745 71.055 71.787 71.737 70.597 70.12 93.952 111.337 119.542 119.505 119.535 119.56 120.975 119.827 119.71 119.555 118.735 112.592 100.625 122.285 122.857 114.34 92.197 86.33 89.49 89.425 89.35 89.3 89.305 89.29 89.265 89.252 89.247 89.3 89.27 88.94 88.907 88.885 88.897 88.91 88.942 88.647 88.5 88.54 88.525 81.967 65.617 65.245 79.032 85.962 88.22 88.515 88.937 88.852 89.027 88.375 88.567 91.63 92.265 90.885 88.722 84.547 81.737 79.012 70.16 62.425 61.152 61.392 62.065 61.412 60.945 60.65 60.465 60.472 60.4 60.487 61.322 60.365 60.48 66.332 73.54 81.685 82.4 82.417 82.392 82.445 82.44 81.987 77.555 65.547 59.16 58.305 60.902 61.312 60.71 63.942 63.205 61.945 60.175 59.542 59.007 58.71 58.86 59.235 59.93 60.665 60.705 60.422 60.57 59.822 60.4 65.745 65.662 67.04 64.745 60.652 61.225 60.7 58.697 57.395 55.477 55.325 83.185 93.43 96.375 100.092 100.175 90.322 95.857 95.855 70.035 55.31 55.352 55.417 56.692 55.375 56.367 55.402 55.415 56.007 56.205 57.322 57.565 55.58 55.715 57.302 59.592 59.55 59.542 59.57 59.567 59.562 59.557 59.555 59.542 59.552 59.575 59.555 59.542 59.565 58.885 54.265 54.097 54.817 53.992 54.02 54.062 54.682 54.747 54.315 55.952 63.525 64.352 62.382 55.405 54.332 53.227 53.195 53.18 52.985 52.785 52.635 52.577 52.557 52.55 52.477 52.527 52.295 52.077 52.152 52.775 52.3 52.132 53.837 55.88 54.045 57.362 56.492 52.31 54.52 51.79 51.652 51.612 51.562 51.795 56.262 65.535 65.46 65.462 65.487 54.107 51.677 51.702 51.752 51.772 51.82 51.885 51.952 52.12 52.187 51.795 51.815 52.622 51.89 51.967 55.175 59.832 59.74 59.777 57.7 54.72 55.087 55.175 55.635 55.26 52.805 52.172 52.447 52.552 52.785 52.192 52.33 54.295 59.882 60.615 59.875 58.445 56.592 54.777 55.54 55.58 56.165 54.96 52.502 53.862 51.032 50.86 50.64 50.64 50.96 54.937 55.967 55.637 55.687 54.925 56.092 57.852 59.902 60.845 59.855 55.48 50.007 49.505 49.9 49.212 49.91 49.195 48.73 48.755 48.757 48.725 48.762 48.85 49.372 49.89 50.42 50.315 50.295 50.29 50.282 50.282 56.102 58.465 58.487 58.495 58.56 58.262 56.14 55.037 54.105 51.72 48.902 48.43 48.365 49.575 50.687 51.14 50.055 52.452 52.035 49.467 48.18 48.732 49.962 52.572 51.49 49.907 48.002 48.925 50.612 51.727 51.38 48.982 49.217 48.472 52.227 48.695 48.15 47.797 44.882 46.607 43.222 43.02 41.467 40.35 39.525 39.432 39.417 39.325 39.24 39.252 39.187 39.107
87.82 85.82 80.025 78.468 77.808 77.73 77.738 77.985 78.065 78.98 78.828 77.328 77.743 77.295 77.318 77.323 77.283 77.268 77.24 77.173 77.11 77.055 77.153 77.185 76.958 76.425 76.073 77.335 76.98 76.678 79.905 81.505 75.645 77.975 81.768 85.553 80.808 78.668 79.295 79.965 75.943 76.633 78.268 76.808 75.97 75.448 75.518 75.735 75.61 75.23 77.023 78.335 74.36 74.145 73.998 73.97 73.965 73.98 74.038 74.138 75.513 75.58 74.16 74.508 74.19 74.363 74.793 75.298 79.788 84.978 84.853 83.233 81.612 77.51 75.62 74.935 74.1 73.705 73.55 73.445 73.317 73.212 73.047 72.89 72.702 72.547 72.382 72.227 72.095 72.102 72.342 72.722 73.032 73.602 72.252 70.747 70.21 70.005 69.805 69.65 69.532 69.54 70.772 71.717 71.127 70.447 69.57 83.912 104.012 119.61 119.642 119.58 119.57 119.912 119.7 114.922 109.107 99.23 93.135 89.852 110.212 123.237 114.755 94.625 89.39 89.32 89.292 89.307 89.285 89.31 89.305 89.27 89.245 89.232 89.267 89.325 89.085 88.91 88.915 88.93 88.94 88.955 88.742 88.527 88.522 88.552 88.577 79.467 86.625 87.96 88.55 88.42 88.585 88.48 88.542 88.372 88.31 88.245 89.477 87.582 84.002 77.892 77.057 68.212 60.92 61.17 63.827 64.132 62.875 62.112 61.327 60.982 60.752 60.635 60.59 60.515 60.45 60.397 60.37 60.435 62.295 68.825 76.85 82.4 82.385 82.4 79.83 75.327 68.58 63.302 59.01 58.452 59.62 63.07 62.67 62.327 63.612 64.177 61.617 64.382 60.282 60.02 59.455 59.592 60.477 61.347 61.81 62.03 61.995 61.247 60.007 59.492 60.73 64.767 60.795 64.66 61.822 57.76 59.965 56.407 56.412 56.09 55.33 59.872 89.292 95.525 99.775 100.407 100.222 96.25 98.49 84.04 58.28 55.37 55.42 55.542 55.482 55.902 55.457 55.487 56.117 57.95 58.297 57.847 59.337 54.27 57.98 60.052 59.54 59.532 59.567 59.565 59.545 59.56 59.562 59.55 59.565 59.552 59.577 59.572 59.57 59.442 56.32 54.132 56.512 54.035 54.05 54.115 54.385 55.09 54.697 54.822 61.912 64.135 63.675 58.677 54.7 53.26 53.225 53.18 53.075 52.985 53.01 53.052 52.975 52.902 52.777 52.685 52.482 52.15 52.127 52.795 52.237 52.202 53.752 55.025 54.085 57.117 55.845 53.847 52.517 53.3 53.002 51.562 51.502 51.725 54.505 65.507 65.462 65.495 65.492 60.502 51.777 51.697 51.77 51.802 51.832 51.86 51.95 52.32 51.812 51.835 51.97 52.077 51.9 52.015 53.127 59.892 60.825 60.172 58.102 55.91 54.7 55.492 55.712 54.912 53.597 52.475 52.615 52.39 52.512 52.252 52.34 53.19 59.05 59.857 59.77 58.452 56.72 54.622 55.555 55.9 56.257 56.3 52.312 52.612 51.18 50.935 50.447 50.737 50.467 53.617 56.115 55.675 55.7 55 53.932 57.522 58.987 59.78 59.85 56.535 49.58 49.457 49.445 49.865 49.33 49.842 49.542 48.745 48.695 48.735 49.475 48.812 49.115 49.522 50.23 50.342 50.315 50.257 50.202 49.97 53.415 58.522 58.567 56.45 54.535 51.15 49.807 49.755 48.725 48.735 48.42 48.34 48.285 48.352 50.577 50.327 51.375 50.005 50.042 49.595 47.96 47.89 50.207 49.73 53.545 52.795 50.435 48.585 51.105 48.065 47.755 48.997 48.737 48.195 48.515 46.04 43.415 41.905 40.095 39.697 39.397 39.325 39.3 39.33 39.282 39.15 39.062 39.007 38.892 38.757 38.487 38.36
87.798 82.035 79.345 78.508 83.318 79.758 78.468 78.953 79.618 78.27 79.473 80.088 81.108 79.385 77.308 77.3 77.298 77.28 77.275 77.26 77.23 77.135 77.063 77.155 77.165 76.985 76.578 77.168 77.915 77.13 80.82 83.79 80.405 80.13 81.503 80.703 78.028 76.745 75.718 76.173 75.158 78.063 78.785 78.228 78.183 75.625 75.675 75.818 76.11 78.15 77.683 78.893 76.273 75.115 74.125 73.98 74.088 74.253 75.9 76.595 76.618 75.77 74.27 73.905 74.1 74.553 74.718 74.333 77.335 84.673 81.285 77.12 74.707 74.295 74.252 74.01 73.85 73.72 73.637 73.517 73.37 73.197 73.077 72.93 72.74 72.64 72.505 72.4 72.547 72.83 72.18 73.39 72.972 73.48 73.397 71.955 70.227 69.907 69.702 69.505 69.345 69.325 69.677 69.71 68.995 68.645 68.707 74.225 95.08 114.93 119.732 119.792 116.962 116.395 112.105 106.315 88.54 80.835 80.61 85.12 101.375 111.212 108.957 93.352 89.512 89.275 89.325 89.51 89.262 89.282 89.312 89.27 89.285 89.272 89.285 89.327 89.257 88.942 88.942 88.867 88.797 88.7 88.5 88.505 88.5 88.537 88.502 88.55 88.477 88.452 88.37 88.387 88.442 88.52 88.37 88.32 88.267 86.402 80.135 79.875 68.625 68.895 63.107 62.81 61.98 62.427 62.867 65.21 63.98 61.62 61.277 61.025 60.875 60.777 60.707 60.66 60.525 60.457 60.417 60.46 61 67.215 69.685 82.155 80.91 71.342 72.755 64.2 61.887 59.522 59.615 60.125 62.187 62.282 59.275 60.272 60.74 60.535 63.095 62.527 64.107 64.625 61.38 60.747 61.447 62.062 62.757 64.28 62.96 61.432 60.172 59.602 59.212 61.255 63.95 61.16 61.882 60.612 58.447 59.595 57.892 57.28 55.362 63.635 95.905 95.897 97.927 100.405 97.895 100.467 100.662 97.357 62.98 55.402 55.935 56.242 55.415 55.467 55.54 55.562 58.977 59.585 59.3 56.242 56.23 54.982 55.557 59.865 59.57 59.56 59.575 59.547 59.577 59.575 59.602 59.572 59.567 59.562 59.572 59.567 59.567 59.582 57.79 54.097 55.145 54.052 54.067 54.135 54.595 55.672 54.292 54.39 58.147 63.945 64.107 60.597 55.722 53.562 53.232 53.217 53.162 53.195 53.197 53.155 53.102 53.145 53.01 52.96 52.895 52.602 52.377 52.472 52.717 52.807 52.947 53.332 55.312 55.645 55.99 52.995 53.212 54.272 53.892 51.68 51.495 51.605 52.425 61.187 65.49 65.472 65.457 62.945 52.267 51.722 51.805 51.812 51.81 51.895 51.927 53.032 51.96 51.82 51.805 51.815 51.927 52.627 52.825 59.875 60.155 60.087 59.217 56.82 54.695 55.002 54.66 54.772 54.59 52.507 52.672 52.575 52.887 53.237 52.07 52.075 55.975 59.82 59.802 58.992 57.412 55.832 55.302 55.89 55.802 55.675 51.71 50.697 50.99 51.887 50.72 51.815 51.095 52.392 56.012 55.72 55.645 55.272 53.22 56.415 58.76 59.785 59.835 59.552 50.992 49.695 50.24 49.472 49.702 50.037 51.007 48.722 48.712 48.717 48.732 48.707 48.787 49.342 49.615 50.49 50.605 50.22 50.24 50.162 50.822 56.692 54.367 50.737 49.89 48.635 48.58 48.86 48.462 52.837 49.362 48.26 50.872 49.497 48.185 49.305 51.85 51.055 49.437 49.627 48.847 47.802 48.375 53.165 50.915 50.735 51.652 53.39 48.242 47.752 47.675 47.68 47.665 47.642 47.995 40.927 39.527 39.482 39.527 39.357 39.327 39.207 39.11 38.935 38.615 38.5 38.262 38.212 38.067 37.997 38 37.972
84.518 81.36 79.645 85.383 90.295 90.35 81.888 77.293 77.318 78.995 80.713 84.605 84.255 81.803 77.32 77.288 77.275 77.293 77.3 77.288 77.268 77.198 77.143 77.1 77.138 77.163 77.125 77.468 76.745 77.238 79.32 78.67 81.58 79.508 79.598 81.398 83.628 80.055 75.233 76.063 75.003 76.415 77.028 76.95 76.155 75.843 75.845 76.018 77.04 79.49 77.735 78.855 78.283 77.56 75.605 75.943 76.973 76.518 78.45 76.665 75.045 74.863 75.04 75.31 76.748 75.583 74.088 74.558 73.855 77.443 76.143 74.965 74.5 74.317 74.205 74.067 73.922 73.792 73.692 73.55 73.412 73.247 73.112 73.282 73.742 73.35 72.987 72.617 72.57 72.6 73.247 73.43 74.087 74.62 72.48 73.342 70.885 69.74 69.542 69.355 69.21 69.107 69.08 68.932 68.782 68.68 68.63 73.15 80.915 116.575 115.86 103.457 106.637 97.575 93.585 89.147 82.022 81.15 81.33 81.38 87.032 95.072 93.657 94.64 91.392 89.307 89.23 89.197 89.27 89.282 89.307 89.302 89.287 89.29 89.315 89.42 89.347 89.045 88.91 88.855 88.502 88.557 88.685 88.5 88.485 88.465 88.447 88.51 88.465 88.422 88.41 88.4 88.42 88.475 88.427 83.447 79.907 82.505 72.915 64.875 66.082 65.727 63.35 63.267 61.905 62.042 62.402 62.515 61.892 61.44 61.265 61.12 60.98 60.885 60.842 60.772 61.165 61.065 60.472 60.425 60.545 64.065 65.647 69.437 65.455 60.207 60.102 60.15 60.185 59.842 60.42 61.302 62.782 60.762 59.857 60.01 60.325 60.85 61.537 66.305 71.137 67.122 63.187 64.107 62.175 62.752 62.897 63.377 63.077 61.852 60.912 60.28 59.555 61.882 64.552 64.415 61.212 64.687 60.717 58.012 57.685 56.935 55.412 55.28 86.93 100.067 100.382 100.665 96.95 99.597 99.81 97.772 75.645 55.345 55.457 55.542 55.475 55.51 55.6 55.545 56.76 58.92 60.392 56.407 57.575 55.87 54.67 60.092 59.567 59.56 59.575 59.592 59.58 59.605 59.602 59.592 59.575 59.575 59.582 59.57 59.56 59.592 58.52 54.345 54.127 54.06 54.092 54.137 54.242 55.45 54.452 54.527 56.767 63.542 64.375 63.21 57.495 54.552 53.407 53.23 53.247 53.332 53.345 53.435 53.41 53.385 53.27 53.215 53.265 53.232 53.242 53.29 53.35 53.935 54.52 53.407 54.237 56.755 56.765 54.162 53.39 53.41 53.172 51.982 51.505 51.525 52.2 60.042 65.505 65.457 65.46 62.842 54.35 51.722 51.797 51.825 51.84 51.89 51.942 52.062 51.885 51.825 51.977 52.07 51.957 52.13 52.322 56.152 59.805 59.78 59.04 57.057 55.2 54.92 54.78 54.63 54.91 52.525 52.68 52.04 52.077 52.837 52.08 52.035 55.395 59.622 60.61 59.972 58.23 55.702 54.94 55.567 55.722 55.972 52.927 51.09 51.207 51.47 50.637 50.525 51.112 51.757 54.832 55.687 55.575 55.565 54.387 54.972 58.48 59.917 60.385 59.885 52.94 49.877 49.485 49.372 50.562 48.842 51.462 49.762 48.7 48.702 48.685 49.477 48.765 50.007 52.04 51.71 54.365 51.957 50.53 49.297 48.782 50.822 50.66 48.657 48.622 48.527 48.477 49.762 51.202 51.817 48.165 48.117 48.587 49.205 49.247 48.352 48.787 49.51 52.005 49.502 49.335 46 46.91 45.187 49.407 47.18 47.157 48.572 47.59 47.735 47.745 47.78 47.715 47.65 47.66 43.32 39.287 39.065 38.735 38.492 38.342 38.2 38.122 38.087 38.065 38.067 38.045 38.027 37.98 37.975 38.005 37.965
81.915 80.2 82.943 89.485 90.973 89.933 88.945 83.71 77.155 77.293 78.375 79.598 79.528 79.918 77.363 77.303 77.278 77.293 77.295 77.318 77.315 77.275 77.215 77.148 77.105 77.103 77.14 77.2 76.88 76.475 76.275 79.54 82.11 80.04 81.335 80.958 80.775 80.58 81.295 76.615 75.163 75.948 76.475 76.135 76.098 76.02 76.063 76.078 76.79 79.213 79.833 79.085 79.613 80.755 76.67 76.458 81.71 83.275 82.78 81.97 75.32 75.428 75.258 76.578 77.165 76.71 75.823 76.265 75.443 75.13 74.798 74.665 74.545 74.395 74.272 74.102 73.962 73.862 73.71 73.592 73.472 73.387 74.085 75.305 73.727 73.17 73.022 72.787 72.975 72.625 73.67 74.312 73.177 74.897 72.835 72.037 71.247 69.622 69.367 69.212 69.08 68.982 68.91 68.81 71.337 72.657 68.665 68.642 79.945 103.312 102.11 90.842 87.942 87.275 86.34 84.55 82.175 82.087 82.352 83.705 93.382 93.327 93.347 93.955 94.542 90.227 89.352 89.245 89.267 89.297 89.422 89.64 89.502 89.392 89.29 89.405 88.707 88.667 88.897 88.767 88.495 88.48 88.482 88.447 88.422 88.402 88.4 88.392 88.525 88.425 88.402 88.497 88.572 83.63 79.227 74.605 70.67 64.027 63.85 64.457 64.07 64.957 64 63.912 63.792 62.617 61.895 61.737 61.605 61.482 61.332 61.185 61.055 61.147 61.49 60.855 61.135 61.145 60.58 60.49 60.49 61.18 60.482 60.48 60.372 60.4 60.325 60.087 66.032 63.167 60.61 60.525 60.52 61.412 60.675 60.932 60.922 60.997 61.362 65.427 71.165 67.842 64.377 64.897 66.332 63.352 63.252 63.267 62.885 63.015 61.577 60.845 60.47 59.315 65.627 67.477 66.452 63.14 58.117 56.542 55.905 56.532 56.492 55.307 72.917 98.762 100.375 99.972 76.787 84.512 87.385 92.307 69.052 55.352 55.597 55.73 55.567 55.565 55.655 55.625 55.607 56.497 58.102 57.727 59.88 54.74 54.297 60.182 59.575 59.58 59.585 59.59 59.597 59.6 59.587 59.61 59.577 59.58 59.587 59.592 59.595 59.61 59.105 54.15 54.12 54.08 54.115 54.127 54.24 55.095 55.377 55.365 55.165 61.395 64.35 63.657 57.827 55.12 53.557 53.23 53.39 53.527 53.642 55.497 53.552 53.487 53.672 57.912 54.62 53.54 53.485 53.462 54.59 56.832 56.62 53.407 53.35 56.32 56.045 54.087 53.292 53.282 53.18 52.062 51.515 51.965 54.87 58.887 65.497 62.2 56.867 54.192 51.727 51.792 51.837 51.825 51.832 51.865 52.065 52.97 51.817 51.77 52.36 52.03 51.942 53.877 53.312 55.612 59.867 60.292 59.832 57.277 56.247 54.97 54.825 54.995 55.292 53.872 53.325 53.672 52.68 53.4 52.127 52.087 52.18 57.625 59.807 59.735 57.957 56.622 54.807 55.632 55.572 55.685 54.76 51.56 51.247 51.207 51.33 51.012 50.665 50.847 53.962 56.082 56.005 55.487 53.855 53.17 57.78 59.822 59.912 59.842 55.715 49.465 49.432 49.385 49.6 49.207 48.795 48.767 48.757 48.717 48.685 49.105 48.852 51.367 54.765 53.457 55.437 53.475 50.757 49.895 48.767 48.752 48.707 48.632 48.575 48.442 48.357 48.657 49.62 50.92 50.15 50.912 49.787 50.447 50.812 49.015 46.797 48.015 49.207 43.652 42.91 41.057 40.205 39.64 40.302 43.625 40.395 39.245 42.085 47.76 47.735 47.79 47.782 47.687 47.67 47.785 38.252 38.18 38.135 38.102 38.085 38.095 38.092 38.087 38.077 38.02 37.975 38.015 37.925 37.98 37.98 37.997
80.363 79.655 87.22 90.943 92.323 91.293 90.363 89.46 83.89 77.65 76.833 82.095 79.078 78.725 78.7 77.373 77.328 77.265 77.298 77.305 77.305 77.27 77.273 77.22 77.185 77.143 77.055 77.178 77.165 76.993 76.598 76.425 79.473 77.505 82.028 80.933 82.34 82.288 79.17 76.643 75.34 75.44 75.838 76.31 76.595 76.263 76.263 76.218 76.32 78.108 80.47 79.578 79.685 80.713 76.993 76.985 79.995 82.915 81.655 81.68 76.14 76.07 76.325 76.08 76.695 76.2 75.6 75.258 75.085 75 74.88 74.725 74.575 74.41 74.307 74.16 74.027 73.882 73.782 73.69 74.215 74.055 73.58 76.167 73.307 73.19 75.362 73.705 72.615 72.6 72.867 74.6 73.382 72.925 73.582 72.162 69.922 69.377 69.202 69.057 68.987 68.837 68.795 76.44 78.745 80.362 73.705 73.677 79.865 83.097 85.59 86.947 86.565 84.607 83.215 81.74 81.297 82.4 82.975 82.345 90.475 93.347 93.352 93.127 91.342 89.867 90.005 89.277 89.37 89.8 89.91 90.12 89.462 88.727 88.552 88.94 88.627 88.562 88.82 88.845 88.67 89.157 88.402 88.395 88.4 88.372 88.375 88.33 88.502 88.452 84.74 79.927 77.917 76.027 68.18 64.522 63.58 62.787 62.122 63.527 65.94 64.58 63.45 62.472 63.272 62.037 61.88 61.767 61.647 61.505 61.372 61.282 61.435 62.062 61.612 62.022 64.375 60.885 60.697 60.607 60.577 60.565 60.567 60.52 60.837 60.52 60.94 62.01 65.27 67.58 61.64 62.287 60.492 61.11 61.87 61.807 61.627 61.517 61.82 62.895 66.437 66.525 65.52 64.627 64.275 65.427 63.055 62.917 62.76 63.732 62.922 60.945 61.92 59.985 60.962 64.315 66.56 60.212 58.58 58.237 59.75 57.902 57.765 55.972 60.415 93.582 96.002 94.85 61.592 62.782 58.225 57.535 55.36 55.375 55.635 56.137 55.61 55.63 55.712 55.687 55.59 59.647 58.83 57.795 58.872 56.42 56.77 61.017 59.59 59.597 59.62 59.625 59.605 59.577 59.595 59.61 59.61 59.6 59.612 59.602 59.62 59.63 59.995 54.475 54.192 54.162 54.1 54.132 54.312 54.38 56.277 54.512 54.367 60.147 63.985 64.012 61.402 54.645 53.227 53.24 53.657 53.61 56.66 55.717 53.695 54.647 53.65 59.502 55.32 54.862 54.832 53.52 54.142 56.812 56.322 54.577 53.32 53.732 53.49 53.24 53.217 53.112 52.875 51.9 51.58 51.51 54.225 53.785 55.41 51.695 51.712 51.765 51.8 51.815 51.832 51.83 52.405 51.87 51.957 52.435 51.79 51.772 51.997 51.85 51.94 52.935 53.317 54.015 58.492 60.017 59.787 57.952 56.335 54.66 55.065 55.017 55.55 54.277 54.102 53.487 52.33 52.317 52.127 52.047 52.082 59.47 59.8 59.747 58.677 57.25 55.125 55.575 55.485 55.617 55.385 51.77 51.445 50.73 51.14 50.095 50.9 51.662 52.57 56.162 56.35 55.58 55.257 52.805 57.197 59.937 59.752 59.82 58.355 50.127 49.385 49.745 49.852 49.28 51.127 50.285 48.802 48.702 48.667 48.652 48.605 49.985 55.152 51.222 52.672 50.78 49.562 48.785 48.74 48.73 48.67 48.605 48.497 48.457 48.4 49.41 48.515 48.44 48.257 45.84 47.157 44.422 41.767 42.195 40.222 39.835 39.552 39.405 39.345 39.362 39.185 39.077 38.932 38.76 38.595 38.492 41.742 45.51 47.722 47.735 47.765 47.74 47.65 47.917 40.93 38.195 38.13 38.102 38.077 38.06 38.062 38.1 38.062 38.042 38.08 38.085 38.105 38.13 38.16 38.285
78.295 86.295 90.31 91.915 93.153 92.8 91.653 91.918 89.678 88.335 80.94 79.44 78.938 78.828 78.098 79.313 77.86 77.37 77.243 77.28 77.305 77.32 77.338 77.28 77.25 77.19 77.168 77.05 77.123 77.115 77.1 76.783 76.75 77.548 81.255 79.563 79.75 80.47 82.425 76.618 75.54 75.578 75.848 76.488 76.983 77.308 76.885 76.393 76.44 77.003 80.34 79.373 81.673 78.99 77.118 78.323 79.888 82.035 82.72 83.103 77.883 76.78 76.343 75.58 75.983 75.37 75.26 75.195 75.085 74.978 74.885 74.743 74.602 74.48 74.322 74.187 74.085 74.297 74.16 74.217 73.955 73.637 75.037 75.657 73.34 77.295 80.567 77.502 72.622 72.617 72.645 74.61 73.537 73.985 74.412 72.315 71.657 69.412 69.095 68.977 68.887 68.755 68.695 79.902 79.497 81.067 81.017 81.305 81.317 81.572 83.142 83.395 82.057 81.497 81.307 81.28 81.322 81.732 81.8 81.97 87.727 92.675 90.922 89.245 88.955 89.845 90.062 89.89 89.997 89.502 89.007 88.807 88.852 88.49 88.785 88.617 89.015 88.585 88.54 88.66 88.76 89.33 88.902 88.397 88.352 88.322 88.325 85.737 83.177 81.05 74.975 68.005 64.722 64.47 63.67 62.61 63.025 63.145 63.405 64.215 63.957 63.817 62.61 62.282 62.202 62.097 61.97 61.835 61.687 61.612 61.475 61.68 62.585 61.942 62.322 66.18 68.21 63.1 61.57 60.712 60.625 62.657 62.897 61.237 61.007 62.565 66.85 69.44 65.407 67.83 63.852 64.277 61.507 61.832 62.25 62.785 62.302 63.25 62.512 62.89 65.26 64.77 64.41 65.822 65.75 63.76 63.257 61.93 61.882 62.525 61.75 60.98 60.565 59.992 61.152 61.57 63.98 59.97 59.66 59.127 58.825 57.61 56.377 55.505 55.25 79.177 -9999 -9999 67.825 58.66 55.16 55.25 55.417 55.625 57.462 56.687 55.815 55.925 55.747 55.722 55.652 56.965 56.92 57.3 56.502 56.555 56.725 59.167 59.752 59.585 59.61 59.635 59.615 59.632 59.62 59.66 59.637 59.632 59.667 59.665 59.662 59.65 60.022 56.495 54.64 54.187 54.14 54.167 55.002 54.537 55.512 54.68 55.11 58.482 61.117 59.772 54.262 53.215 53.22 53.337 57.877 55.272 55.69 54.372 54.567 53.815 56.64 55.082 57.357 57.255 56.827 53.767 53.692 54.865 53.732 53.362 53.252 53.195 53.095 53.007 52.955 52.907 52.817 52.37 51.7 51.617 52.995 54.13 52.232 51.79 51.835 51.85 51.825 52.462 52.732 52.657 52.865 51.937 51.917 51.812 51.842 51.81 51.745 51.832 51.905 52.057 52.495 52.012 57.585 59.775 59.775 58.63 57.995 55.055 55.127 55.495 55.252 54.3 52.127 52.37 51.5 50.127 51.172 52.082 52.085 57.582 60.145 60.437 59.437 57.842 55.402 55.052 55.545 55.795 56.08 52.27 50.842 51.215 48.61 48.37 50.68 51.577 51.922 55.987 56.592 55.872 55.63 54.132 56.9 57.875 59.832 60.182 58 51.13 49.825 50.027 49.847 49.722 50.93 51.567 49.545 48.707 48.677 48.655 48.592 49.44 48.875 51.347 51.35 49.082 48.822 48.78 48.732 48.71 48.662 48.882 47.462 47.147 46.01 45.935 48.297 44.842 47.282 42.112 40.077 39.942 39.405 39.347 39.232 39.067 38.927 38.75 38.63 38.6 38.465 38.4 38.355 38.347 38.317 38.345 38.307 43.865 47.735 47.712 47.765 47.737 47.64 47.642 44.772 38.132 38.14 38.162 38.182 38.195 38.172 38.19 38.402 38.507 38.362 38.365 38.345 38.372 38.46 38.277
81.27 87.695 89.763 90.648 91.863 92.988 93.143 93.15 90.89 89.933 89.315 84.603 77.613 78.488 78.063 78.343 80.37 78.975 77.365 77.278 77.28 77.308 77.33 77.328 77.285 77.25 77.203 77.148 77.123 77.075 77.203 77.125 77.118 77.805 79.168 82.41 80.613 77.74 78.215 75.975 75.755 75.77 76.013 76.72 77.053 77.833 77.735 76.998 76.495 76.995 81.088 79.49 80.255 79.25 80.17 78.843 79.65 80.29 83.03 81.203 79.94 76.333 76.683 75.513 75.473 75.438 75.33 75.268 75.165 75.03 74.898 74.728 74.602 74.462 74.402 74.867 75.182 75.522 74.045 73.837 73.83 73.695 74.235 74.3 73.385 77.357 80.887 80.935 74.357 72.59 72.607 72.787 74.09 73.865 73.507 71.987 72.207 69.912 69.012 68.917 68.837 68.685 70.655 78.892 81.397 81.285 81.28 81.267 81.267 81.307 81.317 81.342 81.325 81.335 81.32 81.327 81.33 81.437 81.527 81.382 84.542 88.152 88.607 88.875 88.79 90.015 89.627 89.922 90.177 89.69 90.072 89.012 89.45 89.215 89.017 88.795 88.59 88.815 89.262 89.362 88.995 88.507 88.54 88.307 86.817 81.025 77.062 72.527 71.987 67.012 65.542 65.195 64.662 63.42 64.202 63.517 65.462 64.497 63.405 62.945 62.77 62.62 62.48 62.345 62.205 62.125 62.012 61.917 61.815 61.632 61.512 61.4 62.825 65.842 67.967 67.845 66.625 67.075 64.575 62.162 61.235 64.097 64.75 62.702 64.342 64.39 65.965 68.357 71.395 68.247 67.602 63.787 68.995 62.622 63.952 63.5 63.845 64.242 65.107 64.315 66.36 66.987 65.222 66.095 63.99 64.14 65.825 64.75 62.815 61.412 60.982 60.957 60.215 60.93 61.955 65.38 64.617 62.207 60.677 60.087 60.09 57.265 56.792 56.92 55.247 -9999 -9999 -9999 61.857 57.34 56.147 57.27 57.035 57.867 59.067 56.475 56.18 56.54 55.802 55.76 55.702 55.79 55.987 56.197 56.35 56.575 56.545 58.742 59.995 59.62 59.66 59.665 59.65 59.642 59.665 59.687 59.685 59.662 59.685 59.712 61.385 60.177 59.845 59.202 57.075 54.312 54.192 54.205 55.022 54.615 55.037 56.465 55.56 55.305 55.855 56.1 53.252 53.242 53.242 53.272 55.722 55.555 55.425 57.837 56.682 53.815 53.932 55.93 55.91 56.595 56.04 53.73 53.402 53.315 53.275 53.172 53.07 53.002 52.955 52.9 52.885 52.87 52.86 52.745 52.06 51.72 51.737 51.882 51.822 52.57 54.287 56.34 56.897 58.385 58.205 58.305 58.36 53.62 52.115 52.277 51.837 51.812 51.752 51.83 51.915 51.917 51.94 52.127 56.897 59.867 60.247 59.517 57.772 55.18 54.902 54.952 55.137 55.04 53.167 53.157 51.775 49.787 50.38 52.135 52.57 54.017 59.867 59.747 59.787 57.43 56.497 54.945 55.512 55.857 56.175 53.435 51.8 51.252 49.827 49.265 50.682 50.48 50.942 54.745 55.91 56.257 55.637 54.615 54.025 58.425 59.892 60.127 59.907 52.765 49.665 50.325 49.645 50.41 50.197 50.735 49.142 48.695 48.697 48.672 48.62 48.63 48.767 50.295 49.27 48.627 48.897 47.375 47.285 44.987 43.932 41.975 41.015 42.115 39.68 39.505 45.902 39.425 39.282 39.17 39.03 38.817 38.715 38.585 38.565 38.475 38.445 38.422 38.395 38.402 38.385 38.422 38.407 38.347 38.325 38.302 38.272 42.907 44.55 47.682 47.73 47.73 47.66 47.627 47.68 38.255 38.37 38.39 38.34 38.557 38.49 38.412 38.38 38.44 38.452 38.55 38.332 38.222 38.122 38.025
78.42 83.3 87.925 90.518 90.723 91.893 92.72 93.2 92.313 91.118 90.888 90.508 85.933 78.08 77.898 77.765 77.998 80.08 80.125 77.34 77.33 77.25 77.28 77.3 77.303 77.268 77.258 77.213 77.185 77.108 77.048 77.078 77.113 77.155 77.325 80.253 81.66 79.828 76.67 76.248 75.97 78.083 77.93 76.773 76.968 78.15 77.29 76.903 76.648 76.71 79.155 79.755 80.33 79.45 79.798 79.825 80.05 78.383 81.505 79.265 80.315 80.998 78.543 75.623 75.538 75.47 75.375 75.283 75.173 75.04 74.923 74.748 74.697 75.15 75.995 75.512 74.777 74.775 74.08 73.872 73.747 73.82 73.93 73.705 73.41 73.337 79.447 80.935 80.045 77.535 75.14 72.625 73.632 73.625 74.585 73.755 72.932 69.532 68.935 68.865 68.772 68.702 69.52 73.272 81.305 81.312 81.28 81.257 81.285 81.287 81.35 81.337 81.332 81.322 81.327 81.322 81.332 81.317 81.36 81.325 82.162 86.727 88.69 88.72 89.717 90.29 89.89 89.207 89.13 89.925 89.857 89.56 88.69 88.905 89.572 88.622 88.415 88.522 88.767 88.49 88.34 88.32 85.382 80.262 79.59 77.702 70.602 65.577 64.29 63.842 63.252 64.26 64.292 63.625 63.79 63.822 63.567 63.315 63.145 63.04 62.872 62.74 63.12 63.467 64.662 62.207 62.072 61.965 61.84 61.685 61.785 63.06 65.82 68.177 66.53 68.255 67.295 68.3 67.615 64.097 63.345 63.645 66.145 64.975 63.967 64.397 65.332 71.4 69.085 67.327 67.907 71.202 68.057 66.85 64.34 64.667 63.277 63.24 63.327 63.487 64.025 64.467 66.985 69.645 66.865 64.955 64.005 64.417 67.07 64.385 61.195 60.09 59.885 59.957 62.802 64.465 62.842 61.757 61.12 57.865 57.692 57.975 57.532 56.495 55.305 55.71 -9999 -9999 63.687 56.782 58.217 58.567 58.9 58.347 60.452 57.472 58.052 56.502 55.867 55.862 55.757 55.795 56.01 56.217 56.462 56.077 56.35 56.482 59.857 59.66 59.672 59.675 59.657 59.692 59.692 59.715 60.377 60.697 60.642 59.425 63.575 62.65 60.775 57.697 59.575 56.377 54.192 54.125 54.342 54.84 54.445 54.485 54.532 54.565 55.415 56.072 53.932 53.677 53.805 54.057 55.172 54.097 55.772 54.435 53.91 53.852 54.007 55.205 56.48 56.702 53.615 53.345 53.272 53.207 53.122 53.087 53.022 53.002 53.13 54.177 56.18 59.005 60.402 56.862 52.32 51.905 51.865 51.925 51.817 51.795 54.395 58.295 58.862 58.44 58.235 58.262 58.295 53.487 52.26 52.517 51.89 51.805 51.74 51.82 51.88 51.93 52.437 52.555 52.562 59.865 60.19 59.815 57.575 54.8 54.982 55.07 54.717 54.94 53.34 53.04 52.715 50.347 49.922 51.775 52.085 52.88 59.945 59.795 59.745 58.632 56.757 54.5 55.43 56.102 56.575 54.475 50.67 50.857 50.47 50.452 50.802 51.552 50.687 53.29 56.21 56.682 56.772 55.025 52.62 57.615 59.817 59.77 59.8 55.467 49.775 51.13 49.787 49.432 50.162 49.157 49.367 49.11 48.685 48.695 48.665 48.627 48.737 50.017 43.89 42.662 41.297 40.232 40.092 39.672 39.47 39.272 39.237 39.112 38.937 38.85 38.737 38.62 38.595 38.547 38.53 38.48 38.47 38.487 38.555 38.485 38.435 38.417 38.405 38.38 38.365 38.352 38.345 38.305 38.337 38.377 38.365 39.915 46.287 47.685 47.682 47.71 47.697 47.602 47.665 43.11 38.597 38.492 38.455 38.357 38.397 38.422 38.447 39.44 38.327 38.312 38.127 38.087 38.072 38.057
77.083 83.795 86.708 88.775 88.985 92.225 91.21 92.35 93.228 92.42 90.81 89.025 87.47 84.965 78.123 78.205 78.153 78.218 78.983 79.063 77.44 77.35 77.3 77.293 77.298 77.293 77.305 77.323 77.235 77.153 77.083 77.048 77.058 77.113 77.135 79.71 79.575 77.053 76.905 76.485 76.733 80.268 80.355 80.743 77.695 78.678 77.143 76.755 76.76 76.763 77.638 78.813 81.015 79.668 78.998 78.615 79.658 77.528 79.15 78.858 79.823 78.595 79.503 75.68 75.605 75.505 75.415 75.27 75.168 75.108 75.148 75.64 76.505 76.602 75.075 75.18 75.18 75.12 74.002 73.857 73.482 74.635 77.057 76.04 74.997 76.877 81.642 82.69 83.262 83.465 81.985 72.552 74.772 75.85 74.405 74.355 72.145 70.597 69.785 70.875 68.835 68.745 68.642 71.997 79.567 81.29 81.265 81.262 81.272 81.295 81.315 81.315 81.335 81.33 81.33 81.33 81.355 81.355 81.47 81.355 82.272 86.432 88.722 88.78 89.85 88.685 88.752 88.66 88.637 89.965 88.49 90.115 88.442 88.42 88.457 88.41 88.602 88.367 88.34 86.967 84.042 79.607 77.937 73.882 66.012 65.21 64.675 64.29 64.087 63.305 64.082 64.592 64.072 63.992 63.842 63.67 63.527 63.39 63.24 63.097 62.927 62.79 62.902 64.16 64.177 62.28 62.167 62.057 61.92 61.765 65.402 67.96 68.017 67.99 68.225 67.495 68.275 67.492 68.317 65.365 61.685 65.7 65.33 63.867 62.835 61.695 62.287 68.747 66.45 67.19 68.677 65.072 65.967 66 63.872 63.91 63.442 63.46 63.532 64.212 64.85 65.027 68.057 68.987 65.145 64.142 64.93 63.75 65.265 62.655 61.48 60.155 60.797 60.62 63.505 61.127 60.58 61.19 59.827 57.01 57.112 57.157 57.407 57.795 56.925 59.205 63.545 69.567 70.355 65.637 57.24 58.885 58.24 60.28 59.712 63.5 59.802 56.232 55.932 55.942 55.797 55.867 55.812 55.437 57.55 58.805 57.277 54.865 59.4 59.69 59.68 61.44 61.767 61.915 62.31 60.545 58.392 57.497 60.442 57.02 60.69 60.555 55.89 57.632 57.187 55.62 54.225 54.162 54.232 55.282 54.47 54.52 54.525 54.512 54.855 54.837 54.352 56.132 57.035 61.835 63.197 54.245 54.022 53.992 53.865 53.757 53.705 53.592 53.552 53.485 53.387 53.305 53.277 53.257 55.567 55.447 59.557 61 64.23 63.94 64.742 65.747 66.13 61.727 52.485 52.212 52.017 52.045 51.825 51.857 54.932 58.062 59.155 58.645 58.275 58.285 58.312 53.297 51.977 51.982 51.885 51.835 52.99 51.89 51.862 52.242 53.555 52.302 52.002 59.272 59.77 59.74 58.52 56.727 54.367 54.63 54.647 54.73 54.797 52.475 52.165 50.475 49.835 51.56 52.087 52.12 57.84 60.005 60.17 59.29 57.32 55.147 55.552 55.725 56.075 56.05 50.67 50.667 50.512 50.765 51.452 50.935 51.255 52.48 56.537 57.215 56.347 55.477 53.51 56.055 59.132 60.105 60.135 58.405 53.452 50.532 49.332 50.177 53.497 50.275 49.365 49.2 48.66 48.695 48.677 48.62 48.692 49.352 42.36 39.287 39.212 39.155 39.07 38.887 38.722 38.695 38.632 38.545 38.58 38.587 38.567 38.585 38.58 38.572 38.54 38.555 38.48 38.45 38.487 38.407 38.417 38.422 38.392 38.46 38.437 38.462 38.565 38.59 38.595 38.632 38.775 38.877 43.47 47.685 47.65 47.69 47.672 47.625 47.612 48.315 40.715 38.552 38.36 38.2 38.24 38.247 38.23 38.47 38.185 38.21 38.155 38.142 38.127 38.115
80.863 83.57 84.353 85.558 86.143 88.595 90.658 90.828 91.97 91.103 86.915 86.97 88.298 87.378 84.135 79.418 78.503 78.085 78.23 79.255 80.648 77.415 77.368 77.305 77.325 77.31 77.318 77.315 77.303 77.233 77.208 77.123 77.048 77.073 77.138 77.335 78.713 77.178 77.08 76.748 77.318 78.548 83.538 83.258 79.195 79.345 78.628 76.943 76.855 76.833 76.925 77.49 80.833 80.983 79.838 79.793 78.678 77.31 78.465 76.14 76.795 77.39 76.948 75.753 75.645 75.5 75.425 75.355 75.343 75.738 75.633 75.733 75.475 75.707 75.077 75.255 75.582 74.585 73.855 73.99 73.287 74.987 79.442 85.88 87.24 82.325 83.172 83.462 83.625 83.447 82.722 72.555 75.407 75.257 74.88 73.88 73.365 70.702 69.982 71.307 69.577 68.682 68.602 68.585 78.627 81.34 81.302 81.29 81.275 81.28 81.292 81.315 81.327 81.32 81.365 81.4 81.697 82.345 83.215 83.912 85.925 88.902 88.822 88.875 89.52 90.412 89.342 88.782 88.477 89.54 88.602 89.8 88.56 88.482 88.397 88.315 88.34 88.337 83.325 78.997 72.18 69.342 64.572 64.517 64.542 64.84 65.017 64.04 63.987 64.417 64.93 64.745 64.092 64.045 63.9 63.752 63.627 63.455 63.27 63.097 62.95 63.1 62.912 63.48 63.2 62.53 62.322 62.075 62.695 66.032 68.257 66.972 68.01 68.015 67.835 68.21 67.457 68.067 67.987 69.45 67.852 69.317 65.445 63.105 64.047 65.322 66.477 69.755 65.762 64.637 64.66 70.722 66.625 64.36 65.197 64.15 63.592 64.82 71.61 68.562 65.232 65.252 68.622 67.955 64.61 64.067 64.432 64.862 66.227 62.745 63.027 61.96 60.477 62.972 64.895 66.312 60.28 58.945 58.36 57.685 58.185 57.907 56.525 57.47 58.517 66.055 70.437 70.42 70.44 68.017 58.355 58.722 58.79 59.597 61.43 60.697 59.305 58.332 56.015 55.985 55.87 55.907 55.842 55.53 59.685 58.302 59.272 54.125 60.212 62.392 64.517 66.032 66.67 66.092 64.317 61.335 55.325 58.707 59.582 62.017 56.455 58.467 55.105 54.59 54.567 54.412 54.267 54.195 54.257 54.682 54.437 54.452 54.265 54.285 54.312 57.84 63.355 66.732 66.47 67.757 66.59 56.19 54.005 53.96 53.865 53.805 53.735 53.635 53.6 53.525 53.482 53.407 53.825 56.607 64.772 65.502 65.907 66.265 66.547 66.56 66.51 66.392 66.045 65.537 52.647 52.41 52.157 52.185 52.107 51.782 53.78 56.16 58.327 58.3 58.31 58.327 58.48 52.87 52.262 52.18 51.852 51.822 53.807 54.33 54.882 57.65 56.395 54.075 51.98 57.887 60.07 60.47 58.937 57.502 53.737 54.865 54.62 54.73 55.085 52.497 52.065 50.477 49.825 50.93 52.082 52.377 56.2 60.055 59.915 59.37 57.552 55.41 55.325 55.59 55.812 56.067 52.945 51.152 50.795 51.997 50.572 50.46 50.485 50.525 56.085 56.012 56.125 55.832 53.232 55.082 58.905 60.105 60.062 59.605 51.81 49.275 49.5 50.252 53.072 50.755 49.195 48.647 48.662 48.717 48.71 48.692 49.047 48.737 42.63 38.737 38.66 38.632 38.655 38.597 38.645 38.652 38.687 38.62 38.6 38.615 38.575 38.58 38.552 38.542 38.525 38.54 38.555 38.562 38.54 38.552 38.527 38.63 38.597 38.66 38.75 38.82 38.82 38.87 38.937 39.02 39.14 39.025 39.115 48.055 47.637 47.647 47.625 47.635 47.577 47.887 45.535 38.46 38.19 38.21 38.202 38.155 38.16 38.175 38.152 38.132 38.07 38.087 38.11 38.05
78.063 82.188 83.665 84.12 85.313 86.87 89.225 89.353 90.39 89.183 81.55 84.195 87.258 88.195 87.515 87.568 82.493 78.17 78.925 78.238 78.853 79.575 77.38 77.328 77.295 77.333 77.338 77.313 77.343 77.3 77.265 77.22 77.175 77.11 77.12 77.173 77.165 77.233 77.203 78.37 80.418 81.618 83.098 82.163 82.773 81.028 77.975 77.815 76.955 76.935 77.013 77.5 78.355 79.695 79.583 78.305 78.84 78.748 78.758 76.188 76.078 76.013 75.89 75.795 75.7 75.648 75.783 76.078 75.475 75.613 75.655 75.408 75.615 76.165 75.207 75.507 74.927 73.935 73.802 73.782 73.432 75.965 83.64 89.062 89.052 86.63 83.592 83.535 83.325 82.887 81.737 73.06 74.162 77.927 76.262 74.272 74.675 71.687 71.232 70.847 70.12 68.655 68.655 68.57 70.422 81.337 81.35 81.302 81.25 81.255 81.307 81.432 81.54 81.367 81.365 81.595 82.997 87.115 88.43 88.582 88.667 88.95 88.707 88.897 89.41 90.34 88.672 89.112 89.34 89.06 89.047 89.122 88.437 88.342 88.317 86.76 83.782 78.995 71.505 65.145 64.58 64.597 64.997 65.542 65.98 66.78 65.94 65 64.795 64.607 64.45 64.325 64.212 64.09 63.935 63.825 63.932 64.102 63.367 63.23 63.065 62.93 64.522 62.625 64.392 63.462 62.462 64.585 67.717 68.18 67.677 68.32 67.56 67.99 67.355 67.747 66.827 68.007 67.492 68.272 69.822 65.877 67.18 70.232 71.665 64.33 66.527 71.36 70.312 67.555 67.735 64.902 65.375 64.135 65.217 65.675 64.457 66.067 71.082 70.015 68.44 66.735 68.932 69.95 66.44 67.777 64.567 65.17 63.642 66.695 64.97 62.975 61.035 61.44 61.645 66.99 60.62 58.627 59.232 58.485 57.91 58.22 56.725 57.092 56.667 64.16 70.41 70.417 70.427 70.432 60.455 56.535 56.477 59.217 60.18 62.202 60.725 58.022 56.065 56.115 56.655 56.112 55.922 55.84 57.477 56.042 55.02 54.292 54.177 60.012 66.6 66.182 64.682 63.695 63.312 59.377 54.51 56.525 55.372 54.59 54.512 55.99 58.087 59.487 60.76 55.497 54.467 54.37 54.272 54.34 54.417 54.385 54.427 54.295 54.555 59.41 67.097 67.645 66.332 67.622 67.17 62.652 54.097 53.97 53.885 53.835 53.887 55.41 58.692 59.987 61.965 66.04 62.98 56.722 66.305 66.482 66.24 65.952 65.895 65.485 65.175 65.1 65.252 65.477 54.937 52.605 52.332 52.32 52.267 51.802 52.975 55.867 57.137 56.355 54.945 55.38 54.625 52.23 52.09 52.072 51.862 51.795 53.91 57.622 58.165 55.58 57.967 55.025 52.572 57.392 59.952 59.857 59.852 57.232 54.672 54.7 54.825 54.755 55.105 53.507 53.262 52.6 50.09 51.035 52.115 52.127 54.53 59.857 59.782 59.785 57.582 56.035 54.892 55.905 56.825 56.187 54.805 50.492 50.632 50.777 50.46 50.497 50.915 50.782 54.827 56.41 56.107 56.392 54.277 55.745 57.225 59.515 59.715 59.447 53.435 49.19 49.337 50.195 50.645 49.117 48.785 48.675 48.63 48.657 48.707 48.667 49.242 48.752 47.86 38.78 38.662 38.647 38.655 38.64 38.68 38.65 38.61 38.63 38.622 38.625 38.63 38.612 38.57 38.642 38.665 38.647 38.61 38.702 38.795 38.91 38.965 39.035 39.11 39.117 39.187 39.167 39.172 39.202 39.232 39.28 39.275 38.96 39.545 47.375 47.792 47.627 47.632 47.61 47.55 47.55 46.587 38.872 38.182 38.192 38.2 38.155 38.177 38.115 38.087 38.062 38.02 38.037 38.03 38.06
76.638 77.803 80.115 83.988 83.715 85.77 85.535 87.788 88.013 82.813 79.695 83.733 86.403 87.463 88.34 87.868 86.05 78.09 85.453 82.495 81.065 77.485 77.408 77.378 77.363 77.305 77.275 77.335 77.333 77.343 77.355 77.308 77.233 77.223 77.138 77.133 77.213 77.215 77.205 77.71 77.66 82.995 79.82 83.78 81.205 81.518 80.208 78.54 77.04 76.985 76.975 77.01 77.04 77.603 77.048 76.615 77.188 76.988 76.943 76.25 76.11 76.015 75.93 75.943 76.343 76.53 76.09 76.113 75.785 75.395 75.8 75.513 75.39 75.51 75.385 75.005 73.942 73.68 73.657 76.875 85.755 88.365 85.005 89.027 89.04 89.182 85.085 83.022 81.732 80.787 80.38 75.712 73.492 77.152 78.255 74.627 72.347 72.95 72.882 70.417 71.197 69.312 68.605 68.582 69.152 79.562 81.322 81.302 81.257 81.272 81.315 81.332 81.345 83.212 85.902 86.535 88.617 89.477 89.407 88.582 88.615 88.54 88.62 88.53 88.625 89.822 88.412 88.967 88.762 88.602 88.46 88.37 88.327 83.467 80.927 73.055 73.197 66.99 64.567 64.547 64.602 64.795 66.89 68.002 67.07 66.307 65.422 64.91 64.745 64.665 64.525 64.395 64.245 64.06 63.965 63.907 64.005 63.772 63.495 63.272 63.147 62.962 62.875 62.727 62.925 62.465 62.622 67.632 67.055 68.142 68.292 68.147 67.777 66.997 68.057 67.315 67.352 64.065 65.965 65.13 69.042 68.527 68.887 70.097 68.62 65.25 64.52 70.13 67.755 67.235 64.895 67.022 68.185 66.817 65.455 65.072 65.14 66.615 69.127 67.915 65.745 65.712 66.93 68.345 67.532 67.677 66.307 64.772 64.055 65.102 64.385 64.312 62.02 60.025 62.297 62.612 59.367 58.807 59.017 58.6 58.537 57.402 56.76 56.58 56.965 61.295 69.09 70.432 70.445 70.467 64.795 56.685 56.467 56.347 57.057 60.932 57.382 57.615 56.142 56.125 56.972 56.205 55.955 55.655 56 56.45 55.77 55.967 54.827 55.11 60.527 60.262 57.335 58.51 55.905 54.485 54.48 54.482 54.467 54.522 54.597 61.902 68.327 67.872 67.125 60.092 54.537 56.085 54.327 54.367 54.417 54.685 55.585 54.667 54.635 59.515 67.27 67.872 66.605 67.025 67.7 65.135 54.155 54.072 56.955 62.625 65.8 67.42 68.785 69.27 69.377 69.622 68.805 57.395 64.225 65.135 65.165 65.32 63.852 66.197 66.215 64.162 66.572 66.242 57.22 52.76 52.482 52.42 52.685 53.997 52.662 52.75 52.392 52.18 52.54 52.085 52.95 52.215 51.895 51.875 51.852 53.567 56.117 55.315 56.357 56.09 57.892 59.562 52.1 53.947 59.862 59.772 59.76 57.345 56.372 54.672 55.147 55.137 54.927 54.012 52.775 52.39 52.295 52.162 52.257 52.137 52.757 58.987 60.117 60.107 58.715 57.742 55.505 56.182 57.165 56.41 55.077 50.602 50.807 50.38 48.912 49.307 51.085 52.235 53.99 56.19 55.592 55.547 54.905 53.855 57.41 59.097 59.695 59.7 55.39 50.022 49.845 49.147 48.82 48.797 48.785 48.712 48.602 48.647 48.68 48.665 48.625 48.702 48.827 41.827 38.647 38.697 38.712 38.795 38.84 38.862 38.92 38.9 38.932 38.947 39.092 38.782 38.852 38.86 38.88 38.852 38.747 38.797 39.005 39.08 39.047 39.16 39.31 39.272 39.232 39.085 38.892 38.83 38.617 38.415 38.312 38.267 38.302 43.332 47.165 47.62 47.587 47.6 47.582 47.542 47.2 40.537 38.125 38.097 38.075 38.01 38.05 38.037 38.122 38.16 38.405 39.682 41.445 41.57
78.825 77.715 76.815 82.84 83.023 83.508 80.848 79.4 81.823 79.468 79.545 84.778 87.105 87.945 88.015 85.075 81.018 80.4 83.995 82.215 82.985 77.48 77.448 77.433 77.405 77.293 77.883 77.303 77.298 77.325 77.318 77.295 77.318 77.248 77.235 77.235 77.185 77.243 77.213 77.233 80.505 81.805 81.453 82.27 83.163 80.28 82.378 80.32 77.633 77.075 77.04 76.978 76.93 76.833 76.75 76.68 76.565 76.48 76.355 76.268 76.173 76.265 76.225 76.385 76.248 76.308 76.138 76.045 75.743 75.448 75.535 75.665 75.89 75.97 75.3 74.185 73.735 76.632 83.475 88.187 89.035 89.08 89.052 89.18 91.16 89.98 88.542 81.25 76.12 78.212 75.79 73.362 72.43 72.872 74.425 74.422 74.847 72.4 72.477 70.52 71.182 69.632 68.625 68.612 68.532 73.347 81.332 81.312 81.297 81.325 81.185 79.357 87.03 88.435 88.592 88.512 88.64 90.71 89.675 88.637 88.647 88.7 88.862 89.33 89.947 89.582 89.155 88.432 88.357 88.315 88.097 84.287 80.395 73.252 69.697 66.8 64.665 64.492 64.577 64.915 65.267 65.497 66.2 65.905 65.51 65.24 65.087 64.97 64.86 64.745 64.63 64.48 64.327 64.185 64.035 63.895 64.7 64.222 63.597 63.352 63.19 63.052 62.912 62.777 64.447 64.322 62.462 64.222 67.965 67.6 68.215 68.252 68.332 69.18 68.26 68.515 65.945 69.66 67.505 66.607 64.657 66.462 63.807 69.84 68.835 64.402 70.102 64.387 67.205 63.977 62.69 65.5 67.802 75.157 70.915 66.41 65.537 66.07 66.535 66.035 66.025 65.86 70.48 68.862 65.767 67.37 66.042 65.242 66.95 65.605 64.87 61.622 60.632 60.69 60.507 62.36 59.367 59.092 58.7 58.502 58.442 57.497 56.672 56.582 56.637 56.625 69.977 70.442 70.44 70.467 68.54 56.652 56.51 56.392 56.317 57.592 56.917 56.665 56.342 56.172 56.297 56.08 56.23 56.032 56.265 57.052 57.017 57.02 54.742 54.525 54.512 55.042 54.625 54.517 54.56 54.502 54.5 54.492 54.505 54.53 54.797 61.715 68.802 68.845 68.9 63.962 54.522 54.54 54.35 54.292 54.387 55.537 55.587 54.91 54.352 57.257 66.565 67.732 67.072 66.625 67.71 66.61 57.7 54.09 56.315 69.182 69.705 70.045 69.827 70.892 70.892 70.752 65.64 57.34 62.685 66.395 66.55 66.65 66.427 62.88 65.977 65.855 65.362 63.622 56.01 52.83 52.615 52.557 52.557 53.262 52.56 52.377 53.1 52.892 52.445 52.102 52.137 51.937 51.865 51.862 51.842 53.16 56.19 55.595 56.192 56.082 55.44 59.742 53.53 51.97 57.845 59.795 59.78 58.712 57.032 54.132 55.012 54.67 54.78 54.66 52.115 53.08 52.57 53.175 52.38 52.51 52.907 57.677 60.027 59.905 59.295 57.19 55.377 55.657 56.23 56.765 56.1 51.497 50.762 50.455 48.622 48.725 50.35 50.42 51.29 55.787 56.405 56.455 55.625 52.707 55.465 55.172 53.63 52.16 50.067 48.8 48.847 48.86 48.837 48.892 51.145 48.782 48.98 48.647 48.712 48.715 48.725 49.682 48.705 46.96 39.317 39.395 39.855 39.59 39.505 39.555 39.68 39.3 39.787 39.815 39.29 39.105 39.082 38.937 38.705 38.73 38.65 38.82 38.985 39.02 39.002 38.925 38.702 41.26 39.567 38.53 38.347 38.322 38.292 38.27 38.23 38.25 38.235 39.65 46.677 47.59 47.59 47.595 47.592 47.537 47.542 43.89 37.985 38.08 38.115 38.13 38.442 40.22 41.782 43.252 44.715 46.69 47.327 46.832
79.89 78.273 76.738 77.213 81.793 80.953 77.538 78.76 78.543 78.44 81.745 87.535 87.898 88.138 85.775 80.785 78.375 81.91 85.153 83.273 81.198 80.593 77.543 77.503 77.458 77.395 78.505 77.725 81.258 78.128 78.5 78.233 77.385 77.353 77.328 77.293 77.263 77.245 77.26 77.263 80.315 80.293 84.053 81.483 82.858 78.748 81.34 82.533 79.415 77.138 77.073 77.083 76.97 76.92 76.803 76.708 76.613 76.503 76.568 76.443 76.885 77.475 76.35 76.35 76.345 76.293 76.218 75.705 76.52 78.155 75.403 75.725 76.085 76.22 74.732 74.917 81.42 86.175 89.067 89.045 89.037 89.25 89.217 91.54 92.285 91.862 89.237 82.277 72.617 72.382 72.4 72.372 72.402 74.21 75.692 75.105 75.372 74.092 72.37 70.97 70.257 70.995 68.607 68.575 68.587 72.41 81.39 81.342 80.722 78.405 77.605 77.422 86.367 88.437 88.455 88.467 88.465 88.547 88.517 88.567 88.897 90.35 90.187 89.43 88.727 88.345 88.315 88.14 85.077 84.512 77.965 74.22 72.137 68.627 65.94 65.515 65.697 64.807 65.04 65.785 66 65.955 65.78 65.6 65.487 65.342 65.182 65.065 64.955 65.245 64.737 64.54 64.412 64.252 64.097 63.925 63.815 63.667 63.585 63.43 63.242 63.16 62.99 65.787 69.095 69.247 63.71 62.85 67.682 68.262 67.465 68.317 67.572 69.7 68.472 69.12 66.952 68.455 66.552 63.132 63.305 63.767 66.295 68.09 66.175 64.217 63 63.592 68.957 63.077 63.95 68.845 68.955 73.167 73.567 68.095 66.64 67.417 65.93 66.605 67.327 67.29 69.707 67.1 66.182 66.82 66.932 64.892 65.802 65.377 63.262 61.58 60.722 60.187 59.905 59.597 59.39 59.205 59.27 58.732 58.162 58.012 56.855 56.557 56.692 56.68 68.675 70.437 70.442 70.462 70.557 57.347 56.6 56.437 56.53 58.202 57.735 57.702 56.34 56.255 56.54 56.52 56.315 55.652 55.667 57.365 60.935 61.14 58.185 54.747 54.48 54.525 54.52 54.545 54.535 54.555 54.542 54.517 54.537 54.592 60.467 63.787 68.78 68.835 68.912 64.357 54.605 54.917 54.397 54.322 54.397 54.482 54.88 55.197 54.462 54.44 61.57 67.187 67.597 66.497 67.512 67.157 64.445 57.15 54.047 66.062 70.567 69.612 71.045 70.862 70.525 70.202 69.537 58.277 61.407 65.655 65.865 65.632 62.455 59.91 59.642 57.407 56.28 55.002 53.25 52.847 52.715 52.575 52.517 52.522 52.505 52.325 52.252 52.187 52.18 52.585 52.222 51.852 51.815 51.862 51.82 51.832 55.84 56.447 55.912 53.675 55.717 55.32 59.002 53.717 55.762 60.215 60.23 59.31 57.495 53.732 54.785 54.67 54.642 54.822 52.68 53.532 52.192 52.267 52.42 52.137 52.152 54.895 59.85 59.765 59.775 59.372 56.537 54.77 56.13 56.945 56.24 53.245 50.742 50.415 48.962 48.115 51.202 51.167 50.522 55.32 57.54 57.515 56.475 51.87 50.73 49.905 48.87 48.827 48.83 48.845 48.875 48.845 48.745 48.88 51.67 50.707 49.67 48.602 48.655 48.705 48.687 49.132 48.912 49.217 42.29 40.187 39.975 40.267 40.105 40.317 39.615 39.44 39.49 39.302 39.135 38.892 38.922 38.852 38.645 38.597 38.462 38.47 38.542 38.425 38.375 38.375 38.392 38.372 38.29 38.3 38.285 38.267 38.26 38.247 38.277 38.195 38.2 38.145 43.357 47.595 47.567 47.577 47.55 47.505 47.477 46.772 40.725 39.19 42.822 42.705 45.357 47.777 46.387 47.172 47.04 46.937 46.805 46.685
79.475 80.178 77.705 76.805 77.05 77.253 79.288 78.748 78.49 79.27 83.098 87.54 88.293 87.093 81.355 78.403 79.118 82.353 81.928 82.485 82.42 77.893 77.615 77.54 77.448 77.7 80.055 81.173 82.945 78.328 80.568 79.635 77.348 77.365 77.353 77.403 77.365 77.303 77.27 77.623 80.255 81.855 82.335 78.758 80.838 78.19 83.065 84.533 79.87 77.948 77.153 77.078 77.02 76.975 76.868 76.828 76.768 76.633 76.64 77.945 77.248 77.158 76.768 76.37 76.36 75.89 75.863 78.765 79.71 79.928 77.258 75.423 75.937 76.195 77.97 86.277 89.135 89.06 89.055 89.03 89.037 90.242 89.432 90.462 92.282 92.235 90.5 83.75 72.402 72.392 72.385 72.38 72.397 72.447 72.515 73.855 75.76 73.847 73.682 72.072 70.42 71.185 69.642 68.655 68.595 68.567 78.385 76.19 76.837 76.685 76.707 76.772 80.507 88.49 88.42 88.61 88.567 88.582 89.745 88.757 89.227 88.737 88.39 88.352 88.287 87.807 88.132 80.01 76.69 71.745 69.105 68.272 67.552 67.242 65.375 65.445 65.842 66.265 66.45 66.257 66.082 65.955 65.835 65.667 65.535 65.395 65.25 65.102 65.277 65.347 64.742 64.61 64.455 64.317 64.192 63.96 63.842 63.707 63.625 63.495 63.355 64.175 67.005 70.082 70.157 70.342 67.622 66.287 63.077 67.117 67.785 68.08 68.137 69.15 68.16 66.355 71.57 70.392 68.207 63.262 63.537 63.987 69.15 70.087 67.905 65.48 66.487 69.58 66.222 64.002 64.02 66.197 65.617 68.475 70.287 67.532 67.197 70.16 67.732 66.897 67.142 68.135 70.317 68.527 67.012 66.937 66.662 64.322 64.812 65.682 63.227 63.44 61.102 62.06 60.025 59.817 59.55 59.495 59.515 59.127 58.32 58.167 57.062 56.617 56.615 56.845 60.725 70.272 70.45 70.452 70.452 63.892 57.192 56.505 56.737 60.06 58.982 57.802 56.55 56.307 56.515 56.642 56.265 56.445 62.362 67.665 68.985 68.837 62.977 54.54 54.52 54.535 54.532 54.537 54.6 54.792 54.662 54.54 54.51 54.54 60.707 65.042 68.795 68.83 67.24 66.167 54.487 54.712 54.51 54.385 54.42 54.512 54.72 55.13 54.705 54.42 55.147 66.575 67.872 66.735 67.145 67.887 67.032 64.572 54.557 65.232 70.017 69.855 69.525 69.26 69.057 68.94 66.762 60.177 58.135 59.71 56.342 55.96 55.175 53.652 53.267 53.107 53.032 52.93 52.84 52.74 52.635 52.5 52.4 52.345 52.307 52.44 53.172 53.122 52.077 52.345 52.05 51.862 51.86 51.852 51.895 51.822 53.275 54.172 53.477 55.125 52.015 54.337 53.07 51.885 53.89 59.715 59.76 59.46 57.145 55.015 54.647 54.607 55.095 55.312 54.157 52.582 52.335 52.935 52.852 52.132 52.297 52.125 59.89 60.307 60.017 58.992 56.202 54.697 55.61 55.59 55.795 54.385 51.117 50.51 48.967 48.287 51.932 55.077 50.935 50.402 50.152 53.227 52.897 51.047 50.142 49.335 48.847 48.857 48.822 48.805 49.17 48.755 48.672 49.205 49.355 50.112 50.862 48.582 48.615 48.63 48.642 48.612 49.145 48.692 45.91 39.94 39.887 39.835 39.877 39.695 39.787 39.595 39.322 39.077 38.912 38.7 38.542 38.475 38.38 38.342 38.327 38.32 38.36 38.39 38.31 38.3 38.307 38.305 38.312 38.272 38.27 38.23 38.155 38.117 38.075 38.072 38.112 38.165 39.5 47.847 47.532 47.54 47.542 47.51 47.482 47.527 48.365 46.13 47.48 47.41 47.337 47.285 47.22 47.122 46.942 46.77 46.63 46.51
79.33 79.76 80.348 78.96 77.028 78.45 79.21 78.713 79.47 78.943 80.888 85.463 87.508 87.535 79.08 78.003 79.278 79.79 80.648 80.03 78.473 77.628 77.558 77.475 77.805 78.205 81.298 84.835 82.498 83.778 80.975 79.918 77.378 77.383 77.41 77.425 77.57 77.418 77.35 77.285 78.475 82.228 82.008 83.165 83.168 81.4 78.485 81.993 78.88 77.283 77.235 77.165 77.1 77.038 76.993 76.865 76.95 78.74 80.655 79.603 76.995 76.733 77.75 76.135 75.348 77.315 79.725 79.848 79.868 79.933 79.795 76.265 76.267 83.342 88.725 89.032 89.035 89.07 89.072 89.077 89.04 89.085 88.787 89.237 91.73 92.22 91.792 89.55 74.145 72.395 72.412 72.385 72.435 72.45 72.49 72.535 72.98 74.637 73.985 72.342 70.567 71.17 69.98 68.612 68.907 72.272 74.91 75.82 77.545 77.06 76.947 77.135 77.66 85.512 88.382 88.387 88.377 88.452 90.285 88.932 88.382 88.3 88.347 80.647 75.64 78.722 73.282 70.06 69.032 68.232 67.762 67.535 67.352 67.28 67.107 66.827 66.755 66.582 66.397 66.27 66.172 66.03 65.89 65.727 65.587 65.447 65.327 65.205 65.07 64.96 64.777 64.695 64.497 64.37 64.215 64.042 63.877 63.75 63.662 63.562 64.842 69.24 70.26 68.157 70.267 68.737 70.277 68.792 64.13 67.017 68.95 69.3 68.772 69.877 66.82 72.962 70.165 66.85 64.307 63.857 64.575 63.8 68.737 68.877 69.18 64.102 64.67 67.297 71.24 65.612 64.617 64.195 65.405 68.712 67.677 66.577 68.11 69.702 69.822 68.105 69.485 70.172 68.09 67.992 67.012 69.647 66.297 64.912 64.985 66.88 65.817 66.235 62.702 62.46 60.6 59.88 59.577 59.517 59.64 59.405 60.03 59.862 57.275 56.882 56.567 56.772 57.817 69.412 70.485 70.485 70.49 68.76 59.305 57.422 58.297 58.552 57.532 57.465 56.43 56.37 56.335 56.512 56.32 56.602 57.332 68.99 68.9 68.87 67.572 61.205 57.085 54.532 54.84 54.7 54.66 55.19 55.382 54.645 54.502 54.497 54.512 59.307 68.785 68.827 68.88 67.862 58.025 54.785 55.035 54.462 54.435 54.547 54.607 55.807 55.505 54.55 54.585 66.277 67.705 67.777 67.802 67.942 67.742 66.015 56.097 57.017 65.182 68.615 65.027 63.92 60.54 57.502 55.63 55.505 53.475 53.45 53.405 53.292 53.245 53.165 53.1 53.017 52.942 52.99 53.3 52.88 52.527 52.45 52.402 52.342 52.3 52.235 52.205 52.145 52.07 51.995 51.937 51.897 51.937 51.852 51.882 51.877 52.225 56.785 57.05 56.605 56.13 53.985 52.26 51.915 52.345 59.872 59.795 59.56 58.17 55.807 54.11 55.175 55.237 54.87 54.117 52.172 52.487 51.545 51.527 51.29 52.695 52.322 58.6 60.272 60 58.672 55.907 54.905 55.68 56.022 56.485 55.665 51.327 50.502 50.715 51.5 51.135 54.315 55.105 48.945 48.967 50.197 49.252 48.84 48.767 48.805 48.765 48.937 49.687 48.74 49.79 50.062 48.647 48.712 51.125 51.762 49.387 48.61 48.605 48.632 48.65 48.645 49.565 48.762 48.242 40.27 39.57 39.407 39.55 39.462 39.352 39.072 38.782 38.56 38.382 38.425 38.422 38.45 38.44 38.352 38.33 38.33 38.35 38.305 38.277 38.282 38.252 38.172 38.137 38.095 38.115 38.117 38.14 38.175 38.28 38.302 38.675 39.852 41.52 48.28 47.522 47.53 47.515 47.495 47.47 47.465 47.465 47.44 47.417 47.367 47.292 47.212 47.13 46.995 46.832 46.632 46.525 46.412
78.75 78.713 78.768 79.23 79.998 79.163 78.56 79.223 78.785 81.415 82.138 82.64 84.635 82.24 78.32 78.875 78.993 78.258 78.973 78.628 77.745 77.678 77.588 78.075 78.955 77.973 81.223 84.09 83.285 86.12 84.735 81.43 77.415 77.505 77.425 77.428 77.445 77.433 77.493 77.38 77.345 77.395 78.073 82.558 81.983 84.258 82.925 82.345 77.328 77.293 77.258 77.255 77.265 77.145 78.34 79.503 80.54 80.605 80.9 79.543 77.98 78.263 80.153 77.238 78.88 79.95 80.498 79.888 79.868 79.898 79.968 82.125 87.65 89.087 89.037 89.055 89.055 89.082 89.017 89.045 89.112 85.932 83.762 83.237 89.667 92.215 91.017 89.987 87.437 73.8 72.38 72.535 73.187 74.437 72.665 72.537 72.84 74.337 72.715 72.967 70.977 69.832 71.155 71.56 75.187 77.512 77.727 77.72 77.762 78.075 79.352 79.362 77.25 84.685 88.355 88.687 88.505 88.347 88.322 88.315 87.275 86.18 80.735 78.685 70.795 68.725 68.852 68.285 68.102 67.845 67.692 67.537 67.35 67.245 67.087 66.925 66.747 66.62 66.497 66.39 66.25 66.225 66.575 65.995 65.7 65.537 65.42 65.292 65.107 65.032 64.892 64.73 64.565 64.417 64.27 64.145 63.937 63.797 63.74 67.37 69.655 70.017 70.272 70.175 70.315 70.182 69.467 70.907 69.475 70.965 68.895 68.127 67.79 66.512 66.072 71.092 68.675 66.75 65.545 65.227 65.145 64.73 67.045 70.677 65.52 64.102 65.897 64.905 66.697 64.207 64.67 64.725 64.787 68.97 69.012 67.557 67.79 68.277 69.507 68.732 69.25 70.482 67.977 68.337 75.135 70.465 67.5 65.37 65.395 66.505 63.565 68.547 66.99 66.005 62.427 60.027 59.745 59.635 59.485 59.68 60.265 59.227 57.587 56.855 56.717 56.635 56.79 65.665 70.485 70.48 70.455 70.487 60.685 57.037 57.025 59.14 57.3 56.487 57.172 56.47 56.392 56.787 56.372 57.077 55.85 69.035 68.94 68.875 68.552 64.085 57.747 54.54 55.092 55.1 54.572 54.935 56.985 54.97 54.515 54.555 58.112 62.02 68.765 68.9 66.205 60.795 56.377 55.1 55.52 55.027 54.46 54.565 54.592 54.842 55.597 54.692 54.54 63.915 66.997 66.355 66.157 65.512 65.742 62.927 56.592 54.427 57.95 56.922 55.027 56.392 54.552 53.99 53.687 53.582 53.48 53.407 53.302 53.217 53.44 53.482 53.182 53.887 53.202 53.082 53.36 52.92 52.582 52.527 52.437 52.397 52.34 52.26 52.185 52.212 52.652 52.605 51.94 51.882 51.865 51.892 51.887 51.9 52.062 56.577 60.93 56.617 57.01 56.755 54.457 51.91 52.102 58.742 60.262 60.11 58.65 56.502 54.425 55.162 54.62 54.862 55.33 52.207 52.675 50.84 49.785 51.195 52.247 52.092 57.42 59.827 59.785 58.565 56.217 55.317 55.28 56.575 55.832 52.592 49.76 49.182 52.457 48.675 48.702 50.925 52.85 49.315 48.817 49.312 49.615 48.827 48.677 48.645 49.737 49.545 48.717 48.677 48.902 49.555 48.645 49.305 50.05 46.705 48.537 48.64 48.587 48.627 48.672 48.685 48.74 48.702 48.822 42.03 38.91 38.887 38.75 38.515 38.517 38.47 38.465 38.472 38.445 38.407 38.38 38.362 38.355 38.322 38.25 38.237 38.142 38.16 38.125 38.132 38.087 38.125 38.162 38.232 38.33 38.442 39.067 39.535 41.932 44.892 46.01 48.917 48.26 47.632 47.56 47.532 47.537 47.54 47.44 47.425 47.39 47.327 47.267 47.187 47.117 47.087 47.05 47.072 47.285 46.837 46.59 46.485
80.858 80.375 78.678 80.725 82.57 79.073 78.595 78.748 79.67 81.665 82.215 82.1 81.31 78.193 78.16 78.283 78.28 78.31 77.833 77.848 77.743 77.698 78.093 81.368 82.043 77.99 80.41 82.058 79.985 82.59 84.005 79.093 77.633 77.995 78.395 77.423 77.445 77.458 77.545 77.473 77.425 77.42 77.63 80.278 83.568 81.258 87.033 79.433 78.038 77.343 77.365 77.363 79.605 79.848 80.683 80.72 80.535 80.653 80.488 79.875 78.033 77.728 79.273 80.185 79.995 81.015 81.57 80.8 80.245 79.85 79.995 81.48 88.545 89.065 89.067 89.07 89.045 86.07 89.065 89.097 83.287 75.025 80.045 80.657 85.65 89.465 89.03 89.09 89.12 79.575 72.39 73.912 74.652 74.647 74.112 72.715 73.817 75.367 72.15 73.385 72.842 74.772 76.165 77.725 77.702 77.71 77.702 77.71 77.727 78.59 79.075 77.957 77.28 76.782 87.97 88.295 88.307 88.345 87.96 83.475 83.145 79.507 74.042 72.432 69.027 68.492 68.36 68.152 68.02 67.87 67.705 67.52 67.375 67.225 67.102 66.962 66.792 66.687 66.517 66.417 66.27 66.63 66.877 66.212 65.76 65.587 65.46 65.315 65.187 65.057 64.882 64.802 64.615 64.477 64.34 64.217 64.06 64.347 68.195 69.322 70.09 70.022 69.645 70.292 69.51 70.022 69.952 70 67.002 69.96 66.76 66.002 63.992 63.877 67.01 70.85 66.442 65.21 64.597 65.427 65.562 65.402 65.855 66.757 68.892 64.537 64.87 65.087 66.677 65.19 65.175 64.835 65.172 67.455 69.76 68.972 69.447 70.275 68.445 67.51 67.497 67.535 67.567 67.667 70.8 67.232 68.432 65.9 67.497 68.852 66.642 65.72 67.445 62.572 61.67 60.155 59.982 59.82 61.242 60.23 59.372 59.502 57.797 57.082 56.99 56.627 57.182 62.182 70.107 70.452 70.802 70.94 65.655 57.917 56.66 56.662 58.255 56.58 57.487 56.52 56.48 56.797 56.412 56.895 56.16 68.822 66.952 68.877 68.802 64.152 55.255 54.545 54.627 55.332 55.135 64.177 63.345 61.035 64.182 65.965 67.142 68.802 68.805 68.85 64.882 55 54.53 54.575 54.757 54.65 54.492 54.54 54.635 54.892 57.66 58.337 57.072 56.302 62.115 60.187 58.677 57 54.712 55.717 54.297 54.03 54.587 54.185 54.03 53.877 53.725 53.647 53.645 53.545 53.34 53.612 54.09 53.762 53.597 53.42 53.042 53.095 52.895 52.835 52.77 52.715 52.627 52.595 52.617 52.365 52.292 53.092 53.24 52.455 52.5 52.442 51.997 52.18 51.902 51.862 51.927 51.937 52.09 54.13 52.852 59.047 54.82 55.765 54.545 52 51.915 54.245 59.807 59.765 59.222 57.435 55.772 54.882 55.35 55.21 55.057 53.02 52.082 51.77 49.957 50.42 52.082 52.077 56.08 59.867 59.37 58.125 55.555 52.877 54.732 55.135 52.275 49.462 49.34 53.5 50.41 51.212 50.232 51.21 51.24 50.627 48.73 49.347 48.9 49.347 49.722 48.97 49.292 49.062 49.29 49.66 51.47 52.222 49.525 50.367 46.52 38.917 39.562 48.65 48.61 48.595 48.617 48.64 48.705 49.517 48.657 45.97 38.49 38.472 38.477 38.45 38.375 38.382 38.4 38.407 38.367 38.332 38.252 38.235 38.21 38.145 38.135 38.127 38.17 38.172 38.23 38.29 38.342 38.867 40.75 41.13 45.067 45.26 48.22 48.547 47.667 47.857 47.735 47.72 47.71 48.062 47.575 47.52 47.517 47.402 47.355 47.292 47.292 47.287 47.22 47.18 47.092 47.067 47.052 47.687 47.812 47.227 46.292 46.415
82.913 81.265 79.713 82.028 79.293 78.628 78.633 78.588 78.588 79.858 82.213 81.12 78.828 78.2 77.92 78.575 78.02 77.913 77.915 77.835 77.79 78.04 79.83 85.313 84.945 81.08 79.203 80.865 79.975 79.965 80.668 79.76 78.138 77.685 77.688 77.883 77.613 77.495 77.483 77.513 77.475 77.45 78.105 82.76 81.918 81.845 78.81 78.478 77.53 77.45 78.953 82.49 84.513 82.785 81.965 81.708 80.635 80.495 80.503 80.64 79.953 79.933 78.583 80.153 80.043 80.133 81.288 80.523 80.01 79.843 79.93 79.96 84.922 88.892 89.085 89.067 89.06 89.152 84.077 75.815 73.707 73.69 77.06 80.152 82.087 87.532 89.04 89.062 89.115 85.837 76.447 72.702 74.48 74.6 74.585 74.135 75.005 74.722 75.805 76.54 77.055 77.742 77.735 77.71 77.705 77.675 77.69 77.702 77.7 77.852 78.175 76.65 76.927 76.837 87.752 86.95 87.74 84.237 82.95 78.462 76.565 76.637 75.435 72.585 71.072 68.41 68.315 68.102 67.955 67.812 67.677 67.555 67.43 67.317 67.157 67.002 66.877 66.72 66.642 66.497 66.357 66.63 66.785 66.315 65.817 65.66 65.515 65.37 65.217 65.092 64.95 64.827 64.677 64.522 64.397 64.257 65.452 69.167 69.437 69.872 70.245 70.04 70.032 70.96 71.227 70.667 71.147 70.255 69.4 68.692 69.337 67.675 66.427 65.67 67.637 70.48 67.217 64.572 64.77 65.407 65.385 66.365 71.115 73.65 72.84 65.58 64.872 65.82 66.922 65.217 65.322 65.522 65.89 68.02 73.527 69.392 69.062 68.047 67.582 67.557 67.52 67.575 67.595 67.747 67.717 67.197 69.402 69.597 66.222 65.892 68.065 63.112 62.762 63.017 61.352 60.827 60.442 60.135 61.25 61.46 59.275 59.367 59.75 57.582 57.24 56.777 56.762 57.332 67.49 71.885 72.297 72.377 68.837 59.86 56.7 56.787 58.735 56.635 57.157 56.612 56.557 57.395 56.472 56.945 57.892 60.967 67.07 68.872 68.82 65.562 60.84 61.657 63.437 66.8 68.485 68.8 68.817 68.845 67.58 68.972 68.857 68.862 68.862 68.875 66.615 54.647 54.547 54.62 54.695 54.825 54.565 54.545 54.63 54.65 59.74 58.822 59.157 54.885 54.81 54.442 54.455 54.355 54.257 54.18 54.027 53.94 53.92 54.482 54.95 54.252 53.682 53.647 54.165 53.807 53.417 53.37 53.3 53.232 53.147 53.092 53.025 52.985 52.937 53.265 53.177 53.78 52.877 52.777 52.892 52.457 52.317 52.255 52.207 52.672 52.822 52.725 53.427 55.13 52.597 51.847 51.91 51.94 51.897 53.132 55.82 54.717 52.557 53.122 52.48 51.735 51.775 54.002 59.82 59.902 59.865 58.127 54.42 54.777 54.672 54.622 54.905 53.26 52.282 52.07 50.355 50 50.925 52.772 52.897 56.557 52.955 50.95 51.597 51.685 51.965 51.647 51.465 49.475 49.305 49.557 49.457 49.535 50.3 51.485 51.67 50.93 48.687 48.747 48.762 48.777 48.79 48.817 51.52 52.362 49.852 46.095 46.925 51.182 50.632 50.345 44.557 38.78 38.62 47.135 48.64 48.547 48.597 48.63 48.615 48.802 48.57 48.445 41.18 38.42 38.427 38.422 38.402 38.337 38.282 38.242 38.192 38.197 38.18 38.227 38.257 38.277 38.287 38.352 38.545 38.957 39.387 42.722 44.23 46.522 48.27 48.132 48.002 48.24 48.09 48.76 50.2 47.767 47.695 47.692 47.642 47.967 47.475 47.425 47.415 47.382 47.345 47.357 48.52 48.195 47.292 47.212 47.147 47.135 47.197 46.805 45.42 45.057 44.94 45.015
