ncols 434
nrows 32
xllcorner    527038
yllcorner    186758
cellsize     2
NODATA_value -9999
107.218 106.153 105.195 106.078 105.21 105.24 106.88 107.338 108.015 109.145 104.29 107.753 103.46 103.318 105.953 107.508 104.455 101.59 104.39 99.59 101.31 102.393 102.228 99.295 98.72 97.89 97.748 99.755 99.533 101.488 100.25 97.593 99.82 101.17 99.715 97.383 97.423 96.88 95.585 95.39 95.303 95.208 95.103 95.078 95.103 95.068 95.035 94.993 96.375 97.428 99.803 101.178 101.578 100.293 99.648 96.983 95.173 99.223 101.875 99.725 97.323 100.443 98.043 97.278 97.128 98.835 98.5 95.848 94.538 96.65 99.213 99.523 93.54 93.69 94.128 93.933 95.403 97.548 98.063 95.708 94.915 94.835 93.172 92.727 92.57 92.547 93.512 94.707 95.03 97.047 96.31 95.732 95.647 94.172 95.372 93.777 92.925 92.872 92.812 93.412 93.675 94.507 94.165 93.51 92.59 92.4 92.39 91.945 91.822 91.715 91.605 91.497 91.32 91.165 91.03 90.902 91.487 90.762 92.395 92.86 92.532 91.647 91.147 92.695 92.757 92.232 89.75 90.78 90.397 91.802 93.2 90.41 88.715 88.675 88.665 88.667 88.642 88.635 88.595 88.57 88.507 88.537 90.457 90.447 89.777 92.02 92.58 89.712 89.597 88.325 89.28 88.385 88.07 87.695 87.607 87.535 90.18 89.097 90.18 87.917 90.25 92.01 90.7 88.435 89.32 93.452 92.032 90.867 89.752 88.375 94.18 91.975 89.182 87.087 89.942 89.845 91.17 88.722 89.42 85.7 85.552 85.89 84.9 86.21 87.997 88.765 89.467 86.527 85.57 84.077 85.317 87.962 87.347 87.635 87.552 83.36 82.562 88.19 87.055 83.97 86.367 81.94 81.552 81.362 81.19 81.017 80.827 80.625 80.502 80.897 81.195 80.685 80.202 80.215 80.237 80.135 79.927 79.672 79.8 79.88 79.782 79.327 78.877 78.792 78.645 78.402 78.32 78.142 78.15 78.12 77.81 77.669 77.497 77.414 77.337 77.264 77.224 77.202 77.177 77.122 77.047 76.984 76.959 76.969 76.887 76.832 76.747 76.697 76.689 76.679 76.669 76.582 76.489 76.407 76.282 76.167 76.074 76.064 76.082 76.067 76.037 76.037 76.487 76.409 76.177 75.904 75.744 75.994 76.009 78.147 77.054 77.092 75.804 76.689 76.902 76.509 76.912 83.867 85.597 79.852 74.729 74.622 77.132 76.712 79.282 75.134 76.969 77.809 75.989 76.987 76.824 75.397 74.234 73.857 75.977 77.037 75.849 76.002 78.014 77.792 79.674 78.517 77.494 75.902 75.772 78.129 74.942 77.934 77.709 74.579 75.574 73.159 73.252 74.112 77.649 77.059 78.239 73.922 76.394 76.179 76.197 79.327 75.874 75.782 77.042 77.577 -9999 -9999 -9999 -9999 -9999 -9999 -9999 -9999 -9999 -9999 -9999 -9999 -9999 -9999 -9999 72.807 72.652 72.699 73.357 74.847 72.684 73.079 75.072 73.817 73.969 73.337 73.059 73.272 73.534 74.362 74.492 74.572 76.937 79.404 78.897 77.944 78.159 80.062 82.734 80.319 80.182 76.999 78.894 78.087 82.992 81.639 84.327 81.777 79.162 82.299 82.909 81.907 79.492 79.814 82.144 82.082 79.212 78.377 78.372 78.517 78.657 78.789 78.939 79.099 79.289 79.424 80.139 85.224 83.534 85.959 83.252 83.222 81.447 81.777 84.159 81.359 81.639 82.804 88.699 90.529 89.712 87.472 88.139 88.362 83.869 84.484 83.779 84.822 85.309 85.209 85.232 85.344 85.744 87.914 88.199 91.284 91.619 92.319 90.692 87.232 88.029 87.017 86.337 89.429 90.322 89.839 86.726 86.496
108.223 106.59 105.128 104.243 103.828 107.45 106.49 104.923 103.89 104.733 104.685 101.293 101.463 101.655 104.895 108.228 104.48 104.823 101.99 99.608 109.268 103.5 103.378 105.405 99.635 97.648 99.63 102.855 100.21 100.11 102.173 102.108 102.383 102.2 98.89 97.81 97.17 96.408 95.368 95.168 95 94.893 94.835 94.783 94.82 94.803 94.79 95.16 98.685 97.825 99.005 102.68 100.895 98.078 102.07 101.31 97.255 96.303 101.348 99.985 101.995 99.65 99.64 98.67 101.075 98.995 101.903 97.323 94.78 93.413 93.73 95.03 93.153 93.11 93.74 93.568 93.423 94.08 94.973 94.565 93.165 92.67 92.345 92.225 92.177 92.17 92.177 92.237 93.495 94.992 93.675 94.342 94.722 92.762 92.81 92.947 92.51 92.495 94.192 94.707 95.697 97.31 93.885 93.017 93.757 92.487 92.4 91.875 91.402 91.285 91.195 91.095 90.957 90.797 90.64 90.527 93.07 90.96 92.002 91.77 93.122 95.37 96.097 94.847 93.285 91.967 90.652 88.877 88.98 90.467 91.162 88.45 88.435 88.375 88.377 88.395 88.427 88.385 88.327 88.307 88.282 88.217 89.447 91.285 90.63 91.28 90.255 88.85 88.745 88.542 88.447 87.925 87.807 87.35 87.41 87.527 89.23 90.75 89.73 93.18 89.097 90.072 88.385 88.972 86.127 93.305 98.295 95.125 92.97 92.672 93.162 91.49 89.022 90.512 91.177 89.802 90.8 91.1 89.372 86 85.17 84.41 84.322 87.52 87.917 87.1 86.112 89.822 86.692 85.73 87.152 85.987 88.895 89.012 88.22 88.882 85.44 87.4 91.017 90.09 85.177 83.577 81.322 81.135 80.96 80.772 80.607 80.37 80.242 80.4 82.917 81.187 80.457 79.875 79.912 79.742 79.575 79.262 79.327 79.245 79.095 78.972 78.695 78.475 78.257 78.142 77.945 77.827 77.842 77.842 77.877 77.639 77.434 77.189 77.069 77.027 76.957 76.942 76.927 76.899 76.869 76.817 76.797 76.732 76.719 76.662 76.579 76.474 76.487 76.544 76.509 76.444 76.319 76.249 76.149 76.034 75.952 76.052 76.289 76.397 76.212 75.982 75.889 76.847 78.284 76.669 75.679 75.567 76.032 76.952 77.199 76.509 75.672 75.594 76.064 76.872 77.692 80.759 82.879 80.634 74.829 75.494 78.824 74.974 78.937 74.149 75.832 75.292 74.137 75.364 73.909 74.852 74.652 74.034 77.499 75.502 75.499 74.817 77.462 75.784 79.844 77.389 77.364 76.162 75.889 78.107 76.752 77.062 75.204 74.137 73.389 73.357 73.282 74.727 74.917 74.699 77.782 78.634 75.942 79.167 74.642 76.202 74.657 76.387 77.077 76.859 -9999 -9999 -9999 -9999 -9999 -9999 -9999 -9999 -9999 -9999 -9999 -9999 -9999 -9999 -9999 -9999 -9999 74.867 75.559 74.909 74.597 76.957 73.107 72.947 73.249 73.217 73.092 73.402 73.674 73.764 73.927 74.214 75.507 79.259 79.639 82.417 80.479 83.504 81.157 84.862 81.627 76.122 78.407 75.832 79.769 78.392 82.359 84.864 78.622 77.459 78.067 80.954 77.932 78.902 80.312 83.184 81.867 78.209 78.144 78.292 78.402 78.559 78.697 78.862 79.044 79.174 81.927 83.704 84.627 83.952 83.562 81.604 80.569 83.967 83.877 85.104 82.922 84.017 82.042 86.767 84.467 84.332 86.004 91.062 90.099 89.149 87.167 83.817 85.292 85.329 85.192 85.199 85.262 85.757 88.294 91.069 92.197 91.794 87.672 85.554 86.059 85.649 86.049 88.249 90.562 90.579 87.971 86.386
104.815 104.518 104.353 104.083 103.423 104.108 104.53 103.348 103.505 101.663 104.703 102.7 105.328 107.463 105.77 108.805 106.803 107.18 104.645 104.66 101.388 102.155 104.795 103.623 101.63 97.893 99.728 100.735 98.305 98.423 103.235 101.568 98.675 100.398 97.303 98.05 96.365 95.938 95.378 95.018 94.818 94.673 94.533 94.438 94.42 94.445 94.453 94.445 97.878 97.158 96.883 97.788 99.575 104.085 99.693 97.275 95.358 98.71 100.148 100.843 97.97 103.23 98.993 96.35 98.01 94.398 95.178 99.38 93.573 93.17 93.078 92.963 92.845 92.758 93.253 93.323 92.88 92.873 93.258 92.895 93.435 93.355 91.887 91.842 91.8 91.767 92.74 93.475 93.24 92.075 92.047 92.172 92.15 92.18 92.19 92.162 92.125 92.097 93.887 93.797 96.252 97.285 95.5 94.687 92.695 92.692 92.11 91.545 90.985 90.867 90.777 90.68 90.557 90.435 90.305 90.165 94.045 90.232 93.02 90.282 91.715 94.522 95.665 95.427 94.95 92.392 89.617 88.737 88.43 88.332 88.617 88.192 88.185 88.167 88.157 88.132 88.162 88.127 88.075 88.037 87.997 90.292 89.775 91.46 90.222 89.797 88.722 88.117 87.932 87.61 87.527 87.69 88.17 87.07 89.597 87.5 88.885 90.3 88.882 91.16 92.762 91.44 90.33 89.082 85.802 90.817 90.43 90.24 91.295 93.22 92.842 88.72 88.667 89.137 91.927 89.39 87.88 85.465 86.155 85.15 84.422 84.402 86.302 85.392 87.895 90.202 87.66 87.507 88.775 89.667 83.292 90.672 87.172 86.487 89.78 86.287 86.205 88.027 83.457 87.367 84.087 81.387 81.09 80.915 80.73 80.54 80.35 80.132 80.02 80.052 80.387 80 80.05 79.757 79.372 79.29 79.085 78.852 78.62 78.637 78.652 78.335 78.205 78.2 77.982 77.757 77.632 77.497 77.372 77.44 77.337 77.512 77.194 76.932 76.939 76.862 76.712 76.722 76.709 76.654 76.622 76.582 76.562 76.564 76.542 76.534 76.412 76.274 76.259 76.339 76.324 76.322 76.204 76.082 76.042 75.949 75.914 76.024 76.502 76.209 76.237 75.987 75.584 75.607 77.199 76.654 77.179 76.362 76.824 75.864 76.187 76.817 76.212 75.932 75.024 74.879 78.837 80.339 75.779 76.889 80.182 77.024 78.674 77.614 77.604 75.069 73.979 74.624 74.227 73.904 73.789 73.749 74.912 76.164 74.172 73.512 74.302 77.049 77.589 78.157 76.572 75.292 75.512 75.324 79.469 76.384 73.657 77.442 74.007 73.442 74.329 73.379 73.204 73.867 72.992 73.274 73.182 76.924 75.069 73.264 72.234 75.744 76.032 76.487 77.877 75.172 -9999 -9999 -9999 -9999 -9999 -9999 -9999 -9999 -9999 -9999 -9999 -9999 -9999 -9999 -9999 -9999 -9999 -9999 76.81 78.252 76.884 80.997 75.967 72.899 73.582 73.354 72.959 73.354 73.612 73.864 74.217 74.092 74.287 76.079 81.394 80.932 83.707 82.174 80.957 80.867 77.237 75.814 76.824 80.684 77.092 80.229 81.092 79.267 79.104 80.604 77.364 77.814 82.362 80.722 84.569 81.477 81.832 77.702 77.879 78.042 78.179 78.329 78.479 78.694 78.842 79.039 82.309 82.492 80.902 82.337 80.054 80.114 80.357 83.639 87.399 86.402 82.597 83.524 82.927 82.077 84.037 86.852 89.744 87.664 89.779 90.424 89.504 89.577 83.839 85.069 85.292 85.154 85.194 86.224 85.377 91.129 92.132 91.527 86.359 85.514 85.494 85.484 85.647 86.072 89.272 90.496 88.149 86.619
104.695 104.158 103.883 103.53 103.56 103.083 102.958 103.42 101.943 101.743 104.95 103.938 105.363 103.58 104.888 104.953 105.135 107.275 107.27 106.74 105.655 101.008 106.05 101.813 98.788 98.193 100.153 100.83 98.993 101.953 100.453 102.463 99.695 99.23 98.973 98.318 95.718 95.683 95.608 95.14 94.778 94.453 94.338 94.278 94.215 94.16 94.14 94.078 95.79 95.22 102.473 102.055 98.445 101.683 98.438 97.308 94.348 98.063 99.813 97.828 96.425 99.9 97.295 96.163 100.845 101.683 95.283 96.098 93.298 92.923 92.83 92.693 92.555 92.475 92.37 92.258 92.213 92.135 92.36 92.108 91.958 91.72 91.59 91.547 91.45 91.38 95.665 95.387 94.502 93.01 92.392 92.385 92.227 91.952 91.852 91.807 91.747 91.735 93.322 92.902 95.047 97.125 96.507 92.212 91.62 91.892 91.487 91.12 90.675 90.477 90.4 90.312 90.17 90.067 89.96 91.522 92.697 94.42 90.702 92.99 92.107 92.497 95.887 92.402 95.9 91.552 90.262 88.74 88.212 88.067 88.007 87.94 87.93 87.917 87.96 88.087 88.22 88.015 87.91 87.9 87.76 88.057 88.015 87.86 90.137 88.555 87.82 87.827 89.162 88.015 88.182 88.505 87.177 86.905 87.402 88.332 90.312 92.077 90.91 89.352 90.742 88.072 89.79 91.105 86.862 87.377 89.377 91.24 91.955 90.325 92.085 90.827 91.827 90.547 89.72 86.422 88.065 85.822 84.937 85.15 83.947 84.325 86.857 89.182 85.172 88.08 87.882 86.652 84.527 86.175 83.85 90.25 89.612 88.182 87.57 83.927 86.552 88.167 88.27 84.41 81.627 81.045 80.807 80.66 80.467 80.27 80.072 79.915 79.822 79.765 80.03 79.645 79.69 79.44 79.182 78.922 78.66 78.812 78.407 78.24 78.07 77.98 77.91 77.812 77.7 77.542 77.412 78.772 78.41 78.957 77.225 77.297 76.857 76.734 76.737 76.527 76.527 76.442 76.437 76.507 76.524 76.409 76.387 76.384 76.359 77.029 76.422 76.154 76.072 76.119 76.172 76.142 76.042 75.974 75.874 75.924 75.899 76.047 76.484 76.689 76.084 75.677 75.499 75.334 75.877 76.164 78.859 77.799 78.637 78.582 76.957 75.717 75.184 75.002 75.202 77.464 78.477 79.424 79.374 79.999 77.739 76.637 77.347 78.339 78.159 79.222 76.247 74.519 73.707 74.217 74.154 74.232 75.667 76.542 75.794 73.902 74.797 73.592 75.102 75.744 75.044 74.509 75.497 75.044 76.574 77.894 73.797 76.934 74.802 73.099 73.077 73.247 73.052 72.777 72.672 72.429 72.589 74.014 75.887 75.667 75.614 75.992 76.864 77.004 75.422 74.532 -9999 -9999 -9999 -9999 -9999 -9999 -9999 -9999 -9999 -9999 -9999 -9999 -9999 -9999 -9999 -9999 -9999 -9999 -9999 76.027 79.772 78.172 74.962 73.002 73.189 73.509 72.607 72.932 73.419 73.652 74.059 74.402 74.274 76.002 79.579 80.634 81.517 80.509 82.279 80.279 80.557 75.164 75.314 77.962 79.829 77.762 78.754 81.669 80.062 78.307 82.059 82.287 77.607 76.797 84.142 79.969 80.284 77.464 77.674 77.774 78.069 78.092 78.302 78.449 78.579 78.752 81.144 78.997 80.557 82.542 80.249 79.892 80.732 81.432 84.329 86.387 83.294 82.439 84.097 81.799 83.124 85.612 86.949 88.179 89.384 83.809 87.947 87.584 83.579 84.119 85.449 85.329 86.059 85.529 84.757 87.484 90.369 89.387 85.942 85.482 85.499 85.432 86.482 86.262 88.634 90.074 87.709 86.126
104.69 103.878 103.49 103.165 103.158 102.553 102.2 101.835 101.713 101.195 102.475 102.963 102.663 102.825 105.568 105.14 105.515 106.263 101.898 104.84 101.098 104.738 103.605 99.973 98.35 98.15 98.008 102.96 98.993 101.933 102.008 101.985 98.983 101.538 99.923 97.188 95.303 95.295 95.128 94.805 94.495 94.138 94.048 94.02 94.008 93.95 93.895 93.845 93.768 97.078 97.758 96.723 95.038 100.153 97.91 95.473 93.995 97.145 97.085 99.748 95.215 100.583 96.178 96.393 97.648 96.808 95.408 94.02 93.123 92.715 92.535 92.383 92.275 92.183 92.083 92.23 92.088 92.815 92.69 93.21 91.643 91.47 91.302 91.26 91.137 91.93 93.005 94.932 94.857 92.95 93.295 95.612 95.175 91.747 91.462 91.407 91.315 91.327 93.782 93.327 95.237 98.21 96.482 95.377 92.035 91.115 91.04 90.932 90.58 90.172 90.04 89.935 89.84 89.75 89.602 90.352 92.66 93.737 92.997 92.117 94.567 94.792 93.63 91.392 90.995 88.785 88.475 88.075 88.015 87.87 87.757 87.775 88.032 87.757 87.707 87.825 88.367 89.67 91.885 87.975 87.632 87.585 87.457 87.88 89.532 88.165 87.825 87.845 88.417 87.317 88.68 87.315 86.675 86.615 86.752 88.432 90.87 90.72 86.185 89.932 87.867 88.177 90.382 88.895 88.782 88.83 86.27 92.207 93.467 91.367 89.407 88.335 89.017 92.252 90.522 85.832 89.047 87.557 86.252 85.332 87.215 83.71 86.34 89.195 88.955 84.942 87.822 87.185 89.387 88.492 85.447 89.045 87.042 87.51 88.897 87.347 84.837 83.71 85.79 86.797 81.165 80.685 80.555 80.342 80.167 80.16 79.992 79.93 79.687 79.587 79.602 79.5 79.195 79 78.752 78.645 78.585 78.34 78.172 78.002 77.917 77.83 77.762 77.69 77.575 77.45 77.275 78.522 78.337 79.865 79.42 78.739 78.707 76.824 76.507 77.337 78.972 77.657 76.274 76.349 76.224 76.289 76.232 76.222 76.199 76.937 76.194 76.104 75.857 75.932 75.924 75.927 75.902 75.834 75.744 75.869 76.032 76.204 76.389 76.369 76.029 76.474 75.269 76.699 75.422 75.012 76.902 79.857 80.947 79.812 77.014 77.814 74.759 74.767 74.764 75.659 77.667 76.992 77.179 81.437 79.699 77.067 75.874 75.647 75.082 75.214 74.954 74.504 73.649 74.192 73.694 74.214 76.002 74.492 74.484 73.369 74.652 73.264 73.229 73.539 73.992 73.939 72.967 74.807 75.669 75.142 74.069 76.222 73.732 73.022 73.167 72.997 72.782 72.834 72.644 72.422 72.689 72.697 72.409 75.457 78.654 76.667 76.782 76.699 75.852 75.374 -9999 -9999 -9999 -9999 -9999 -9999 -9999 -9999 -9999 -9999 -9999 -9999 -9999 -9999 -9999 -9999 -9999 -9999 -9999 -9999 77.797 73.187 73.272 74.162 74.284 73.054 72.579 73.007 73.639 73.634 73.932 77.434 76.829 77.239 75.462 77.632 77.359 76.692 79.127 77.367 76.549 75.019 75.122 77.774 76.547 78.309 79.442 79.944 79.092 78.257 80.899 80.492 81.519 77.812 77.489 76.922 80.447 77.202 77.387 80.247 80.059 77.894 78.027 78.159 79.212 80.177 80.657 78.912 81.014 80.142 79.479 79.712 80.254 81.784 87.642 84.009 82.859 81.779 83.579 85.597 87.717 87.469 90.239 94.544 91.194 87.459 86.317 87.814 83.519 83.469 83.657 85.597 86.497 84.759 84.724 84.764 85.384 86.342 85.817 85.462 85.494 86.019 88.712 86.304 87.572 87.959 86.249 87.469
105.275 103.44 103.158 102.768 102.475 102.225 101.905 101.595 102.21 103.003 106.748 101.548 104.263 101.828 100.505 103.033 107.568 105.123 105.948 104.633 102.41 100.89 100.365 102.763 98.67 98.38 100.128 99.08 99.073 103.503 101.353 99.353 102.258 100.54 98.125 97.065 95.933 95.35 95.15 94.855 94.453 94.093 93.915 93.738 93.625 93.563 93.48 93.48 93.465 98.46 98.573 98.905 93.705 96.923 93.488 93.988 93.723 96.443 96.523 97.638 98.443 99.08 98.115 94.825 97.895 95.875 96.32 93.643 92.788 95.893 93.57 92.108 92.013 91.928 91.998 92.735 93.35 92.463 92.088 94.473 91.655 91.682 92.572 91.647 92.207 90.7 92.715 91.947 91.127 95.962 95.52 94.957 97.752 91.78 91.05 90.992 90.925 90.905 90.897 91.102 93.142 96.012 96.355 95.277 92.03 91.007 90.597 90.47 90.327 90.127 89.742 90.732 89.472 89.385 89.485 91.082 90.797 93.265 96.12 95.055 91.372 95.17 92.757 92.072 89.085 88.867 87.99 87.832 87.767 87.67 87.655 87.67 88.292 87.992 87.71 88.092 87.785 88.84 89.532 89.697 87.462 88.025 87.532 87.21 89.73 87.515 86.965 89.36 87.187 86.935 86.515 86.387 86.277 86.222 87.722 88.192 87.342 85.85 85.782 88.515 89.677 89.947 89.53 88.857 87.257 88.36 87.967 87.75 87.417 87.7 91.075 90.88 88.882 89.745 88.995 87.25 86.407 83.94 85.497 88.235 87.045 84.92 84.812 86.71 88.835 88.725 86.02 88.83 85.57 88.615 87.667 86.98 92.765 93.215 89.772 88.71 85.472 85.797 83.495 80.89 80.627 80.49 81.087 80.26 80.242 80.702 80.56 80.855 80.127 79.44 79.427 79.242 79.022 78.85 78.607 78.412 78.292 78.215 77.992 77.897 77.852 77.775 77.677 77.567 77.427 77.327 77.37 76.967 81.212 79.497 79.592 78.284 78.117 81.017 78.274 79.442 78.247 81.102 77.167 76.222 76.039 75.994 76.912 76.787 78.632 76.089 77.317 76.242 75.714 75.707 75.762 75.714 75.824 75.812 76.267 75.822 75.574 75.819 76.119 75.809 75.452 75.889 75.992 75.659 75.884 78.247 78.759 78.299 82.439 79.594 79.909 76.527 74.889 74.639 75.082 74.559 79.572 78.429 74.389 76.917 76.684 80.894 76.059 80.229 77.599 77.989 73.609 74.332 75.877 74.827 73.459 73.339 74.339 74.279 73.727 73.244 73.379 73.142 73.029 73.277 72.932 72.857 72.824 72.767 75.289 72.907 75.364 74.124 74.654 72.927 73.079 72.794 73.177 72.354 72.357 72.419 72.499 72.447 72.532 72.462 73.844 75.284 74.094 75.002 74.964 -9999 -9999 -9999 -9999 -9999 -9999 -9999 -9999 -9999 -9999 -9999 -9999 -9999 -9999 -9999 -9999 -9999 -9999 -9999 -9999 -9999 73.08 73.377 77.017 78.292 73.292 72.889 73.102 73.497 73.444 73.687 75.717 82.097 83.572 78.652 77.494 77.357 76.824 78.114 78.459 77.882 74.679 74.984 75.284 76.332 78.152 80.409 77.062 78.149 77.267 76.992 76.777 79.097 76.529 76.359 76.537 76.939 76.847 77.002 77.239 77.522 77.492 82.817 77.732 77.859 81.032 80.272 82.717 79.707 79.129 79.267 79.209 79.532 81.457 83.464 82.239 81.797 85.467 82.104 81.254 91.762 88.864 89.177 88.792 87.849 88.827 89.509 92.207 88.372 83.474 83.434 83.364 83.544 84.339 84.697 84.694 84.809 85.554 86.022 85.467 85.449 85.494 85.582 88.069 85.674 86.602 85.794 86.994 86.606
105.523 103.325 103.078 102.72 102.388 102.155 101.855 101.888 103.635 102.733 103.96 101.655 104.1 102.378 105.358 104.735 104.365 100.84 107.69 105.305 101.613 104.46 103.545 101.793 98.678 98.4 99.833 100.425 100.118 100.75 98.065 98.183 101.565 100.773 101.005 98.37 95.953 95.565 95.173 95.21 94.815 94.29 94.12 93.913 93.618 93.463 93.343 93.175 92.973 96.655 98.273 100.635 98.018 96.185 93.915 93.39 93.47 95.475 100.215 96.993 97.29 96.705 97.48 93.808 96.81 94.595 92.96 94.808 95.64 95.275 94.953 91.843 91.778 91.828 91.983 94.483 92.6 93.535 94.365 93.775 92.565 95.705 96.012 93.137 94.51 91.42 92.402 90.11 90.71 94.855 99.722 96.172 95.455 90.94 90.655 90.595 90.585 90.562 90.517 90.565 91.347 92.452 92.65 91.202 91.165 90.79 90.357 90.197 90.057 91.167 90.445 90.987 91.507 89.145 89.807 90.19 91.4 90.39 95.49 93.665 94.29 94.355 92.442 89.537 88.305 87.84 87.747 87.61 87.51 87.44 87.477 87.57 87.537 87.807 89.475 89.205 88.907 88.802 87.71 87.355 87.61 87.21 88.595 87.01 92.095 90.955 88.53 87.49 86.385 86.25 86.192 86.105 85.98 86.035 89.647 92.097 88.962 90.662 88.375 86.34 86.872 87.97 90.237 88.69 84.557 84.462 86.23 85.617 89.405 85.957 89.275 87.805 88.347 88.682 88.725 86.227 88.86 89.1 87.052 86.305 84.94 84.647 83.052 87.18 85.602 82.58 86.16 87.855 83.147 87.252 86.915 85.62 88.647 88.617 87.747 88.925 87.602 83.862 84.727 80.547 80.447 81.357 84.662 84.917 84.452 82.082 80.832 80.365 79.832 79.302 79.265 79.125 78.832 78.645 78.45 78.25 78.105 78 77.91 77.815 77.72 78.35 77.502 78.352 79.395 78.272 77.8 77.427 80.94 80.777 81.505 81.862 80.592 77.932 77.832 79.057 77.599 78.044 79.017 75.979 75.852 75.819 77.612 78.937 77.767 79.752 76.762 76.357 76.207 75.504 75.499 75.542 76.344 76.839 76.107 75.577 75.402 75.339 75.507 75.634 75.587 75.574 75.397 74.954 76.602 78.394 79.917 80.939 78.617 79.412 77.019 76.184 74.827 74.544 77.384 79.002 78.189 77.489 82.542 77.254 77.239 77.409 77.334 78.439 79.029 77.062 73.717 76.624 76.859 75.909 73.317 73.227 73.232 73.287 73.857 73.127 73.089 72.999 72.904 72.852 72.829 72.774 72.804 72.804 73.944 74.809 74.709 73.827 72.937 72.872 72.817 72.389 72.764 72.334 72.267 72.339 72.464 72.582 72.554 72.439 72.689 73.849 73.554 73.967 74.254 -9999 -9999 -9999 -9999 -9999 -9999 -9999 -9999 -9999 -9999 -9999 -9999 -9999 -9999 -9999 -9999 -9999 -9999 -9999 -9999 -9999 -9999 73.794 75.979 77.249 75.212 73.002 72.792 73.174 73.359 73.682 81.752 84.127 83.207 82.844 82.314 76.647 77.657 76.232 74.354 74.409 74.524 75.184 75.732 75.822 75.742 75.317 76.479 75.874 76.369 76.012 76.472 75.834 76.057 76.622 79.844 79.612 76.602 76.759 81.647 82.129 81.912 82.457 80.877 79.214 81.129 79.797 82.079 80.767 80.562 78.764 78.874 79.132 83.577 82.172 80.854 80.382 82.044 80.664 84.994 83.297 82.687 87.089 86.807 90.749 88.212 86.764 88.362 84.507 83.464 83.382 83.369 83.247 83.252 84.419 84.682 85.284 85.802 85.152 85.247 85.372 85.452 85.799 86.747 87.382 86.142 86.374 87.661 85.796
103.605 103.418 102.98 102.548 102.2 101.935 101.693 101.833 103.735 104.3 102.883 103.978 101.693 104.545 107.103 103.178 100.843 101.91 101.043 104.525 103.068 108.455 103.65 103.045 102.493 98.56 99.085 98.105 100.523 101.658 99 99.36 103.828 102.068 99.823 99.748 98.165 95.548 95.373 95.4 94.763 94.318 94.153 93.96 93.775 93.528 93.433 93.223 93.088 96.483 96.805 96.433 93.003 96.913 98.39 93.008 92.77 92 94.25 98.418 96.31 99.413 97.583 95.803 94.738 93.625 92.83 95.588 97.478 94.203 95.465 91.82 91.683 91.56 92.488 93.01 93.28 93.528 94.363 94.878 92.245 92.315 91.435 93.022 95.632 93.112 90.99 89.562 89.855 94.437 96.182 93.517 94.037 97.33 92.905 91.785 90.24 90.2 90.137 90.167 90.795 90.61 90.947 90.882 90.692 90.307 90.105 91.117 93.827 94.492 92.24 89.522 90.917 94.072 89.947 91.192 95.207 91.535 93.07 91.575 93.662 92.3 90.642 88.162 87.662 87.545 87.482 87.375 87.27 87.222 87.267 87.322 87.115 87.162 87.787 87.565 91.245 87.977 87.767 87.022 87.152 87.262 87.345 88.542 90.587 92.625 88.232 86.752 86.072 86.04 85.957 85.852 87.122 85.832 88.572 90.735 89.855 88.757 89.547 85.59 90.4 86.282 86.887 85.612 84.785 85.732 89.772 86.862 86.792 86.997 92.44 86.81 89.027 85.145 90.267 87.29 87.64 90.357 88.692 89.497 88.077 82.932 84.802 85.86 90.042 87.822 84.482 86.387 89.892 86.202 85.825 86.902 89.332 88.075 87.522 87.3 86.045 85.942 82.662 81.64 80.39 81.167 84.492 81.932 83.8 82.695 83.065 84.27 82.57 79.662 79.312 79.01 78.685 78.43 78.252 78.107 78.02 77.902 77.785 77.645 77.515 77.437 77.382 79.015 79.437 81.745 79.4 77.825 80.14 80.177 79.937 79.937 81.814 80.879 77.512 81.292 79.807 81.354 83.224 75.937 75.899 75.692 77.607 80.547 79.362 79.172 79.242 79.082 76.782 75.409 75.382 75.404 75.482 75.517 75.452 76.182 75.459 75.644 77.847 77.812 77.289 75.237 75.059 75.147 75.864 77.872 82.842 83.652 80.957 78.264 80.744 74.609 76.369 74.514 76.132 77.722 84.519 79.507 77.814 74.757 77.684 75.479 78.749 79.354 79.719 75.652 75.524 78.002 77.592 75.517 73.199 73.127 73.124 73.109 73.082 73.004 72.977 72.937 72.859 72.789 72.739 72.784 72.729 72.699 73.707 76.122 76.832 73.517 72.452 72.512 72.487 72.397 72.337 72.292 72.342 72.377 72.492 72.407 72.512 72.622 72.727 72.454 72.852 73.422 -9999 -9999 -9999 -9999 -9999 -9999 -9999 -9999 -9999 -9999 -9999 -9999 -9999 -9999 -9999 -9999 -9999 -9999 -9999 -9999 -9999 -9999 -9999 -9999 77.5 77.489 77.239 76.599 73.777 72.622 76.302 80.542 85.709 86.072 85.437 86.024 82.709 79.254 79.319 74.132 74.182 74.189 74.514 74.727 75.144 75.587 75.689 75.124 75.207 75.199 75.244 76.294 75.519 75.809 78.132 78.824 77.624 79.059 76.354 76.542 78.407 84.589 83.497 80.782 77.289 77.442 83.827 81.692 81.844 80.727 82.952 78.489 78.662 78.832 80.289 79.457 79.694 79.977 80.054 81.339 80.479 85.512 86.454 84.007 84.074 87.927 89.364 88.282 85.122 85.267 83.419 83.294 83.254 83.229 83.132 83.269 84.332 84.632 85.362 85.922 85.152 85.254 85.354 85.882 87.097 85.617 85.799 87.484 87.439 85.396
103.243 103.04 102.718 102.495 102.35 102.45 103.92 103.53 103.488 105.313 104.133 106.765 104.948 102.548 102.625 103.628 105.315 103.94 106.118 104.55 107.825 102.265 104.66 104.26 99.37 98.583 98.528 98.658 100.238 100.42 102.61 102.55 100.463 101.063 99.105 99.633 96.04 95.828 97.57 95.175 94.803 94.455 94.208 94.043 93.748 93.78 94.753 94.098 93.443 97.6 99.59 100.015 94.83 95.663 92.33 92.41 92.25 92.453 95.088 95.363 96.055 94.288 98.833 93.873 92.273 95.355 95.425 95.383 96.87 98.243 95.203 93.975 93.103 93.218 93.243 91.843 94.263 92.583 91.688 91.543 92.748 95.01 96.835 92.602 96.592 95.81 93.257 89.26 89.125 90.037 91.535 97.227 97.802 92.595 95.957 94.315 89.857 89.855 90.095 91.147 92.712 90.02 90.035 90.02 89.85 89.657 89.42 94.282 94.27 92.262 94.092 93.49 92.947 92.907 92.105 91.092 89.657 91.732 92.472 90.962 92.312 90.407 88.885 87.545 87.387 87.315 87.23 87.147 87.032 87 87.107 87.272 87.615 86.835 86.715 89.897 87.512 87.915 86.937 86.82 86.962 86.787 86.897 89.885 90.582 89.847 88.672 86.055 85.915 85.837 85.762 85.685 86.007 88.21 86.405 90.107 87.427 91.07 91.28 88.41 91.087 87.5 85.695 86.015 83.89 86.347 88.327 89.615 87.815 90.477 89.142 83.715 83.595 87.175 90.182 86.665 87.885 87.44 85.535 87.74 85.612 83.795 86.7 86.285 88.065 88.01 87.215 87.005 85.65 90.6 83.592 87.815 86.845 81.162 83.3 81.072 85.037 84.257 82.217 81.632 81.325 82.597 83.14 82.26 81.087 83.002 83.717 85.392 83.095 83.415 79.057 78.95 79.307 78.437 79.337 78.082 77.882 77.807 78.142 78.68 77.602 77.512 77.495 79.915 79.412 80.68 79.555 79.677 80.582 79.612 79.257 82.397 81.649 81.632 84.977 83.979 81.407 79.589 81.457 83.692 80.442 76.849 79.619 78.492 77.234 78.017 79.064 77.552 75.647 75.404 75.304 75.412 75.559 75.377 75.319 76.402 76.857 75.902 75.564 76.554 75.192 75.164 75.099 74.907 77.302 76.699 80.427 79.449 81.229 77.387 79.507 76.062 78.874 76.904 75.554 77.052 81.369 82.097 83.172 75.629 76.274 75.512 77.364 76.532 75.967 73.942 75.669 76.929 78.352 76.857 74.489 73.089 73.037 73.007 72.987 72.922 72.947 72.829 72.767 72.682 72.632 72.694 72.722 72.649 72.799 75.079 78.514 76.222 73.882 72.349 72.324 72.344 72.299 72.377 72.414 72.457 72.459 72.472 72.457 72.649 72.624 72.544 72.604 -9999 -9999 -9999 -9999 -9999 -9999 -9999 -9999 -9999 -9999 -9999 -9999 -9999 -9999 -9999 -9999 -9999 -9999 -9999 -9999 -9999 -9999 -9999 -9999 -9999 -9999 78.699 77.592 75.384 73.294 72.502 74.729 80.634 87.274 86.207 86.744 85.949 80.117 83.122 78.809 73.987 73.949 73.932 74.177 74.419 74.902 74.977 74.859 74.794 74.859 74.982 75.117 75.254 75.379 75.474 78.529 81.944 80.364 78.547 76.974 76.304 82.089 80.262 83.502 79.844 77.239 80.169 79.074 82.124 83.234 81.969 79.894 78.744 78.407 78.572 78.954 79.474 79.814 79.894 80.352 80.959 80.407 80.379 80.554 81.794 84.917 85.569 85.614 85.574 87.089 85.289 82.987 83.277 83.144 83.137 83.099 83.004 83.007 83.839 84.107 84.747 86.074 86.119 86.217 85.659 85.947 85.752 87.004 87.241 86.896 85.114
104.19 103.843 103.145 102.958 102.813 108.355 103.64 102.898 105.92 103.068 101.748 108.028 107.765 103.423 102.658 101.393 103.678 105.393 108.24 108.948 104.778 103.578 103.828 100.96 99.27 99.19 98.96 98.558 98.29 99.455 101.758 102.978 103.675 103.3 100.39 96.728 96.385 96.255 98.533 95.733 95.09 94.718 94.49 94.2 93.94 93.79 94.27 95.295 93.788 94.123 96.62 99.193 96.175 97.375 95.19 92.405 92.288 92.13 92.25 95.175 96.05 94.795 93.835 95.965 100.858 95.263 95.37 95.643 91.89 94.058 97.333 96.56 95.53 97.445 91.858 92.915 93.653 92.75 90.823 90.518 92.253 97.992 94.105 94.522 95.177 92.815 90.357 90.407 92.227 93.3 94.787 99.337 92.87 97.917 95.472 92.92 89.47 89.505 91.82 94.447 94.787 91.4 90.537 90.227 89.787 89.185 92.217 93.95 92.042 89.762 91.705 94.13 89.147 90.392 88.977 88.89 90.32 91.227 88.487 87.96 89.792 90.637 87.902 87.24 87.132 87.047 86.972 86.895 86.795 86.745 86.885 87.447 86.91 87.272 87.237 87.812 87.322 86.962 87.537 87.132 87.937 87.07 86.66 87.53 89.555 87.755 88.472 86.065 85.687 85.605 85.477 85.317 87.915 86.832 87.297 89.85 86.547 87.005 90.007 88.245 89.33 91.645 88.322 85.967 83.59 85.282 87.63 90.365 89.635 89.83 89.37 83.735 84.272 87.122 87.377 89.505 86.335 86.805 86.032 86.255 84.137 84.967 88.822 86.377 85.495 88.247 86.717 87.55 83.302 85.49 83.67 85.062 86.34 85.017 81.557 86.002 86.71 83.47 82.195 82.825 83.365 83.17 82.982 83.2 82.445 82.365 82.4 84.502 82.16 81.397 79.342 78.89 79.602 78.155 80.495 80.077 79.39 77.84 78.35 79.21 77.852 77.51 78.06 78.162 80.472 83.587 79.312 81.112 80.247 81.627 81.32 82.607 81.497 85.324 84.412 81.712 82.052 80.159 81.684 78.869 80.542 81.929 78.702 80.027 79.412 76.512 77.714 78.599 76.297 75.827 75.732 75.342 75.259 75.394 75.469 75.467 76.444 77.349 76.907 75.907 75.429 74.932 74.607 74.667 74.542 78.292 78.199 78.017 78.367 76.382 75.642 75.979 77.234 79.219 75.787 77.914 79.192 79.639 79.942 76.409 73.884 74.019 75.649 74.942 75.777 75.354 76.984 76.504 78.964 76.417 75.812 72.989 72.949 72.912 75.199 73.077 72.954 72.702 72.667 72.629 72.567 72.527 72.492 72.487 76.059 76.922 79.312 77.847 73.349 72.354 73.829 73.644 72.992 72.477 72.762 72.679 72.684 72.614 72.517 72.929 72.697 72.862 72.587 -9999 -9999 -9999 -9999 -9999 -9999 -9999 -9999 -9999 -9999 -9999 -9999 -9999 -9999 -9999 -9999 -9999 -9999 -9999 -9999 -9999 -9999 -9999 -9999 -9999 -9999 78.633 75.164 75.722 73.604 72.984 74.319 81.059 82.424 83.239 88.159 86.187 84.082 83.632 74.622 73.774 73.697 73.754 73.949 74.532 74.419 74.644 74.452 74.642 74.767 74.877 74.957 75.229 75.264 75.312 76.357 79.702 82.444 79.259 77.627 76.369 76.844 76.417 76.619 76.794 76.949 78.184 79.462 80.377 79.037 79.027 78.007 78.044 78.117 78.367 78.804 79.379 79.659 81.137 79.974 80.387 80.749 80.279 80.287 80.847 81.709 83.189 82.749 83.507 84.959 82.644 82.434 83.647 83.587 83.019 83.012 82.969 82.882 82.889 83.744 84.027 84.447 84.817 84.729 85.172 85.764 87.559 85.922 84.824 84.044 85.096
104.81 104.56 103.545 103.263 103.2 106.768 103.645 102.673 104.015 108.56 107.58 109.25 111.743 105.335 101.878 103.595 103.193 103.57 107.03 107.52 108.943 105.8 107.48 102.028 100.44 99.58 99.18 98.815 100.853 102.273 103.068 101.545 101.755 103.955 101.49 97.198 97.743 99.825 96.603 96.223 95.473 95.043 94.843 94.635 94.38 94.183 95.258 95.21 94.11 95.793 95.508 97.065 96.763 93.878 94.41 92.978 92.538 92.498 92.37 97.528 96.053 97.758 95.208 103.495 99.583 96.843 96.825 95.503 92.283 92.515 96.848 96.78 97.83 92.848 92.458 92.313 90.988 90.398 90.37 90.443 90.748 95.887 92.365 96.872 96.782 92.637 90.635 88.717 91.445 93.647 95.642 94.345 92.222 90.77 92.935 91.402 89.115 90.455 94.027 94.07 94.307 94.737 94.27 89.297 90.547 88.907 89.512 95.842 97.637 91.885 93.742 95.672 97.752 94.48 91.14 89.287 90.257 90.297 88.255 89.762 89.082 88.15 88.98 91.655 87.582 88.065 86.717 86.675 86.597 86.517 86.602 86.787 86.655 86.792 86.957 86.95 87.245 87.225 88.555 87.042 86.92 86.247 86.112 86.59 86.23 86.352 86.382 85.992 85.412 85.297 85.155 85.007 86.135 86.315 88.125 88.44 86.62 90.802 90.607 90.785 88.192 86.137 88.62 87.265 83.42 83.322 87.932 88.662 87.112 87.99 87.002 84.132 89.012 89.682 88.625 87.43 86.27 84.292 84.44 85.92 82.715 83.472 83.397 88.345 87.062 86.845 85.122 85.442 86.947 83.66 86.492 89.682 82.887 87.577 87.572 87.71 87.682 87.625 83.952 83.26 83.387 85.445 85.332 84.145 83.9 80.197 81.66 84.462 82.415 82.355 80.577 81.275 78.345 79.377 80.45 80.557 80.415 80.26 78.525 81.015 77.545 77.497 77.487 80.002 79.057 84.16 79.055 80.887 77.9 79.242 84.75 83.887 82.727 80.119 83.807 81.047 83.014 81.402 82.047 83.034 80.722 80.604 76.874 80.642 81.284 77.647 77.219 77.302 78.557 75.469 75.364 75.324 75.212 75.129 75.317 75.567 75.559 75.719 75.859 75.319 75.309 74.647 74.469 74.399 74.344 75.144 77.817 78.582 77.429 76.212 74.667 75.882 77.862 76.307 75.207 79.019 77.039 78.597 78.107 77.814 73.727 73.789 73.577 75.072 74.569 77.072 74.869 75.592 78.287 75.829 75.314 72.907 74.952 72.772 73.909 75.629 72.612 72.559 72.504 73.632 73.957 72.464 72.447 72.374 74.009 76.192 79.482 74.444 73.324 75.092 75.474 75.034 76.019 72.982 72.817 72.827 73.044 72.974 72.554 72.469 72.289 72.162 72.124 -9999 -9999 -9999 -9999 -9999 -9999 -9999 -9999 -9999 -9999 -9999 -9999 -9999 -9999 -9999 -9999 -9999 -9999 -9999 -9999 -9999 -9999 -9999 -9999 -9999 -9999 76.217 77.434 77.087 74.974 72.647 72.869 75.602 78.229 84.922 87.234 84.674 81.517 81.917 74.419 73.772 74.824 75.282 73.822 74.027 74.087 74.222 74.367 74.472 74.614 74.722 74.817 74.894 74.999 75.097 75.239 77.549 76.434 80.729 75.972 75.859 76.057 76.257 76.444 77.859 78.829 79.764 79.269 83.919 78.397 77.514 77.672 77.789 79.474 78.214 78.499 79.114 79.462 80.039 81.069 81.434 80.467 80.272 80.367 81.112 81.289 82.227 81.842 82.464 82.839 82.074 82.034 84.627 85.039 83.017 82.884 82.872 82.827 82.752 82.742 83.767 83.679 83.674 84.904 84.494 85.809 86.564 85.239 84.559 84.026 85.096
104.978 104.375 103.793 106.71 103.813 105.113 107.683 104.598 105.925 103.043 106.093 106.748 109.158 106.258 102.393 104.575 106.62 107.24 105.843 105.615 107.485 108.398 106.345 103.308 104.18 100.855 99.445 100.775 103.008 106.228 105.648 104.95 100.71 99.783 97.235 98.098 98.898 98.893 97.178 99.035 95.963 95.383 95.235 94.988 94.725 95.065 96.338 95.075 94.315 95.235 96.138 96.465 95.675 96.475 94.123 94.605 94.575 93.92 92.633 92.603 93.783 99.523 97.78 97.048 95.93 91.545 91.88 95.82 93.838 91.725 94.38 94.538 96.735 93.143 93.748 90.245 92.608 92.728 91.308 90.88 97.61 95.34 90.913 95.385 90.528 92.583 90.553 88.323 90.893 95.623 92.333 91.685 97.05 94.395 93.04 90.788 88.703 89.733 95.36 95.338 92.683 100.388 97.258 93.083 91.603 90.18 91.12 91.59 90.708 95.393 95.033 94.16 95.483 90.56 91.403 90.41 87.925 87.298 87.258 87.025 87.495 87.013 89.41 90.193 90.013 90.02 90.535 86.453 86.388 86.338 86.413 86.945 87.015 87.26 86.017 87.922 86.897 87.382 86.597 85.982 85.995 86.232 87.782 86.105 85.495 85.71 85.642 85.71 85.122 85.032 84.885 84.732 84.567 84.385 87.82 88.127 87.647 86.93 87.567 90.072 89.4 90.96 85.16 83.695 83.192 85.842 85.912 82.907 82.855 85.34 85.215 87.502 86.252 86.562 84.295 88.837 84.4 83.207 82.28 82.167 81.955 81.83 81.735 82.36 87.48 85.175 85.867 87.945 83.03 81.2 83.91 86.857 84.072 89.065 90.37 85.907 88.26 86.765 86.565 83.387 81.455 87.542 83.112 84.555 86.472 80.342 80.58 78.792 80.155 80.245 81.077 80.45 78.852 79.065 80.557 80.552 84.875 83.57 80.1 83.1 78.67 77.497 77.472 79.677 79.037 77.63 81.217 78.542 79.39 81.245 82.752 85.777 84.842 84.332 83.822 82.295 82.332 81.122 78.125 81.532 84.942 79.587 79.56 78.817 77.69 77.59 77.33 79.28 77.095 76.5 75.182 75.1 74.985 75.005 74.972 74.997 74.997 74.915 74.932 75.035 74.667 74.395 74.345 74.4 74.262 77.492 78.74 74.847 74.892 74.522 74.467 74.282 75.125 76.55 78.05 75.855 76.677 79.42 77.075 77.697 73.847 73.964 73.749 73.619 73.309 75.969 73.212 77.277 77.949 75.507 73.852 72.829 76.584 76.047 76.482 75.942 72.499 72.439 73.359 74.617 77.882 72.429 72.402 72.317 72.999 72.342 74.239 74.357 74.092 75.404 76.162 74.857 73.544 -9999 -9999 72.482 -9999 -9999 -9999 -9999 -9999 -9999 -9999 -9999 -9999 -9999 -9999 -9999 -9999 -9999 -9999 -9999 -9999 -9999 -9999 -9999 -9999 -9999 -9999 -9999 -9999 -9999 -9999 -9999 -9999 -9999 -9999 -9999 79.36 77.832 77.509 77.339 76.039 73.419 73.052 73.707 73.019 80.342 82.237 79.587 74.814 73.472 73.569 75.069 78.302 75.844 75.952 73.884 73.962 74.092 74.154 74.382 74.474 74.534 74.554 74.654 74.767 74.842 74.969 75.962 76.384 76.092 76.179 75.682 75.892 76.089 76.264 79.024 83.182 78.694 78.619 80.079 77.144 79.434 80.119 79.632 78.279 77.924 78.224 79.087 80.009 81.422 79.904 82.254 79.812 80.204 80.472 80.412 80.354 81.997 81.639 81.819 81.422 81.772 82.152 85.169 82.237 82.919 82.932 82.774 82.727 82.717 82.644 82.572 82.887 83.522 83.849 85.084 86.477 84.684 84.679 84.304 83.959 83.766
104.74 104.91 104.248 109.278 108.155 108.503 109.34 106.608 108.528 109.595 106.723 107.51 109.553 102.478 105.5 103.413 109.183 107.7 110.095 108.653 103.583 107.49 106.195 102.455 106.915 105.448 100.52 101.355 104.02 108.18 106.813 104.435 100.75 101.99 99.283 99.955 100.408 102.103 102.5 100.858 97.35 95.633 95.438 95.228 95.058 95.3 96.628 95.26 94.903 95.105 96.618 98.345 96.78 98.898 97.948 94.85 93.528 93.143 96.718 96.203 95.89 93.245 101.163 103.338 100.505 97.453 95.65 95.675 91.073 91.263 92.218 95.123 93.153 91.428 89.913 91.68 90.048 95.44 93.97 93.51 98.66 93.43 93.625 91.08 91.418 89.97 88.028 87.918 87.95 94.675 91.805 89.945 90.86 95.773 93.913 91.835 88.508 91.248 94.008 94.485 95.99 96.435 98.37 93.78 95.028 89.473 90.035 90.09 94.25 92.033 94.468 94.833 95.293 89.968 89.065 88.888 90.463 88.51 86.84 86.803 90.218 88.455 91.178 89.573 89.843 93.923 92.228 86.275 86.183 86.078 86.335 86.96 87.072 88.597 86.08 88.955 90.785 85.935 85.775 85.912 86.012 85.72 85.59 85.772 86.017 85.982 86.747 85.427 84.877 84.745 84.64 84.487 84.322 84.157 84.027 88.572 88.752 89.247 85.657 87.497 86.797 89.145 86.8 88.847 85.352 88.055 87.465 86.522 88.802 88.18 88.245 90.1 86.385 88.727 84.475 83.765 83.945 81.977 81.887 81.77 81.635 81.522 81.42 84.017 83.942 83.95 86.255 89.11 88.322 84.635 87.017 83.4 84.495 84.112 86.84 89.932 84.375 87.375 85.46 79.9 79.805 80.95 82.555 86.32 81.135 83.205 85.812 83.747 81.485 80.035 79.942 79.032 78.965 78.79 82.785 82.895 84.832 81.382 83.905 81.64 80.917 79.645 80.01 78.282 77.975 84.095 79.342 83.48 80.347 84.55 83.005 81.925 80.212 79.5 84.472 81.96 83.885 79.977 79.695 83.085 82.177 77.67 81.28 81.082 78.362 77.42 77.947 78.065 78.232 79.592 75.457 75.605 75.125 74.997 74.862 74.91 74.915 74.87 74.912 74.732 74.547 74.412 74.362 74.302 74.28 74.202 75.402 74.087 76.012 73.897 74.102 74.532 75.48 78.652 77.587 79.575 74.655 78.432 74.2 73.8 74.107 74.184 74.004 73.694 77.219 74.757 76.659 75.159 73.662 74.594 74.619 74.179 79.522 75.589 78.654 74.519 72.389 72.469 77.149 76.577 78.549 75.032 72.644 72.412 72.384 72.424 74.032 74.349 75.809 74.212 73.742 74.239 -9999 -9999 -9999 -9999 -9999 -9999 -9999 -9999 -9999 -9999 -9999 -9999 -9999 -9999 -9999 -9999 -9999 -9999 -9999 -9999 -9999 -9999 -9999 -9999 -9999 -9999 -9999 -9999 -9999 -9999 -9999 -9999 -9999 -9999 -9999 -9999 78.53 78.014 77.752 77.059 73.929 72.729 73.097 72.682 74.627 76.694 78.737 75.839 73.362 73.362 73.389 75.312 77.519 79.307 77.379 73.732 73.802 73.857 73.969 74.117 74.209 74.284 74.389 74.629 74.674 74.697 74.812 74.902 75.039 75.814 75.354 75.542 76.537 75.954 76.549 78.429 78.984 80.182 81.262 80.562 79.099 78.614 78.312 81.072 78.544 77.737 78.044 78.617 78.904 79.229 79.772 81.262 79.669 79.724 80.012 80.224 80.189 80.322 83.427 81.612 81.729 81.294 82.057 81.582 81.859 82.787 83.457 82.787 83.069 82.622 82.574 82.479 82.529 83.194 83.997 87.099 84.964 83.014 83.129 83.206 83.264 83.464
105.665 109.028 115.2 114.488 108.908 108.675 109.36 110.428 111.365 103.803 103.493 104.603 109.318 108.2 108.705 105.813 105.543 104.163 105.335 107.045 105.25 104.878 102.415 103.418 103.75 105.045 103.59 101.755 105.815 105.86 106.993 99.253 100.95 102.355 101.993 99.91 99.535 100.988 102.943 100.398 96.283 97.088 96.385 98.468 95.913 95.903 96.173 95.548 95.085 98.103 100.093 99.125 97.215 98.925 99.71 98.105 96.665 99.475 104.745 100.27 99.198 98.7 100.153 97.955 94.438 96.09 97.308 95.795 92.955 93.973 90.33 92.328 91.155 91.093 90.653 91.21 90.938 94.11 95.635 96.418 94.37 95.945 90.195 91.485 94.443 94.64 88.173 87.528 87.4 87.525 90.898 93.098 94.978 93.588 93.698 92.658 90.855 90.423 91.588 94.793 98.663 93.465 95.293 92.058 91.413 88.06 92.555 88.753 92.323 94.733 91.58 91.418 91.073 91.615 91.48 92.915 90.215 88.655 88.193 87.753 86.498 89.03 91.363 91.523 88.398 90.545 88.97 89.778 87.083 86.473 85.9 87.225 88.042 89.597 90.13 91.497 91.18 85.79 86.237 85.532 87.885 87.86 85.73 86.667 85.662 85.317 85.2 84.85 84.65 84.507 84.36 84.252 84.127 84.005 83.797 84 85.345 86.965 85.66 86.692 87.822 84.845 89.772 88.375 89.25 86.71 86.687 87.5 90.932 90.44 87.902 84.767 86.91 86.917 83.1 83.745 81.872 81.805 81.742 84.087 83.877 81.222 81.197 84.04 86.73 84.76 86.112 87.292 86.207 85.46 84.565 83.672 83.98 90.135 87.317 85.067 84.747 83.85 82.752 79.647 79.467 79.255 80.045 80.822 83.025 84.82 84.777 85.357 82.645 80.252 79.43 80.477 79.13 81.015 82.665 84.56 84.112 81.04 84.505 82.327 83.297 82.722 81.042 78.78 78.967 84.475 82.64 87.265 89.672 82.655 83.24 84.075 82.535 78.287 83.097 79.677 81.17 77.292 78.197 83.107 80.97 81.137 86.897 82.465 80.737 79.065 79.045 77.175 81.837 79.805 75.742 75.977 75.152 75.03 74.97 74.922 74.86 74.857 74.855 74.75 74.585 74.46 74.395 74.32 74.345 74.235 73.975 73.962 74.7 73.977 74.857 75.065 75.527 77.087 75.76 75.28 77.937 76.72 73.735 73.73 74.127 74.084 74.249 74.307 76.012 76.227 76.829 75.104 74.444 77.694 73.592 76.637 77.359 78.309 79.242 74.677 72.952 74.229 77.102 76.487 74.242 76.814 73.889 72.562 72.442 72.637 72.787 73.587 74.479 73.789 73.362 -9999 -9999 -9999 -9999 -9999 -9999 -9999 -9999 -9999 -9999 -9999 -9999 -9999 -9999 -9999 -9999 -9999 -9999 -9999 -9999 -9999 -9999 -9999 -9999 -9999 -9999 -9999 -9999 -9999 -9999 -9999 -9999 -9999 -9999 -9999 -9999 -9999 -9999 77.342 79.629 76.372 72.917 72.884 72.652 73.089 74.182 74.397 73.199 73.202 73.242 73.239 73.274 74.922 76.282 73.474 74.252 74.217 73.824 73.674 73.807 73.879 74.032 74.129 74.429 75.174 74.584 74.627 74.709 74.797 74.922 75.074 75.254 75.447 77.674 76.427 78.167 81.747 78.584 78.102 82.784 81.799 82.419 80.087 80.562 78.959 77.672 77.644 77.814 78.134 78.464 78.977 79.224 79.622 79.649 80.684 80.472 79.809 79.919 80.144 80.334 80.567 81.572 81.024 81.617 82.299 81.472 84.584 82.982 84.197 85.442 85.249 84.034 82.474 82.349 82.284 85.999 86.069 83.194 82.802 82.924 82.986 83.181 84.779
106.69 112.67 113.54 108.148 114.375 112.815 111.878 106.783 112.223 108.1 104.38 109.725 109.478 104.5 106.625 103.948 106.898 108.85 112.118 105.645 104.405 109.438 108.3 107.438 105.89 107.348 105.868 103.358 106.418 107.98 106.428 103.183 99.645 103.445 101.62 99.72 102.805 101.465 101.895 98.988 96.555 99.43 103.7 101.378 99.433 97.788 96.073 95.465 95.498 95.225 100.478 95.758 97.13 98.718 100.558 96.203 98.618 99.705 98.79 93.91 100.063 99.238 97.33 98.213 95.2 95.675 96.715 94.913 92.283 95.405 93.538 92.53 90.963 89.858 90.668 91.33 92.158 90.535 93.46 93.713 92.995 94.788 90.265 90.893 91.263 90.965 87.565 87.303 87.145 88.205 88.748 89.525 92.033 92.53 93.148 91.203 89.04 92.343 91.825 96.11 94.383 87.465 92.983 91.458 89.723 89.063 87.333 87.188 89.84 90.748 93.138 92.173 87.575 92.828 91.725 93.835 91.165 92.605 91.415 89.583 88.838 86.313 88.835 88.938 90.795 89.81 88.938 91.603 88.99 91.493 89.88 89.295 91.42 89.042 90.192 91.362 89.4 89.832 87.552 86.425 89.717 87.967 91.437 87.885 86.112 85.272 84.707 84.8 84.857 84.587 84.422 84.51 85.38 83.912 83.92 83.99 85.12 84.707 83.487 83.085 84.385 87.102 91.557 92.77 92.927 90.44 87.925 86.232 87.085 90.845 89.32 84.98 84.32 82.745 82.032 81.86 81.775 81.722 83.33 83.017 85.63 83.445 84.757 80.657 80.66 86.195 87.127 89.552 85.56 85.842 85.39 84.86 87.815 85.487 86.632 87.435 82.452 81.915 79.865 79.162 79.08 78.877 80.165 79.04 81.447 82.797 84.56 85.225 84.63 82.64 80.482 80.452 79.182 82.007 85.805 84.527 85.215 82.1 82.97 81.687 81.247 83.695 83.175 82.95 81.427 78.7 80.447 85.717 83.145 82.432 83.63 78.805 80.237 81.53 78.207 80.697 86.292 81.805 77.972 81.367 83.685 86.082 81.712 79.447 82.872 77.547 79.67 77.945 80.367 81.75 79.997 77.16 75.247 75.055 75.02 75 74.88 74.872 74.912 74.75 74.592 74.45 74.365 74.355 74.462 74.475 74.065 73.797 73.767 73.75 75.355 74.66 74.165 77.395 74.155 74.085 73.27 73.262 73.275 73.422 73.577 73.402 73.629 74.594 74.272 77.087 75.762 72.867 73.574 77.657 72.302 76.807 74.604 78.284 78.827 77.809 75.469 77.172 78.797 75.134 74.417 74.639 72.619 72.422 72.504 72.539 72.457 72.414 72.437 72.542 -9999 -9999 -9999 -9999 -9999 -9999 -9999 -9999 -9999 -9999 -9999 -9999 73.074 72.987 -9999 -9999 -9999 -9999 -9999 -9999 -9999 -9999 -9999 -9999 -9999 -9999 -9999 -9999 -9999 -9999 -9999 -9999 -9999 -9999 -9999 -9999 -9999 -9999 -9999 74.227 76.297 74.137 72.299 72.339 72.932 73.267 73.272 73.069 73.084 73.069 73.064 73.042 72.997 73.244 73.737 73.424 76.387 74.322 73.922 73.674 75.249 74.599 73.889 73.987 74.214 74.294 74.357 74.524 74.627 74.712 74.827 74.967 75.559 76.024 79.744 79.059 80.344 81.494 82.447 78.174 78.827 79.577 81.657 81.974 81.934 79.622 77.272 77.447 77.614 77.874 78.119 78.497 78.764 79.097 79.919 79.719 79.802 80.007 83.137 84.357 81.149 80.494 80.539 80.744 82.177 81.199 86.374 87.609 82.597 83.962 88.579 91.487 83.694 82.409 82.357 82.129 83.327 84.757 85.087 83.537 82.719 83.414 84.094 85.674
106.255 114.788 116.035 111.49 108.143 109.493 115.528 107.648 110.348 105.9 113.443 112.63 106.425 108.328 105.538 106.31 104.845 107.9 101.728 108.983 103.753 108.338 107.345 108.643 106.403 106.9 104.69 103.138 102.253 105.333 102.223 105.03 101.975 101.493 101.413 103.638 100.72 104.168 100.933 99.43 100.253 101.973 104.188 103.865 103.688 100.445 100.143 96.61 95.72 96.808 102.555 100.74 98.74 97.848 99.833 99.505 95.858 102.258 101.995 98.643 96.685 99.823 96.575 94.76 97.47 93.528 94.918 91.808 94.26 98.053 97.723 93.523 91.25 89.773 89.408 89.293 89.463 91.723 94.363 91.825 90.848 94.48 93.498 91.618 90.74 90.098 88.233 86.753 88.475 89.358 87.583 90.038 92.03 90.333 89.348 91.843 91.315 89.978 89.44 91.345 92.643 94.745 90.045 87.698 88.455 89.665 89.425 88.7 88.66 86.538 88.723 90.54 94.208 89.855 92.148 90.89 90.54 91.778 90.185 88.968 86.258 86.208 87.173 86.638 91.728 92.833 92.025 89.915 90.253 85.428 87.823 92.55 91.912 93.537 94.437 88.382 87.505 87.272 88.37 89.985 89.042 88.422 89.575 89.047 86.697 85.437 85.195 86.15 86.422 87.005 85.485 84.797 84.3 84.457 83.927 85.91 86.657 89.387 84.54 84.632 87.05 87.342 89.207 91.885 88.175 86.32 88.765 91.392 88.477 86.87 87.602 87.95 86.162 82.095 81.62 81.435 81.372 86.455 85.712 83.937 84.165 80.57 82.587 82.72 82.7 81.637 82.962 84.36 83.912 83.612 83.762 82.247 88.452 86.652 84.652 83.467 88.14 79.535 79.525 81.547 83.782 81.635 82.167 79.717 80.45 81.212 82.125 84.575 82.51 81.415 80.177 79.667 79.28 79.547 83.572 82.91 87.137 85.462 85.325 84.08 80.97 84.447 84.677 83.297 85.96 81.965 79.437 83.692 79.702 79.362 83.352 80.142 78.85 77.797 79.587 84.782 81.367 83.267 83.702 82.755 85.73 82.832 82.105 80.867 78.72 78.507 77.37 79.815 80.815 80.515 77.082 75.502 75.23 75.147 75.1 75.067 75.142 74.99 74.932 74.82 74.627 74.44 74.36 74.372 74.397 74.12 74.102 73.845 73.685 74.702 76.335 76.275 74.517 76.61 74.35 73.447 73.39 73.515 73.112 73.015 73.162 73.307 73.667 73.999 74.274 75.602 75.457 73.749 75.009 78.504 72.577 74.859 76.984 79.029 80.574 78.052 77.862 73.137 74.404 74.334 72.307 72.557 72.747 72.507 72.594 -9999 -9999 -9999 72.002 -9999 -9999 -9999 -9999 -9999 -9999 -9999 -9999 -9999 -9999 -9999 -9999 -9999 -9999 -9999 -9999 -9999 -9999 -9999 -9999 -9999 -9999 -9999 -9999 -9999 -9999 -9999 -9999 -9999 -9999 -9999 -9999 -9999 -9999 -9999 -9999 -9999 -9999 -9999 -9999 72.21 72.409 72.387 72.817 72.849 73.099 73.014 72.989 72.982 72.937 72.842 72.802 72.689 72.574 72.722 73.009 72.954 74.682 75.199 74.939 75.782 76.037 77.247 74.592 73.812 73.977 74.062 74.229 74.417 74.552 74.659 74.749 74.889 76.749 78.147 79.052 80.009 77.977 79.422 80.162 78.282 82.394 81.904 76.479 78.074 81.289 76.899 77.124 77.317 78.582 79.167 77.877 78.087 78.339 78.597 78.777 83.127 85.827 82.767 82.484 86.032 86.997 85.744 80.282 80.439 81.297 83.102 89.347 90.339 86.212 88.857 87.609 85.809 84.612 83.487 82.284 82.184 82.049 85.649 86.394 84.807 84.967 84.974 83.941 84.359
109.518 111.36 117.218 113.783 108.083 111.348 108.655 108.45 111.86 112.245 110.053 110.593 103.94 107.058 105.803 104.403 105.873 107.118 107.31 107.083 103.908 105.345 106.313 105.255 105.363 109.373 104.93 103.055 103.015 104.473 103.088 100.745 104.688 106.668 107.608 100.465 100.665 101.483 102.685 105.48 107.283 101.128 100.085 101.218 102.938 104.228 101.818 97.195 96.17 96.483 101.85 98.965 101.215 95.135 101.05 102.18 98.565 100.59 98.668 100.975 98.26 99.975 94.318 93.148 92.688 92.675 92.76 93.99 95.955 95.278 95.15 92.983 90.675 90.08 89.663 90.253 90.215 90.353 91.348 90.61 90.193 91.23 90.605 89.93 91.043 92.455 88.623 87.378 92.418 92.143 90.665 88.118 89.19 88.895 87.953 87.323 92.103 89.823 90.005 92.903 95.025 90.56 93.94 91.193 90.948 91.148 90.07 89.008 90.23 88.58 90.07 87.558 93.893 91.323 95.268 90.09 92.295 94.225 90.915 88.94 86.135 85.76 85.743 89.225 90.343 90.005 88.135 95.065 87.325 85.625 90.178 97.72 94.297 86.37 95.555 90.98 90.835 87.805 87.74 89.802 87.095 88.367 87.902 87.282 84.832 84.502 85.6 86.747 84.837 88.582 87.265 83.627 84.087 85.42 86.545 84.77 85.137 89.222 84.37 88.877 87.442 87.167 86.702 87.757 87.307 87.78 84.812 89.937 92.08 88.267 86.375 88.432 85.872 83.482 80.802 80.955 80.96 85.392 85.88 88.125 87.27 85.705 81.012 80.807 80.98 82.11 81.407 83.027 84.707 85.397 81.905 83.297 83.61 85.087 83.685 85.492 84.562 79.987 79.912 81.3 82.707 86.245 82.45 80.002 79.862 80.827 81.64 83.47 81.197 81.13 80.287 79.895 79.542 79.507 82.067 83.925 81.682 85.81 81.697 82.767 82.392 81.63 82.427 83.665 84.672 87.01 79.635 82.13 80.757 83.555 82.31 81.985 80.215 79.425 78.455 81.235 81.277 80.19 83.94 82.47 81.587 79.902 78.532 83.13 80.52 80.075 78.037 79.78 79.792 81.652 81.225 76.235 75.267 75.302 76.97 75.43 75.24 75.212 75.07 74.965 74.735 74.512 74.377 74.312 74.205 74.085 73.995 73.907 73.717 73.72 75.515 74.182 74.632 73.512 73.212 73.337 73.255 73.222 73.127 73.057 73.042 73.199 73.287 74.964 74.989 72.997 75.269 75.787 73.442 73.449 73.947 72.172 75.207 79.012 78.767 78.837 79.069 72.749 72.889 72.924 72.672 72.709 -9999 -9999 -9999 -9999 -9999 -9999 -9999 -9999 -9999 -9999 -9999 -9999 -9999 -9999 -9999 -9999 -9999 -9999 -9999 -9999 -9999 -9999 -9999 -9999 -9999 -9999 -9999 -9999 -9999 -9999 -9999 -9999 -9999 -9999 -9999 -9999 -9999 -9999 -9999 -9999 -9999 -9999 -9999 -9999 -9999 72.307 72.249 72.312 72.804 73.327 73.239 72.909 72.902 72.972 72.922 72.762 72.617 72.384 72.292 72.144 72.092 72.097 72.272 73.482 74.257 74.399 75.042 75.152 75.119 75.304 73.834 74.564 73.727 73.897 74.047 74.239 74.492 74.627 74.707 74.832 79.314 78.034 78.252 78.767 79.434 78.809 79.054 77.484 80.187 79.879 76.349 76.454 76.602 76.744 76.919 81.589 77.912 79.977 79.447 79.854 79.369 78.224 78.474 83.019 84.929 85.297 83.694 86.449 84.174 85.977 80.072 80.217 80.339 82.567 88.842 91.294 87.132 85.872 82.037 82.462 85.014 86.602 82.214 82.154 82.469 85.497 86.692 87.182 86.139 84.804 83.659 82.849
107.32 110.633 110.878 112.14 111.115 110.403 109.805 111.188 107.698 112.085 111.508 109.025 107.875 104.833 108.448 104.695 108.288 104.128 102.503 107.078 107.88 106.445 108.735 102.065 103.183 104.615 102.365 105.245 105.535 104.403 104.685 102.355 108.7 108.133 106.313 107.505 105.185 104.948 101.603 102.57 104.443 101.92 98.885 102.33 102.59 101.48 104.425 99.4 102.685 99.1 99.103 97.568 99.438 98.968 101.963 98.293 100.713 99.3 97.588 96.885 98.365 96.725 93.415 93.068 92.78 92.523 92.293 93.85 94.96 95.92 92.968 91.415 91.015 90.685 90.198 89.75 89.833 89.225 89.088 88.89 89.825 88.783 90.958 89.445 90.853 94.185 88.068 90.32 91.67 92.633 92.778 88.888 88.268 86.355 85.938 85.715 91.405 92.065 90.405 92.15 94.723 88.34 89.818 89.41 92.173 88.275 88.858 92.505 90.483 87.133 90.82 89.625 93.993 90.175 89.14 93.098 92.38 89.543 91.993 89.325 87.68 85.283 86.078 87.01 89.285 88.325 91.298 91.993 87.61 86.263 85.908 88.55 92.117 90.522 91.945 91.785 91.7 87.912 88.947 88.73 91.347 88.762 88.765 87.257 85.302 84.817 86.417 86.637 88.025 86.28 83.757 84.297 86.372 84.53 85.95 85.987 87.375 89.842 86.737 88.395 89.887 87.745 84.432 86.48 87.387 89.455 85.4 88.25 85.257 85.665 88.435 88.41 83.552 81.265 82.347 82.637 84.05 84.49 83.022 85.655 85.06 85.197 81.187 81.085 80.872 81.452 85.69 84.045 80.887 81.065 80.54 86.24 85.172 82.537 81.65 81.787 83.525 82.845 80.057 84.992 84.205 85.66 84.445 80.107 80.087 80.317 80.46 81.152 82.12 81.462 80.59 80.437 79.907 79.71 80.682 81.952 83.032 83.195 83.675 83.105 80.092 82.782 84.212 84.247 82.217 79.662 79.32 81.35 82.112 84.807 78.802 82.64 80.65 81.175 85.757 81.067 82.187 79.04 80.83 82.645 82.262 81.64 77.765 80.442 83.355 84.467 81.522 80.255 79.895 82.13 80.712 78.55 75.425 75.472 80.872 79.75 75.382 75.402 75.235 75.112 74.957 74.625 74.41 74.67 74.195 74.85 75.457 75.732 74.39 74.32 74.282 74.155 73.512 75.23 73.24 73.362 73.152 73.1 73.145 73.05 72.977 73.017 72.954 72.897 73.112 74.289 74.364 75.292 72.152 72.894 72.837 72.222 77.564 77.727 77.127 75.874 75.922 72.447 72.772 72.892 73.242 -9999 -9999 -9999 -9999 -9999 -9999 -9999 -9999 -9999 -9999 -9999 -9999 -9999 -9999 -9999 -9999 -9999 -9999 -9999 -9999 -9999 -9999 -9999 -9999 -9999 -9999 -9999 -9999 -9999 -9999 -9999 -9999 -9999 -9999 -9999 -9999 -9999 -9999 -9999 -9999 -9999 -9999 -9999 72.607 72.924 72.807 72.484 72.532 72.794 73.139 73.037 72.777 72.814 72.832 72.752 72.544 72.387 72.254 71.987 71.864 71.852 71.842 71.909 71.877 74.327 74.112 74.352 74.199 77.137 75.994 76.317 75.824 73.764 73.542 73.764 73.892 74.034 74.267 74.504 74.662 74.824 75.954 75.259 76.212 77.834 76.789 76.699 75.589 75.754 75.914 76.077 76.187 76.322 76.407 76.539 76.724 78.577 81.837 79.672 81.179 79.594 77.844 78.049 80.592 83.529 81.569 82.039 83.967 83.874 82.709 82.592 79.857 79.987 80.139 80.999 84.539 89.687 82.702 82.067 81.237 81.402 82.827 84.367 82.277 82.069 82.017 83.792 86.489 86.554 87.364 85.196 85.781 83.434
108.595 109.395 112.12 113.753 113.42 113.948 110.66 110.53 111.098 112.113 114.745 108.313 106.69 104.54 108.098 104.903 108.023 108.44 104.768 107.905 108.283 105.993 107.248 106.175 109.303 108.225 106.168 107.82 106.46 106.618 106.715 104.683 103.873 100.97 109.03 109.558 107.363 102.545 106.72 102.695 100.713 103.058 97.508 100.02 104.115 103.755 102.065 98.685 98.093 102.235 103.035 101.918 97.615 97.35 109.185 106.038 98.23 102.798 100.005 98.455 98.11 96.873 97.413 93.228 92.943 92.65 92.38 92.158 92.063 93.683 91.445 91.253 90.918 90.59 90.368 89.915 89.778 89.685 89.45 89.238 90.023 88.985 89.928 90.893 89.67 89.058 92.578 93.943 93.373 89.885 92.64 91.17 89.235 89.175 88.613 89.095 87.525 89.328 91.895 87.2 87.743 91.153 92.333 92.693 86.995 92.065 91.238 90.323 92.61 94.54 85.845 89.258 93.67 90.575 86.658 91.343 93.798 89.593 86.63 86.225 85.165 86.853 88.373 86.84 84.598 92.373 86.515 88.013 84.44 85.795 86.828 90 92.122 93.54 91.392 90.035 88.582 86.29 84.357 86.602 86.785 87.315 89.152 86.942 85.495 83.832 86.887 85.327 84.605 86.932 84.885 85.497 83.92 85.897 86.547 85.685 88.552 87.18 86.702 88.557 89.615 82.847 87.767 87.307 87.782 85.935 86.252 83.782 85.527 85.975 86.277 87.1 85.66 82.582 82.785 82.315 82.587 86.017 83.345 86.342 83.472 82.59 81.33 81.305 82.777 88.79 86.285 90.457 85.47 82.52 81.342 84.177 83.385 86.045 85.592 86.585 82.55 80.647 86.442 87.93 82.205 80.472 80.282 80.387 80.61 81.9 80.42 80.43 80.43 80.697 80.665 80.905 80.482 79.932 82.975 80.372 82.465 86.55 84.67 82.522 79.96 82.505 84.647 85.832 84.287 83.085 79.865 80.48 82.155 84.43 83.465 78.622 79.82 83.777 81.747 82.485 78.222 79.185 78.72 81.462 84.172 78.707 82.332 81.617 86.165 84.572 81.285 82.527 80.387 80.275 78.175 77.37 77.125 75.642 79.68 77.587 79.295 80.15 75.465 75.762 77.425 75.212 78.415 74.997 74.395 76.865 80.667 77.68 74.327 73.935 75.01 73.7 73.6 73.532 73.45 73.315 74.057 73.127 73.207 73.575 73.372 73.077 73.604 76.129 74.004 73.512 72.339 74.189 73.182 72.862 72.627 72.304 73.572 75.042 74.154 76.932 72.974 72.427 72.544 72.899 73.154 -9999 -9999 -9999 -9999 -9999 -9999 -9999 -9999 -9999 -9999 -9999 -9999 -9999 -9999 -9999 -9999 -9999 -9999 -9999 -9999 -9999 -9999 -9999 -9999 -9999 -9999 -9999 -9999 -9999 -9999 -9999 -9999 -9999 -9999 -9999 -9999 -9999 -9999 -9999 -9999 -9999 -9999 74.177 73.444 73.007 73.089 72.852 72.894 72.924 72.702 72.714 72.734 72.667 72.527 72.304 72.139 72.007 71.932 71.994 71.962 71.829 72.329 71.569 71.562 71.792 73.327 73.927 74.822 73.632 74.729 76.959 75.634 74.462 73.442 73.687 73.789 73.959 74.052 74.252 74.464 74.667 74.814 75.472 74.929 75.059 75.174 75.302 75.457 75.577 75.719 75.872 76.017 76.177 76.292 76.399 78.212 80.852 82.764 82.144 81.172 81.252 78.407 78.299 82.164 82.272 84.144 83.482 84.562 84.314 81.459 81.877 79.682 79.844 79.967 80.097 80.992 82.012 80.999 80.739 81.524 81.084 82.832 81.842 82.474 82.142 82.012 81.899 83.644 83.354 88.499 87.459 85.669 85.794
111.985 109.868 110.168 112.638 112.215 111.205 111.625 109.393 112.27 114.19 110.343 107.973 105.988 106.26 109.565 106.84 108.99 108.045 103.54 108.695 107.23 105.915 105.58 103.253 107.69 108.973 105.23 108.848 104.268 108.283 106.068 107.113 105.753 107.745 106.893 102.235 105.7 98.973 108.248 104.593 105.083 102.688 100.5 104 103.788 104.055 103.518 103.268 102.815 101.618 99.75 101.44 98.66 98.8 98.233 102.705 99.278 98.288 98.33 97.04 99.12 99.245 94.14 93.4 93.155 96.883 92.528 92.24 91.983 95.893 97.05 95.533 93.983 90.625 90.35 90.083 89.99 89.845 89.72 89.56 89.923 92.595 91.598 93.99 94.4 91.06 90.143 92.645 96.303 94.735 93.695 90.895 90.798 90.093 92.158 87.693 89.83 89.345 89.293 93.293 89.053 86.83 89.348 91.278 88.415 86.208 92.245 90.215 92.188 93.785 93.54 90.333 91.475 89.305 90.423 91.453 86.803 85.288 86.865 89.033 85.938 85.32 87.445 88.79 87.71 86.053 87.503 86.798 87.063 87.645 85.285 86.565 91.672 92.66 87.327 88.672 84.98 87.22 84.382 86.195 84.91 85.582 84.84 83.952 83.662 83.512 85.055 85.88 84.182 85.027 84.875 87.18 87.42 85.007 87.052 83.465 85.135 88.195 83.297 84.79 84.867 86.915 86.335 85.727 85.765 85.78 84.092 84.447 83.932 85.362 87.312 90.29 85.54 83.33 82.595 84.077 84.94 83.157 82.687 84.717 82.762 81.947 82.485 89.427 86.387 83.91 90.887 85.905 90.58 88.457 86.712 84.227 84.342 82.522 84.427 83.692 82.477 83.57 87.195 86.592 82.287 83.607 80.435 80.462 81.222 82.447 82.352 80.972 80.62 80.695 81.05 81 80.545 80.322 82.38 82.177 83.287 85.71 82.807 83.34 81.157 84.52 83.922 82.467 83.197 82.535 81.567 83.267 82.055 83.61 83.232 78.807 82.065 79.907 81.515 82.402 78.525 80.17 81.87 81.98 82.845 81.242 85.687 85.797 84.382 84.612 84.352 80.34 81.197 78.855 80.745 75.937 77.417 77.585 79.58 77.587 81.025 78.877 75.457 77.722 79.797 77.552 78.105 75.21 74.672 78.325 82.465 79.337 76.08 77.415 75.447 74.527 73.742 73.615 73.842 73.397 78.532 73.142 73.062 73.202 73.352 73.064 74.434 75.822 77.377 75.999 72.417 72.659 72.282 72.322 72.264 72.247 72.287 72.392 73.187 72.872 72.424 72.352 72.384 72.617 72.969 72.654 -9999 -9999 -9999 -9999 -9999 -9999 -9999 -9999 -9999 -9999 -9999 -9999 -9999 -9999 -9999 -9999 -9999 -9999 -9999 -9999 -9999 -9999 -9999 -9999 -9999 -9999 -9999 -9999 -9999 -9999 -9999 -9999 -9999 -9999 -9999 -9999 -9999 -9999 73.623 73.159 76.442 75.909 74.479 73.442 72.977 73.059 72.739 72.687 72.704 72.619 72.404 72.267 72.117 71.984 71.964 71.937 71.872 -9999 71.76 71.744 72.182 71.694 71.527 71.629 71.739 71.734 73.054 74.002 73.204 75.729 72.512 73.037 73.202 73.487 73.687 73.854 74.019 74.122 74.327 74.627 74.749 74.849 74.937 75.027 75.084 75.209 75.332 75.439 75.574 75.732 75.869 76.052 76.179 76.264 78.432 79.202 83.172 80.742 78.297 80.767 77.444 77.677 80.672 81.162 86.074 83.677 81.509 80.012 79.419 80.759 79.459 79.619 79.767 79.934 80.167 80.489 81.089 80.747 80.752 80.802 81.329 82.209 84.177 82.224 81.989 81.824 81.787 82.669 88.184 85.919 85.901 86.969
113.49 109.595 113.753 107.73 111.625 107.3 108.078 107.148 113.54 114.88 109.76 105.778 107.325 111.538 111.105 109.445 108.993 108.58 104.008 109.368 109.915 110.215 106.478 109.005 103.375 108.86 109.8 107.513 107.178 106.705 104.963 104.41 103.345 105.773 105.49 105.61 106.92 103.818 102.57 103.133 103.175 104.485 100.11 104.115 102.478 99.81 101.39 104.575 102.088 101.075 101.805 101.968 99.585 103.113 99.975 98.31 98.055 98.615 95.438 102.948 102.885 101.473 101.343 100.48 97.345 94.99 92.835 92.485 92.133 94.808 95.14 98.41 95.438 96.175 90.553 90.28 90.133 90.063 89.913 92.178 96.44 93.833 92.68 96.713 92.778 92.168 94.468 91.97 92.085 90.24 93.473 90.938 90.848 89.883 94.498 94.558 94.533 88.673 87.773 94.298 93.508 93.073 89.495 93.053 93.338 92.12 85.81 87.485 87.15 95.98 89.245 89.055 91.8 90.03 93.7 91.245 89.688 84.155 85.595 85.85 86.098 86.738 90.965 89.915 90.9 88.673 86.278 84.215 86.903 87.978 86.693 90.237 92.365 87 85.922 88.785 88.3 83.737 84.522 85.655 85.195 84.28 83.302 83.6 83.502 84.395 83.247 83.81 84.042 84.372 84.677 90.907 91.065 84.012 86.877 82.917 84.257 84.675 82.237 82.505 83.165 84.51 86.26 83.932 85.935 83.985 83.272 83.777 83.107 84.662 87.002 88.41 84.99 83.447 82.79 85.925 87.272 86.375 86.437 83.232 82.602 81.662 81.667 86.73 87.55 91.077 86.347 86.357 85.212 88.815 86.292 83.955 85.225 82.987 90.882 85.235 86.94 82.377 86.87 83.955 84.902 84.315 80.652 80.677 81.117 82.265 82.55 83.45 81.53 82.452 81.635 80.695 80.782 80.915 80.57 81.187 82.01 83.735 83.89 81.537 82.45 84.965 81.95 85.257 83.012 83.047 85.03 85.195 80.97 79.33 79.095 79.892 81.462 81.687 83.055 82.7 78.622 78.4 81.362 81.087 80.977 83.062 84.297 87.697 88.26 84.905 84.265 82.642 79.435 81.217 79.467 78.99 79.095 79.01 81.577 82.187 82.162 78.492 82.097 78.792 77.717 80.45 78.482 77.217 76.57 77.982 75.02 77.69 77.675 78.8 77.852 76.547 73.807 74.462 76.597 78.51 73.952 73.417 73.27 73.19 73.05 74.032 77.254 75.929 78.082 74.737 74.034 72.424 72.324 72.332 72.342 72.499 72.374 72.422 72.437 72.404 72.469 72.469 72.427 72.557 72.932 72.814 -9999 -9999 -9999 -9999 -9999 -9999 -9999 -9999 -9999 -9999 -9999 -9999 -9999 -9999 -9999 -9999 -9999 -9999 -9999 -9999 -9999 -9999 -9999 -9999 -9999 -9999 -9999 -9999 -9999 -9999 -9999 -9999 -9999 -9999 -9999 -9999 78.157 79.057 74.679 73.342 77.322 76.482 75.754 73.469 72.892 72.689 72.674 72.614 72.439 72.242 72.074 71.999 71.924 71.914 -9999 -9999 -9999 -9999 -9999 -9999 -9999 71.78 71.597 71.649 71.904 71.897 73.137 71.734 73.842 73.832 72.119 72.507 72.842 73.257 73.529 73.717 73.917 74.077 74.282 74.527 74.702 74.812 74.889 74.972 75.049 75.144 75.202 75.319 75.449 75.584 75.717 76.597 76.382 76.079 77.442 77.917 79.214 80.794 78.997 77.924 77.277 79.807 80.529 79.702 80.542 81.487 79.242 80.317 78.902 79.062 79.254 79.599 79.639 79.782 80.254 80.452 81.919 80.784 81.774 80.474 80.957 83.127 83.354 81.692 81.919 81.847 81.704 81.659 83.222 82.661 82.494 85.551
114.25 110.988 110.643 110.788 107.79 113.555 115.178 110.18 110.42 109.96 114.843 111.093 108.028 108.998 112.408 112.473 110.803 109.27 107.59 108.103 106.943 107.16 107.25 109.663 104.328 106.745 105.193 111.818 107.725 108.775 108.21 105.048 103.145 103.838 104.735 101.993 101.583 102.065 102.285 101.708 105.31 100.185 102.848 103.753 103.978 105.048 101.058 101.893 102.795 103.368 102.858 101.113 97.4 101.733 98.56 96.155 97.265 99.943 98.568 103.138 105.748 101.538 97.703 100.63 96.35 97.3 93.115 92.748 92.898 93.538 98.51 98.718 96.425 93.055 92.238 91.018 91.673 93.093 93.8 92.73 98.35 92.728 96.66 94.793 92.898 100.213 95.303 98.033 95.145 90.508 89.638 89.535 88.81 92.37 93.768 91.5 90.17 92.433 87.528 93.19 92.988 95.215 94.53 92.238 89.645 95.468 87.913 86 90.14 92.688 92.043 91.358 90.525 89.52 87.5 89.715 85.753 85.245 84.423 85.96 86.458 88.995 86.533 91.903 89.028 87.983 87.233 86.058 86.553 87.3 87.055 89.077 90.565 90.495 87.27 84.587 87.085 91.177 86.85 83.485 83.24 83.035 82.92 83.415 82.882 84.525 84.58 85.022 84.917 86.372 85.415 88.907 85.117 85.07 82.697 83.745 84.512 85.402 84.925 82.927 82.98 84.28 86.582 85.565 86.027 85.807 82.9 82.875 84.26 85.785 87.48 86.772 86.97 82.972 83.775 83.337 87.807 88.722 86.027 83.507 82.062 83.362 88.062 88.387 82.695 87.407 91.297 91.647 89.917 85.957 86.31 88.055 87.222 81.305 82.97 87.477 81.777 85.447 84.412 82.95 83.935 80.827 80.845 80.952 80.9 80.895 82.735 86.475 84.095 82.465 80.832 80.8 81.047 81.085 82.06 80.66 81.912 81.96 82.157 80.79 82.567 82.16 87.247 86.127 84.332 83.437 84.572 82.387 84.437 83.345 83.94 85.17 84.595 82.745 82.242 81.362 79.75 78.695 82.407 80.36 81.797 81.515 87.345 84.557 87.115 87.662 84.602 81.005 80.62 77.672 79.672 78.702 76.57 75.985 80.725 84.017 81.897 82.022 79.62 76.455 76.615 79.21 77.995 75.985 78.127 75.94 74.507 77.912 79.85 79.407 78.732 74.6 75.342 75.675 77.967 79.577 76.327 74.05 73.602 73.58 73.382 73.437 73.904 75.002 76.964 76.947 73.259 72.834 73.192 74.554 75.104 76.634 75.242 74.167 75.709 72.512 72.429 72.492 72.744 72.619 72.722 72.732 -9999 -9999 -9999 -9999 -9999 -9999 -9999 -9999 -9999 -9999 -9999 -9999 -9999 -9999 -9999 -9999 -9999 -9999 -9999 -9999 -9999 -9999 -9999 -9999 -9999 -9999 -9999 -9999 -9999 -9999 -9999 -9999 -9999 79.252 79.692 79.024 79.114 79.042 79.877 73.339 75.687 76.564 73.764 72.664 72.684 72.632 72.554 72.309 72.119 72.002 71.909 71.879 -9999 -9999 -9999 -9999 -9999 -9999 -9999 -9999 -9999 -9999 72.189 71.879 71.789 71.859 71.974 71.909 71.774 71.814 71.834 72.094 72.522 72.917 73.274 73.589 73.822 74.009 74.177 74.359 75.834 75.964 74.839 74.957 75.034 75.137 75.137 75.224 75.329 75.444 75.582 75.892 75.969 75.937 76.054 77.517 79.774 76.702 78.694 76.999 77.829 79.322 79.022 79.142 80.912 78.122 78.324 78.504 78.694 78.872 79.097 81.317 79.862 79.879 79.892 80.334 80.477 80.847 80.459 80.407 80.929 81.917 82.217 81.459 81.684 81.832 81.732 81.567 81.527 81.496 81.361 82.299
112.493 108.623 112.983 114.305 110.818 111.75 111.863 114.955 112.395 110.43 111.615 109.618 107.613 109.965 108.693 108.108 107.513 109.29 108.838 105.9 103.978 108.693 107.69 105.683 110.238 108.678 109.118 109.533 106.015 104.788 105.8 108.363 107.895 107.99 102.075 107.433 103.448 101.988 101.718 104.87 104.83 102.805 100.963 99.378 105.645 104.213 103.195 104.575 99.355 103.905 101.938 99.878 102.39 96.645 101.883 97.68 98 96.15 97.808 104.833 103.968 98.793 95.578 100.55 96.033 97.09 93.275 92.835 96.02 98.155 92.865 95.978 97.48 94.358 93.578 94.643 93.498 97.235 94.985 96.725 96.355 94.638 94.653 96.685 92.993 95.11 91.055 96.465 94.338 91.293 93.448 90.425 89.13 92.623 91.23 93.745 93.923 88.995 87.225 87.118 91.34 90.488 90.008 90.133 90.2 93.09 89.215 89.525 87.858 92.083 89.518 93.298 89.478 90.17 88.813 89.905 87.96 88.745 86.418 85.428 86.44 87.973 89.645 90.558 87.723 85.62 83.675 85.113 86.19 88.423 83.348 85.162 86.567 92.62 88.972 89.75 89.355 89.517 89 83.457 83.525 83.43 83.645 84.862 82.8 84.55 84.51 83.417 83.52 85.905 88.737 86.22 83.022 84.205 82.655 83.317 85.022 89.69 87.44 83.232 84.817 84.075 87.64 89.74 89.097 87.355 83.027 83.915 87.185 87.027 85.377 85.125 82.52 84.662 86.95 84.532 88.19 92.097 91.117 88.177 86.702 87.257 86.075 86.82 89.855 89.317 88.072 81.825 87.415 87.495 85.582 86.192 84.312 84.31 85.792 85.025 83.172 82.222 85.57 86.192 86.42 84.107 81.927 81.145 81.16 81.145 83.807 87.25 83.507 82.765 81.382 81.035 81.23 81.18 81.127 81.015 83.372 82.472 82.625 80.452 81.815 81.59 82.097 82.007 83.777 83.125 84.64 82.357 85.197 84.677 88.17 85.51 82.347 84.197 81.222 81.062 80.812 81.207 81.46 84.25 79.75 84.15 86.667 86.645 87.447 87.517 84.232 83.342 83.8 80.085 79.852 77.182 77.415 80.68 81.667 82.68 82.615 80.96 81.372 75.805 75.842 77.177 77.92 76.59 76.245 75.34 75.002 77.887 80.047 79.225 81.047 77.77 76.067 74.78 77.89 81.267 79.652 79.66 74.702 75.13 73.53 77.094 75.714 76.994 74.612 77.152 73.169 73.029 73.109 79.062 77.997 77.839 75.994 76.342 73.779 73.699 72.534 72.454 72.519 72.572 72.739 72.914 72.72 -9999 -9999 -9999 -9999 -9999 -9999 74.847 73.762 -9999 -9999 -9999 -9999 -9999 -9999 -9999 -9999 -9999 -9999 -9999 -9999 73.287 -9999 -9999 -9999 -9999 -9999 -9999 -9999 -9999 -9999 -9999 78.807 78.252 79.289 79.129 75.822 80.762 76.639 74.079 74.942 74.499 72.649 72.632 72.567 72.339 72.192 72.037 71.904 71.884 71.914 -9999 -9999 -9999 -9999 -9999 -9999 -9999 -9999 -9999 -9999 -9999 -9999 72.013 71.864 71.784 71.829 71.837 71.854 71.789 72.024 71.817 72.124 72.539 72.994 73.337 73.649 73.909 74.074 75.332 75.767 74.519 74.684 74.817 74.964 75.152 75.089 75.174 75.224 75.304 75.429 75.612 75.764 75.817 75.954 76.089 76.282 76.412 76.597 76.814 77.942 79.539 79.767 80.349 81.987 82.079 78.114 78.309 78.507 78.709 78.969 83.002 81.759 80.187 79.917 80.737 81.549 80.937 80.374 80.294 80.792 81.329 81.694 80.842 81.419 81.812 81.654 81.569 81.467 81.444 81.346 81.704
115.683 110.398 112.795 112.288 113.128 113.7 110.485 108.723 110.725 110.955 109.075 109.385 106.13 106.008 109.303 109.295 110.455 108.633 106.828 106.688 109.415 107.83 106.803 104.645 105.045 107.985 103.685 107.578 107.743 107.025 104.448 103.468 107.595 107.058 107.268 103.713 103.103 105.773 102.248 105.08 104.843 103.123 99.785 101.568 102.035 102.403 102.618 99.75 102.73 101.805 100.778 100.183 100.025 96.823 101.235 104.185 100.955 98.483 100.4 100.96 100.59 99.845 99.688 100.34 96.618 94.16 93.51 93.105 92.918 94.765 93.05 93.493 95.923 97.475 94.778 95.31 92.903 94.405 94.855 96.855 93.525 95.073 97.063 94.765 95.71 95.273 94.58 94.855 92.163 90.003 93.598 90.72 90.948 92.763 92.963 91.78 92.335 90.705 87.408 87.215 87.128 90.538 87.23 89.265 87.015 92.593 93.403 93.39 85.998 88.138 87.675 93.588 88.418 88.27 91.1 87.465 86.608 88.45 86.645 86.933 88.788 87.378 90.045 89.188 87.703 86.785 84.165 83.99 84.323 88.105 90.498 89.962 87.76 91.26 85.837 91.24 90.645 88.582 88.567 84.85 84.7 85.59 84.842 84.052 83.545 83.422 83.012 83.09 83.487 84.55 84.402 84.41 82.802 82.725 82.902 83.977 88.49 89.972 87.39 83.377 86.325 86.397 88.447 87.265 87.467 83.205 83.322 83.665 84.212 87.805 87.815 85.937 84.837 84.485 86.8 87.447 87.61 89.757 89.867 88.78 89.035 87.82 91.115 89.327 91.042 90.255 89.307 84.292 82.862 83.882 82.53 84.967 85.935 83.34 83.405 85.632 83.33 81.372 82.017 82.945 88.767 84.71 82.565 81.647 81.385 81.345 83.952 84.682 83.455 82.007 82.11 81.32 81.435 81.417 81.845 81.825 81.39 81.942 81.805 84.562 82.362 81.447 84.002 81.53 81.32 82.237 83.122 83.772 84.525 85.342 85.427 84.29 81.645 81.877 79.927 78.732 80.19 80.295 82.127 81.48 82.585 78.447 81.342 79.925 85.097 85.245 84.552 81.567 82.552 77.792 78.447 80.082 76.562 78.777 81.922 80.087 83.135 81.595 79.79 75.967 76.2 78.792 78.922 78.305 77.972 80.26 76.975 77.877 78.647 81.152 75.687 75.09 75.14 77.972 79.332 79.807 80.58 78.855 79.517 78.362 74.14 76.074 78.582 76.652 77.667 75.392 73.209 74.389 73.407 75.939 80.917 76.574 80.219 77.167 73.212 72.552 72.449 72.679 72.602 72.457 72.554 72.692 72.519 -9999 -9999 74.597 75.282 76.04 76.119 75.399 74.754 74.807 73.747 -9999 -9999 -9999 -9999 -9999 -9999 -9999 -9999 72.167 72.452 72.427 -9999 -9999 -9999 -9999 -9999 -9999 -9999 -9999 -9999 -9999 79.442 77.892 80.549 79.494 76.937 81.567 76.572 72.664 72.819 72.632 72.557 72.452 72.294 72.082 71.942 71.852 71.849 71.724 71.877 -9999 -9999 -9999 -9999 -9999 -9999 -9999 -9999 -9999 -9999 -9999 -9999 -9999 -9999 -9999 -9999 71.959 71.759 71.749 71.817 71.747 71.884 72.212 72.672 73.007 73.387 74.347 73.912 76.924 76.749 76.369 74.582 74.659 74.742 74.972 75.147 75.084 75.122 75.177 75.287 75.462 75.612 75.697 75.834 75.982 76.147 76.272 76.439 76.612 78.339 79.024 81.357 79.762 80.067 80.772 78.509 78.127 78.312 78.497 79.382 82.322 80.404 79.754 79.917 80.329 81.842 81.624 81.737 80.037 81.359 82.682 82.694 83.367 80.897 81.559 82.492 81.544 81.452 81.346 81.319 81.271
110.828 114.69 116.193 111.368 108.563 113.68 115.128 111.875 113.075 109.943 108.878 107.955 106.423 106.263 107.303 109.913 110.708 107.885 108.188 104.663 107.73 106.835 109.9 105.76 105.515 108.008 107.903 109.63 108.243 108.84 104.018 106.625 105.473 103.818 107.653 103.52 107.675 105.21 102.328 104.928 101.658 99.59 100.18 103.585 102.408 103.34 102.38 102.86 99.725 108.16 102.903 100.06 97.235 101.185 102.593 99.585 102.233 102.383 98.778 95.425 96.158 96.083 100.475 99.928 97.28 93.875 93.583 93.25 99.81 99.543 101.468 96.968 98.963 94.035 94.81 94.268 98.875 95.683 96.955 99.52 95.518 96.283 93.1 95.685 90.27 97.258 96.748 94.723 94.855 93.115 92.08 93.238 92.063 95.973 90.398 90.34 88.738 90.415 90.198 89.228 87.433 87.418 89.243 87.245 87.48 90.03 90.145 91.685 91.5 89.535 86.268 95.285 93.665 88.04 86.808 88.228 87.348 89.143 85.843 87.653 90.02 88.393 87.61 90.453 88.008 85.803 84.438 84.263 84.14 84.005 86.458 92.327 91.885 90.577 90.322 91.06 90.75 86.717 86.067 86.74 83.627 84.655 83.555 84.13 83.107 83.29 83.045 83.025 83.747 84.837 84.887 82.897 85.23 85.365 86.46 85.502 91.115 88.597 85.945 83.46 86.6 88.44 89.337 87.56 85.28 83.367 83.36 85.292 86.217 91.957 93.95 89.955 92.02 91.375 88.607 85.905 88.737 89.627 91.027 88.137 90.252 91.127 87.64 88.197 88.935 90.607 88.347 88.977 86.34 85.49 82.75 82.455 83.207 83.495 87.137 83.747 83.382 84.345 85.105 81.615 86.66 85.225 82.085 83.49 83.45 82.3 83.937 84.932 84.625 85.057 82.805 83.19 81.347 81.422 82.132 82.03 81.357 83.602 82.662 84.182 80.872 80.555 80.645 81.945 81.282 81.627 82.927 82.617 84.565 84.2 83.627 82.162 81.36 79.785 79.002 79.237 80.65 80.365 82.79 79.327 78.425 80.35 81.957 84.68 85.985 83.072 83.807 80.372 78.182 78.04 77.382 80.155 76.53 82.56 80.405 79.322 82.847 82.267 78.912 76.227 76.355 78.345 83.53 84.012 81.98 80.282 80.44 78.812 76.35 78.297 76.542 75.365 74.977 77.502 77.002 77.235 77.407 80.535 82.14 78.637 74.632 77.117 75.364 76.464 73.707 77.052 75.762 75.474 73.757 75.047 79.154 77.272 77.982 78.762 73.307 74.134 73.167 72.969 72.504 72.407 72.537 72.384 72.609 74.472 78.542 76.032 74.989 75.492 75.214 74.704 74.542 76.232 75.799 74.964 74.33 75.642 76.912 75.117 -9999 -9999 72.537 72.157 72.612 72.967 72.642 -9999 -9999 -9999 -9999 72.217 -9999 -9999 -9999 -9999 80.887 78.139 77.719 77.497 76.704 76.917 75.772 72.664 72.562 72.457 72.322 72.172 71.982 71.872 71.864 -9999 -9999 -9999 -9999 -9999 -9999 -9999 -9999 -9999 -9999 -9999 -9999 -9999 -9999 -9999 -9999 -9999 -9999 -9999 -9999 -9999 -9999 -9999 -9999 71.654 71.797 71.919 72.289 72.689 74.544 79.754 74.509 77.544 77.607 76.039 75.744 74.569 74.627 74.729 74.819 74.949 74.974 75.047 75.187 75.357 75.497 75.612 75.757 75.907 75.964 76.092 76.287 76.432 76.617 77.497 80.997 82.757 77.399 78.777 77.734 77.927 78.109 78.307 80.247 78.919 79.882 79.794 81.267 81.184 81.872 83.092 81.012 80.794 80.167 80.199 83.274 82.352 82.172 80.924 85.019 81.719 81.537 81.379 81.204 81.164
116.483 117.193 112.113 112.578 112.93 111.708 110.895 111.035 108.99 111.315 112.238 109.973 107.34 106.478 108.55 109.013 109.58 107.073 107.905 104.943 105.275 106.48 106.43 106.673 106.84 108.473 105.18 103.203 106.52 110.598 108.34 108.72 103.973 104.15 105.513 102.42 104.033 106.785 103.453 101.46 101.238 99.303 103.568 103.525 106.235 102.09 99.278 101.873 103.023 103.373 103.323 101.44 97.285 101.928 101.475 98.133 97.188 97.168 100.868 96.225 100.125 98.143 100 98.03 98.955 93.773 93.538 94.67 93.928 96.098 96.708 101.86 96.615 94.218 91.78 99.198 100.508 96.543 101.55 94.638 93.303 93.63 94.048 93.99 96.408 93.14 92.35 97.893 95.433 93.915 92.095 92.293 94.918 94.105 91.385 96.1 93.013 90.158 90.105 88.745 90.985 88.473 88.148 90.95 88.64 90.993 94.735 91.945 90.898 90.923 90.295 90.405 91.703 94.663 88.485 90.255 88.053 86.315 88.855 87.52 87.303 90.003 92.285 90.403 88.938 84.803 84.573 84.458 84.5 88.023 88.165 92.987 92.96 91.987 87.545 88.362 89.5 89.627 87.32 85.462 85.077 83.97 83.367 83.407 83.455 83.4 83.205 83.235 83.18 84.935 86.28 88.047 86.355 88.275 86.467 89.99 94.11 89.842 83.607 87.952 87.505 85.832 87.545 87.52 83.615 84.392 84.21 88.042 88.097 93.36 91.992 92.252 91.59 93.377 90.105 89.042 86.195 92.147 88.7 88.125 91.032 89.265 87.212 90.565 86.417 90.777 90.8 84.01 83.722 83.932 82.977 83.502 84.242 84.027 86.145 85.817 82.027 86.452 86.015 87.912 89.357 90.19 87.142 83.725 85.617 81.665 82.747 83.082 84.892 85.66 84.687 82.43 81.9 82.192 81.48 81.815 82.12 83.71 82.527 83.527 84.087 82.045 80.497 80.75 81.205 81.827 84.102 82.327 82.857 83.597 85.92 82.637 79.722 79.6 79.475 79.297 79.297 80.637 89.242 81.665 85.702 85.882 82.345 82.03 82.305 83.125 80.65 81.397 83.672 81.217 78.757 79.955 79.15 80.967 81.995 79.762 84.105 81.19 80.47 76.387 76.217 76.162 83.18 83.757 83.27 82.512 80.177 78.412 79.73 78.077 76.745 77.26 77.535 76.467 77.695 79.412 78.745 78.817 77.097 75.432 76.555 77.827 77.722 73.977 78.244 76.557 75.857 75.577 73.637 79.337 75.919 79.454 79.412 77.917 78.952 75.664 74.999 73.632 72.944 72.924 73.274 72.757 72.887 76.392 76.559 77.687 74.464 77.912 76.547 77.557 76.107 77.309 75.709 75.884 76.582 77.129 80.567 76.392 76.089 74.022 74.814 73.614 72.519 72.484 72.812 74.727 -9999 -9999 72.567 73.167 75.004 74.412 -9999 74.697 75.657 77.199 79.962 76.979 76.364 74.362 72.612 72.499 72.337 72.177 72.074 71.882 71.712 -9999 -9999 -9999 -9999 -9999 -9999 -9999 -9999 -9999 -9999 -9999 -9999 -9999 -9999 -9999 -9999 -9999 -9999 -9999 -9999 -9999 -9999 -9999 -9999 -9999 -9999 -9999 71.76 71.809 71.944 72.382 75.302 77.337 75.197 77.534 77.919 78.594 77.569 75.254 74.539 74.602 74.674 74.814 74.887 74.984 75.109 75.247 76.709 75.564 75.637 75.807 75.847 75.959 76.104 76.294 76.469 77.157 80.692 78.302 77.189 79.269 77.564 77.837 77.937 78.107 78.279 78.487 78.997 79.647 80.849 80.994 81.982 80.474 81.672 79.817 79.787 79.727 81.367 81.367 83.147 84.167 81.342 81.572 83.667 82.501 81.196 81.091
116.918 114.958 110.97 111.03 109.935 113.975 112.008 107.525 107.273 113.04 111.028 109.533 108.423 106.883 109.038 107.753 110.065 105.808 107.73 105.048 104.585 106.328 104.88 103.853 106.04 107.843 108.918 104.485 106.178 105.588 104.585 104.725 106.578 106.47 106.24 106.375 101.975 104.21 103.54 99.85 101.325 104.383 102.433 102.665 104.733 106.848 102.09 100.86 101.973 98.993 102.213 103.39 97.268 101.055 102.318 103.01 97.968 97.588 100.785 98.92 99.855 102.72 101.4 100.055 95.78 94.548 93.825 94.113 96.985 95.803 95.935 95.87 99.23 99.94 94.268 98.03 99.208 92.208 100.218 96.958 96.278 94.403 92.265 92.938 94.9 98.443 94 96.188 95.953 95.325 94.558 92.613 99.98 93.443 93.36 95.125 92.968 89.683 89.173 88.945 90.71 88.165 90.548 92.518 88.435 91.478 92.328 93.293 92.283 89.958 91.355 88.418 93.648 90.22 90.785 93.468 88.783 85.635 86.008 91.263 89.42 92.308 91.888 89.478 87.728 84.918 84.815 84.643 85.543 87.385 89.71 89.325 88.022 86.655 84.305 85.057 84.39 87.352 89.83 85.98 85.347 84.277 84.205 83.687 83.677 83.447 83.565 83.362 84 83.882 84.895 89.31 87.157 87.627 90.242 86.18 90.545 92.832 89.225 83.842 85.495 86.292 84.612 85.52 85.832 86.612 87.315 91.327 84.977 92.77 89.557 86.912 89.665 86.035 88.537 89.112 88.63 88.585 88.27 86.675 90.647 87.435 84.78 83.227 84.842 85.125 83.237 83.382 83.84 82.682 85.665 89.252 86.74 85.837 87.772 85.467 84.302 86.882 83.345 85.765 92.302 90.885 86.852 87.272 85.71 84.27 82.807 87.272 88.032 86.177 87.322 83.162 81.64 82.345 81.955 84.622 84.717 84.332 81.225 82.207 81.3 82.322 80.675 80.43 80.445 82.03 84.03 84.785 83.315 81.855 85.337 83.767 81.57 79.647 79.495 83.122 84 88.197 86.722 88.12 84.135 92.44 85.857 87.877 84.59 81.62 81.707 84.315 84.422 79.397 79.947 81.832 78.955 82.032 83.707 82.24 78.687 81.67 77.365 76.882 76.612 76.59 79.005 81.682 80.557 78.805 81.302 78.157 77.367 80.795 78.097 79.892 77.475 77.225 78.962 77.747 76.505 77.242 78.927 76.317 75.965 76.834 75.689 74.867 76.524 76.132 80.609 74.564 76.734 78.274 75.387 77.527 76.974 77.739 79.669 73.369 75.209 74.072 74.189 74.464 73.617 73.412 72.719 76.859 78.009 74.862 75.497 75.589 74.989 76.587 74.467 76.982 76.324 76.399 78.017 77.594 77.339 77.449 78.049 75.299 76.589 73.729 72.697 73.367 72.484 73.849 73.589 72.402 72.722 73.327 75.892 74.107 73.967 72.542 74.549 74.234 74.644 75.699 74.634 74.774 72.432 72.239 72.079 71.982 71.847 71.744 -9999 -9999 -9999 -9999 -9999 -9999 -9999 -9999 -9999 -9999 -9999 -9999 -9999 -9999 -9999 -9999 -9999 -9999 -9999 -9999 -9999 -9999 -9999 -9999 -9999 -9999 -9999 -9999 -9999 71.777 71.792 72.004 75.057 76.212 78.317 75.429 78.302 84.074 76.782 75.269 74.442 74.484 74.532 74.599 74.737 74.839 74.907 75.529 75.937 76.842 75.412 75.567 75.689 75.802 75.964 76.139 76.319 80.752 81.167 79.917 78.192 77.182 77.399 77.829 77.869 77.989 78.132 78.307 78.659 79.097 79.034 80.182 81.947 82.054 81.157 79.254 79.992 80.154 80.539 80.272 82.744 83.414 80.569 82.999 81.587 85.314 82.414 81.119
115.14 116.925 113.943 109.47 110.095 113.403 108.325 111.408 109.873 109.448 114.2 109.948 108.013 108.288 112.25 109.03 110.943 110.098 106.365 105.79 104.943 104.375 105.053 104.163 104.485 106.393 106.263 103.813 107.435 104.905 107.963 104.28 105.593 104.243 108.775 105.425 103.428 102.103 101.895 100.878 102.738 104.71 106.69 103.113 101.363 101.645 104.038 106.69 105.115 106.278 102.093 101.553 97.845 104.605 98.658 97.96 99.768 101.233 98.663 97.668 100.963 101.165 94.963 100.563 100 94.303 96.643 95.135 95.125 99.403 98.395 97.585 93.625 92.698 93.618 96.873 96.803 95.383 97.69 95.335 92.578 90.96 91.923 92.108 96.475 93.605 91.965 95.463 96.003 94.933 92.585 94.248 89.333 95.38 94.153 96.093 96.435 90.565 88.938 88.913 90.03 92.965 93.948 93.03 92.54 92.995 91.403 91.405 92.63 92.318 91.25 89.97 90.38 91.69 90.92 87.373 86.24 86.058 87.445 86.64 88.333 89.668 90.733 88.693 88.13 86.49 84.968 84.848 84.698 85.73 88.88 89.565 90.32 90.49 86.88 86.995 87.417 88.985 89.942 84.142 85.582 86.352 84.14 83.942 83.747 83.622 83.595 86.815 84.647 83.627 86.29 87.477 90.72 85.77 83.942 86.522 86.137 87.505 85.08 84.035 84.42 84.12 85.347 86.182 85.975 86.017 92.837 91.062 85.037 88.88 87.99 91.505 87.38 87.475 89.03 91.217 90.915 89.25 83.95 84.352 84.69 85.567 84.285 83.527 83.43 83.367 83.24 83.12 83.31 83.35 86.465 89.795 86.61 83.262 86.585 89.987 85.54 86.982 88.152 89.07 91.972 87.622 86.78 84.08 84.322 82.662 83.8 89.575 90.19 87.9 83.495 82.547 83.415 82.382 83.335 86.717 87.66 85.425 82.38 81.607 81.8 81.782 81.325 80.575 80.465 80.297 82.962 82.12 85.3 81.935 82.542 80.622 82.085 79.637 79.477 80.527 83.695 85.872 90.732 92.002 85.915 83.642 78.542 78.387 81.795 84.142 84.637 85.562 81.695 83.107 79.845 80.762 80.44 79.732 78.722 84.267 83.212 79.93 78.142 77.265 77.065 77.175 78.095 81.315 82.045 78.762 78.452 77.245 79.987 77.747 78.977 77.67 76.912 77.065 78.515 80.17 75.675 77.465 75.407 76.522 77.755 77.654 76.599 75.949 77.042 81.257 82.344 79.864 78.329 76.817 76.394 78.757 74.519 77.572 73.679 74.122 75.312 74.652 74.954 74.777 75.449 74.374 73.337 78.214 76.482 73.852 72.499 78.244 76.442 76.312 73.184 75.387 77.474 76.569 78.247 79.067 78.552 79.067 78.534 75.367 77.262 73.374 73.659 72.909 72.862 73.862 73.952 73.712 73.287 73.374 74.242 74.129 74.207 72.519 75.182 76.807 74.132 73.477 72.624 72.397 72.162 72.019 71.927 71.889 71.789 71.614 -9999 -9999 -9999 -9999 -9999 -9999 -9999 -9999 -9999 -9999 -9999 -9999 -9999 -9999 -9999 -9999 -9999 -9999 -9999 -9999 -9999 -9999 -9999 -9999 -9999 -9999 -9999 -9999 -9999 -9999 71.79 71.832 76.239 73.187 75.744 83.002 77.832 78.202 75.539 76.567 74.307 74.342 74.417 74.514 74.544 74.612 74.632 75.647 76.239 75.144 75.209 75.389 75.514 75.619 75.804 75.984 76.134 79.007 79.092 78.229 76.864 77.319 77.232 77.617 78.464 78.229 78.077 78.104 78.317 78.554 78.629 80.319 80.179 81.732 80.424 80.217 79.377 79.444 80.049 82.432 82.114 80.799 80.739 83.037 82.097 83.489 84.726 81.776
111.218 112.78 108.585 110.313 108.318 109.815 112.963 113.065 108.443 113.905 113.795 106.828 107.113 106.67 106.973 115.76 108.23 108.053 109.455 106.75 105.028 105.085 104.775 104.885 104.188 104.76 105.535 106.528 106.445 108.46 105.543 106.66 106.27 101.765 104.153 108.938 100.75 100.548 107.105 103.543 104.665 102.118 104.998 103.813 102.148 105.508 103.43 102.558 105.185 104.29 104.453 102.373 98.46 102.945 98.388 101.08 100.368 101.295 95.7 101.823 102.668 96.895 99.198 96.64 98.07 99.918 97.068 96.115 95.23 94.388 97.123 98.438 94.595 96.785 95.493 94.553 94.328 92.313 98.675 97.128 93.225 91.36 98.1 97.96 96.76 90.848 90.775 94.41 95.82 98.723 93.235 95.725 90.535 97.468 95.398 96.075 91.433 92.045 88.685 91.89 91.658 90.535 95.02 95.818 91.058 92.04 93.555 87.28 87.19 87.645 93.528 93.223 89.538 88.915 89.35 86.363 87.53 88.733 89.89 88.618 87.048 89.86 91.108 90.575 90.12 85.72 85.108 85.023 84.885 86.963 87.22 88.217 90.937 90.665 90.817 87.75 89.635 86.84 86.102 86.305 84.16 85.745 84.935 84.067 83.99 83.822 84.68 86.707 87.472 89.075 90.895 91.38 89.652 86.11 84.385 84.062 84.122 84.205 84.27 84.312 84.31 84.38 85.082 87 88.352 88.587 89.852 92.43 88.015 89.935 90.245 89.707 91.525 87.185 89.062 89.42 89.757 89.952 87.392 85.427 86.572 91.562 84.815 83.88 83.777 83.645 83.657 83.535 84.195 85.355 85.45 86.7 85.217 92.237 90.03 85.762 85.607 92.612 89.202 88.065 86.575 90.855 87.395 88.597 83.595 82.107 83.507 89.907 89.97 88.965 83.395 82.91 84.415 82.122 83.437 87.622 87 83.607 81.915 81.732 81.97 81.632 81.552 81.022 80.682 80.667 80.945 80.865 83.58 87.105 86.722 83.275 80.747 80.772 81.67 82.015 84.04 81.55 88.435 89.26 82.002 84.312 80.98 82.595 83.622 85.862 85.487 84.107 85.102 86.482 78.732 77.782 84.54 82.645 80.607 77.935 82.335 78.275 77.725 76.827 76.787 76.695 76.62 77.227 76.712 77.997 79.327 79.015 78.175 78.215 78.99 76.407 76.19 76.577 78.035 80.652 78.867 79.752 79.612 77.225 77.43 76.049 77.184 76.224 78.864 78.952 80.957 80.117 76.959 77.772 79.549 79.174 74.587 76.037 74.139 74.449 75.297 75.382 74.714 74.779 74.974 74.237 73.969 74.397 75.217 74.607 73.254 77.057 75.564 74.857 73.274 74.249 75.854 74.279 75.849 77.532 79.774 78.137 76.692 77.534 78.329 77.697 74.889 73.154 73.694 72.452 74.039 76.312 76.479 74.017 72.844 73.994 74.312 73.259 76.119 75.894 74.269 72.652 72.467 72.152 72.002 71.912 71.929 -9999 -9999 -9999 -9999 -9999 -9999 -9999 -9999 -9999 -9999 -9999 -9999 -9999 -9999 -9999 -9999 -9999 -9999 -9999 -9999 -9999 -9999 -9999 -9999 -9999 -9999 -9999 -9999 -9999 -9999 -9999 -9999 -9999 -9999 71.767 71.834 72.824 75.762 75.952 80.707 80.117 78.947 78.537 74.112 74.202 74.307 74.399 74.422 74.434 74.444 74.612 75.347 74.882 75.024 75.219 75.404 75.489 75.664 75.817 76.027 77.247 76.789 76.754 77.327 77.757 77.152 77.637 79.377 78.979 78.604 78.054 78.109 78.249 78.377 78.547 78.607 80.789 82.154 81.182 79.547 81.234 81.189 81.169 81.302 80.937 82.464 82.572 79.929 83.791 88.414 82.344
108.923 108.778 108.58 108.358 108.643 111.928 112.363 116.125 115.498 109.19 106.875 106.733 106.485 108.763 108.735 108.95 106.738 110.943 108.893 107.088 104.923 104.678 104.885 104.623 104.21 106.933 104.818 107.115 108.113 110.413 108.02 106.39 106.593 106.42 107.318 107.065 102.425 100.595 106.453 107.005 107.355 106.56 104.96 99.635 101.863 103.965 107.845 105.75 102.633 103.135 101.785 101.288 99.025 105.548 101.445 101.753 106.405 102.56 95.735 98.738 101.953 98.368 99.493 100.708 99.233 99.113 97.35 95.51 96.685 95.443 96.573 95.54 97.708 99.205 95.693 95.983 95.81 98.78 98.078 91.84 93.72 94.695 97.218 94.665 93.878 94.535 97.153 90.933 96.413 97.433 97.488 94.783 93.803 96.328 93.84 98.668 94.275 91.583 89.433 92.335 92.048 92.17 95.705 94.448 91.16 89.448 89.91 87.77 90.035 92.163 91.008 93.958 90.128 88.583 88.613 86.53 89.893 92.54 89.425 89.048 87.423 89.965 89.288 91.523 87.453 85.38 85.215 85.09 85.565 89.313 86.965 86.915 88.755 85.525 88.922 90.75 89.972 90.202 88.217 89.14 86.497 86.132 84.292 84.237 84.185 84.152 87.627 85.322 88.562 91.085 89.46 90.627 90.795 86.812 84.567 84.322 84.372 84.462 84.527 84.55 84.595 84.602 84.64 85.495 87.78 89.957 88.97 89.937 90.025 91.722 90.382 94.317 93.27 90.41 90.4 91.195 89.23 87.735 89.837 87.242 87.295 87.265 86.085 84.185 85.01 84.932 84.935 84.447 84.772 84.825 85.285 88.655 91.455 91.222 89.812 90.592 88.132 89.337 90.222 88.877 90 92.135 84.83 86.125 87.82 82.86 84.732 88.042 89.067 90.675 88.642 87.287 83.86 82.397 84.155 87.68 86.902 85.287 82.965 82.007 81.982 81.89 81.622 81.187 80.787 80.77 81.682 83.77 82.487 84.547 85.365 84.88 83.1 84.085 83.677 81.497 82 82.022 81.64 85.515 87.36 82.385 78.63 78.437 78.325 81.342 86.202 82.262 81.48 82.747 81.06 78.94 79.98 82.74 81.55 80.1 78.322 77.09 76.985 76.865 76.752 76.612 76.507 76.38 76.272 76.88 76.86 77.397 75.987 76.845 78.327 75.71 76.262 76.802 76.952 78.265 78.9 80.125 78.53 79.402 76.865 75.862 76.889 76.627 79.027 79.784 81.964 78.952 79.812 75.449 77.844 75.779 76.267 76.177 74.419 74.359 74.294 75.604 74.362 74.089 73.952 73.829 74.232 73.367 75.519 73.667 73.827 78.052 75.594 74.584 73.319 73.642 73.062 75.584 78.212 78.722 75.539 77.532 76.822 76.442 76.472 77.527 76.937 75.184 75.404 72.419 76.202 75.997 73.759 74.177 74.204 74.067 75.874 73.527 74.879 76.027 73.539 73.862 72.309 72.024 71.909 71.942 72.319 -9999 -9999 -9999 -9999 -9999 -9999 -9999 -9999 -9999 -9999 -9999 -9999 -9999 -9999 -9999 -9999 -9999 -9999 -9999 -9999 -9999 -9999 -9999 -9999 -9999 -9999 -9999 -9999 -9999 -9999 -9999 -9999 -9999 -9999 -9999 71.779 71.844 74.484 77.372 76.914 78.717 76.479 76.319 74.154 74.072 74.179 74.257 74.329 74.314 74.362 74.442 74.622 74.712 74.862 75.164 75.722 75.357 75.477 75.637 75.844 75.997 76.152 76.327 78.959 76.774 77.212 77.842 78.262 78.529 78.207 77.842 77.924 78.384 79.434 78.754 79.922 80.232 81.344 80.914 80.832 80.722 81.147 81.334 81.924 82.079 83.964 81.252 81.564 82.781 87.799 82.566
108.963 108.793 108.605 109.813 112.163 111.255 112 110.808 109.868 113.56 107.053 109.245 109.005 110.085 110.498 109.688 107.408 110.908 107.243 106.49 106.23 104.373 104.143 104.205 104.06 103.79 105.928 105.798 106.3 109.43 109.25 108.518 104.475 107.588 108.868 105.583 102.455 100.658 103.765 104.758 107.535 108.643 102.823 101.008 104.443 99.563 103.685 107.598 104.95 102.038 101.47 101.315 100.25 102.103 101.53 100.698 102.675 100.64 106.058 104.203 98.323 97.69 97.23 100.318 101.345 97.098 95.145 97.49 95.27 98.498 95.935 95.565 97.36 101.77 97.31 97.05 97.21 97.453 95.435 93.198 93.203 96.685 98.325 93.79 94.548 97.4 95.753 90.598 93.91 95.54 99.258 94.443 89.988 89.67 96.215 94.253 93.54 94.943 89.258 91.788 93.12 92.84 95.01 92.538 95.408 94.118 92.395 91.74 87.678 92.883 97.573 91.958 93.633 96.533 91.113 90.955 90.68 90.895 91.488 88.82 87.19 92.453 91.563 89.163 85.758 85.633 85.445 85.253 87.17 85.95 86.708 92.907 90.885 90.592 90.52 88.66 89.937 89.165 87.405 89.795 86.585 86.737 86.187 85.172 85.415 87.387 87.577 87.012 85.322 89.96 89.122 90.355 90.155 84.517 84.572 84.635 84.665 84.722 84.772 84.775 84.822 84.872 84.872 85.127 85.58 89.092 89.775 88.09 91.115 90.512 93.78 97.24 95.895 90.937 87.792 94.122 88.685 91.23 90.585 91.09 89.405 89.767 90 87.837 85.585 87.237 88.517 85.977 86.142 83.527 86.412 89.262 91.9 85.745 86.48 87.94 90.165 92.09 94.735 85.815 89.887 88.572 85.612 86.77 85.78 84.62 88.057 88.727 91.55 92.15 87.997 88.502 85.582 84.272 84.042 87.482 87.157 84.89 85.252 84.177 86.692 81.897 83.832 82.08 84.627 85.055 83.072 82.322 83.705 84.397 84.022 82.145 84.922 85.112 82.832 84.867 79.78 82.77 86.617 84.097 88.572 84.482 82.44 78.615 78.5 81.127 82.875 81.327 83.425 83.77 77.855 79.42 80.15 80.142 80.712 80.91 77.207 77.08 76.99 76.855 76.745 76.587 76.495 76.357 76.192 76.155 75.952 76.025 76.745 75.66 75.572 75.47 75.405 75.73 75.907 78.187 77.652 77.055 74.967 74.895 75.002 74.734 75.012 76.989 80.262 78.847 80.787 79.009 76.369 77.467 77.742 74.832 76.014 76.397 75.364 75.372 73.774 73.807 73.839 74.249 74.369 73.877 74.089 73.597 74.637 74.537 76.194 74.259 74.662 74.009 73.704 73.522 73.564 74.182 76.584 77.729 78.137 76.434 75.279 75.487 78.574 78.729 75.554 76.484 78.917 76.079 73.492 76.104 76.204 74.537 77.544 76.859 76.159 76.452 75.604 75.029 73.574 75.534 72.179 71.927 71.897 71.994 72.079 -9999 -9999 -9999 -9999 -9999 -9999 -9999 -9999 -9999 -9999 -9999 -9999 -9999 -9999 -9999 -9999 -9999 -9999 -9999 -9999 -9999 -9999 -9999 -9999 -9999 -9999 -9999 -9999 -9999 -9999 -9999 -9999 -9999 -9999 -9999 71.767 71.774 71.904 74.679 77.664 79.072 76.424 75.814 73.839 73.977 74.089 74.182 74.212 74.214 74.259 74.339 74.454 74.579 75.029 78.179 76.609 77.232 75.312 75.444 75.662 75.857 76.002 76.177 76.364 76.709 77.764 77.267 77.529 78.052 77.914 77.612 79.362 81.042 80.934 79.279 80.494 78.542 80.322 83.964 80.249 80.342 81.952 81.219 79.539 82.267 82.602 83.204 82.302 83.404 87.149 81.309
109.31 109.02 108.708 110.185 111.625 108.908 110.25 114.533 113.19 108.895 107.838 114.723 112.938 109.805 106.825 107.4 109.645 109.343 106.31 105.38 107.505 104.485 104.188 103.9 103.655 103.88 105.473 103.63 103.863 106.163 106.583 109.983 105.315 105.675 111.028 107.64 103.043 100.703 100.68 101.938 100.875 107.405 102.938 107.095 104.608 104.345 101.18 105.203 106.14 106.035 105.92 100.55 102.523 100.488 96.728 102.06 102.813 101.785 102.21 102.735 99.323 97.963 96.32 100.685 102.01 97.81 94.808 96.595 96.273 94.043 95.613 98.645 93.198 97.895 95.013 95.288 94.743 96.425 96.538 95.113 94.98 95.615 96.233 97.988 95.628 93.253 96.333 93.083 95.35 94.483 98.105 95.685 94.318 93.855 92.693 95.945 93.93 92.233 89.298 89.17 92.64 91.4 90.628 92.838 93.345 94.555 94.303 93.19 89.598 91.9 93.54 92.883 93.763 90.283 87.268 91.9 89.405 91.035 93.478 89.378 87.533 91.733 91.763 91.228 86.395 85.803 86.693 87.615 88.918 85.173 87.16 88.775 89.802 90.042 89.402 89 92.147 91.227 88.802 88.305 85.367 86.147 84.952 86.335 91.652 88.415 93.397 87.947 90.447 89.24 87.877 89.012 88.495 84.78 84.822 84.872 84.92 84.987 85.022 85 85.022 85.04 85.025 87.162 88.762 86.242 87.922 88.175 92.855 90.507 93.46 96.917 96.072 92.712 89.52 93.575 87.102 94.152 90.277 86.152 90.257 89.095 92.032 91.065 86.09 86.157 85.297 86.597 86.042 86.26 89.15 88.415 90.872 89.665 87.895 86.55 90.307 94.602 93.112 90.745 87.945 84.872 88.542 90.922 86.86 89.242 92.637 92.162 93.222 89.412 85.46 83.107 84.265 83.377 82.852 84.47 85.627 83.202 86.162 84.107 87.677 86.835 86.457 87.205 86.455 83.19 85.122 82.47 83.962 83.155 86.167 81.662 82.59 81.785 81.232 80.852 80.202 83.467 87.462 84.977 86.53 79.552 80.485 81.752 79.027 78.947 78.595 81.357 81.11 83.15 81.057 78.02 79.737 81.355 80.305 77.335 77.225 77.11 76.995 76.897 76.797 76.66 76.537 76.485 76.495 76.362 76.295 76.17 76.182 76.045 75.867 75.765 75.68 75.585 75.565 77.117 75.305 76.387 75.122 74.92 74.835 74.789 75.299 75.434 77.232 80.284 79.179 75.514 77.369 79.107 76.797 76.307 79.982 74.612 78.912 73.924 73.692 73.662 73.657 73.567 73.504 73.444 73.374 73.344 73.332 73.612 75.414 73.922 73.174 73.209 73.237 73.194 73.287 76.532 77.384 76.089 77.312 79.147 76.534 76.494 74.134 73.814 74.687 77.604 79.129 76.162 75.854 75.154 76.462 76.789 76.409 76.754 76.722 75.869 74.292 72.992 73.137 73.822 72.074 71.909 71.789 72.029 72.482 -9999 -9999 -9999 -9999 -9999 -9999 -9999 -9999 -9999 -9999 -9999 -9999 -9999 -9999 -9999 -9999 -9999 -9999 -9999 -9999 -9999 -9999 -9999 -9999 -9999 -9999 -9999 -9999 -9999 -9999 -9999 -9999 -9999 -9999 -9999 -9999 71.713 71.777 71.952 74.457 74.999 74.534 74.279 74.109 73.794 73.999 74.124 74.154 74.177 74.179 74.229 74.329 74.449 74.824 76.584 77.414 77.262 76.327 75.312 75.539 75.709 75.862 76.029 76.214 76.419 76.629 76.774 76.984 77.547 77.309 79.037 78.337 84.669 82.779 81.782 80.462 79.124 79.324 79.602 79.822 80.877 81.599 79.304 78.989 82.047 81.247 85.509 84.577 82.541 87.586 82.931
