ncols 406
nrows 31
xllcorner    528184
yllcorner    188138
cellsize     2
NODATA_value -9999
108.632 108.127 108.067 107.645 108.327 107.8 107.84 108.132 107.885 108.892 110.43 108.875 110.517 116.765 117.937 118.177 117.537 116.972 117.1 115.902 109.877 108.355 108.83 107.372 107.61 110.755 110.462 108.855 107.975 107.302 106.885 108.375 107.937 107.472 109.102 109.177 108.792 110.44 108.665 107.84 107.895 110.53 110.09 112.28 113.792 115.625 109.815 109.667 109.372 107.177 108.255 109.652 109.787 111.08 114.98 116.472 116.742 116.732 115.855 110.997 107.527 107.025 106.925 107.04 107.072 107.06 107.025 107.055 107 106.945 106.987 107.075 107.085 108.325 113.18 107.037 110.375 107.39 107.517 108.152 107.462 108.32 113.135 117.117 117.72 116.91 107.615 108.185 109.262 107.042 106.955 106.897 106.865 106.895 107.002 106.902 106.907 107.5 112.5 112.567 113.167 113.185 109.597 107.087 107.742 109.7 115.025 115.662 115.94 115.082 112.955 111.172 110.207 108.267 105.587 105.197 105.262 106.715 106.45 105.307 105.322 105.367 105.312 105.33 105.297 105.3 105.65 106.947 108.452 111.662 112.192 111.647 107.15 107.095 106.35 105.555 105.55 105.435 105.41 106.087 105.382 105.282 107.71 108.17 105.32 105.335 105.235 106.892 106.887 111.252 110.822 111.305 105.657 105.702 111.397 108.142 110.212 115.862 108.982 107.084 104.152 104.514 104.284 104.389 104.119 102.364 101.034 103.899 108.532 104.642 104.594 98.587 100.652 98.644 102.409 106.809 109.364 105.059 109.367 98.949 102.327 98.619 95.922 99.432 96.447 93.489 94.362 93.594 94.922 96.414 96.584 96.249 97.259 96.972 95.767 92.979 90.302 90.427 94.472 96.009 95.827 94.984 94.654 95.222 96.164 95.497 91.169 87.407 87.169 87.177 87.267 86.872 86.712 86.599 86.549 86.547 86.499 86.414 86.357 86.224 86.114 86.684 86.344 85.942 85.957 85.954 86.094 86.304 86.197 86.049 85.947 86.214 88.034 85.994 85.687 85.934 86.472 85.957 85.952 85.952 86.377 86.734 88.629 90.674 90.282 91.897 91.104 90.182 89.012 92.984 94.104 93.137 92.627 93.762 93.597 89.734 88.339 93.599 94.427 92.864 86.769 89.927 93.669 93.994 94.307 94.482 94.694 94.677 90.844 94.289 95.869 96.169 96.657 96.442 95.654 94.219 91.087 96.244 96.267 96.177 96.032 96.112 94.432 93.134 90.342 93.854 91.589 90.829 91.204 90.427 89.177 88.882 87.957 87.547 87.644 88.877 88.009 87.364 88.352 90.087 88.692 88.622 88.819 89.052 86.972 86.939 87.504 89.982 89.354 88.994 88.979 88.784 88.599 88.507 90.334 91.362 90.724 88.957 87.887 87.892 87.752 87.797 89.054 89.997 90.232 88.739 87.557 91.399 90.247 90.692 87.022 88.574 90.327 89.574 95.744 90.914 89.787 96.442 95.292 96.257 91.657 88.694 85.814 84.937 85.119 87.659 88.169 87.434 85.949 86.852 89.409 83.717 83.979 87.922 86.279 84.574 84.577 85.362 86.492 84.937 84.009 85.137 84.132 84.072 84.039 83.924 83.942 84.044 84.297 84.462 84.349 84.349 84.774 84.974 85.289 85.662 85.514 85.834 86.757 85.309 85.327 85.434 86.394 86.807 85.757 85.724 85.847 86.964 86.074 85.337 85.314 87.532 90.227 93.739 94.687 93.159 87.247 87.572 93.649 96.429 96.184 95.217 96.717 95.014 89.347 87.669
111.227 110.282 107.945 108.067 107.745 108.17 107.92 107.975 107.92 108.745 109.587 108.872 110.377 116.14 117.512 115.43 113.387 116.935 117.345 116.82 111.86 108.735 108.652 108.337 111.587 114.68 112.807 108.87 107.025 107.017 107.295 107.977 107.197 107.032 107.667 108.43 107.895 107.705 112.39 113.732 115.082 112.175 112.662 114.325 112.55 114.782 112.25 108.517 108.327 106.98 107.885 112.23 113.89 113.867 115.382 116.467 116.832 116.802 115.445 108.765 107.535 107.177 107.77 107.197 107.165 107.112 107.125 107.127 107.067 107.007 106.977 107.037 107.067 107.14 107.232 107.335 107.297 107.175 107.2 107.312 107.77 107.637 107.167 111.932 116.81 110.855 107.547 108.645 110.692 109.197 107.11 107.01 107.332 109.935 107.285 106.987 106.94 106.94 109.445 112.357 113.07 113.412 113.737 111.595 107.35 108.465 109.717 113.72 115.105 113.74 112.267 111.937 111.395 109.78 107.195 107.012 105.915 106.25 105.26 105.275 105.325 105.352 105.39 105.347 105.357 105.365 105.282 105.36 106.232 108.17 110.535 107.452 106.362 105.76 106.442 106.192 105.427 105.417 105.982 105.612 105.577 105.37 105.355 106.215 105.377 105.33 105.252 108.245 110.6 113.075 109.255 111.955 110.057 105.557 109.207 108.025 113.39 117.072 114.182 106.697 106.097 104.234 103.759 104.824 108.097 101.789 100.469 109.107 110.044 113.557 114.234 100.297 109.049 111.594 110.492 106.957 98.892 94.952 92.989 98.802 99.437 97.924 99.167 98.319 96.397 93.764 93.057 93.154 93.047 92.917 93.054 94.809 96.319 98.514 96.542 93.469 90.949 90.069 93.749 96.534 96.474 95.899 94.954 94.609 95.157 91.664 87.662 87.502 87.344 87.309 86.949 86.782 86.674 86.674 86.662 86.594 86.492 86.357 86.227 86.144 86.142 86.217 86.187 86.069 86.027 85.997 86.207 86.169 86.687 86.802 86.619 86.432 87.694 87.007 87.777 89.679 90.249 91.272 90.657 90.589 86.369 91.534 92.437 92.959 92.824 93.114 93.162 93.274 87.994 92.807 94.014 93.324 93.724 93.992 94.297 93.302 86.944 93.914 95.042 95.207 87.622 88.742 94.929 95.384 95.697 96.157 95.777 95.652 92.927 92.732 95.664 96.014 96.172 95.199 94.944 94.349 89.999 95.227 94.954 92.972 92.152 91.654 92.409 92.049 88.144 88.092 88.094 88.299 89.252 88.749 87.952 88.304 88.717 88.372 88.304 88.842 89.004 87.414 87.442 89.914 89.017 89.104 89.319 89.429 88.874 89.239 89.552 90.009 89.572 89.492 89.452 89.467 89.284 89.352 91.534 90.959 91.682 88.374 88.264 88.309 88.179 90.377 92.379 91.567 89.327 89.154 91.229 91.879 92.682 92.127 90.469 89.959 89.449 90.689 94.502 93.552 90.957 97.027 94.372 101.464 94.189 91.567 88.597 86.879 85.927 88.159 90.072 89.854 88.477 87.057 86.359 84.434 84.374 84.437 84.499 84.494 84.467 85.384 86.267 86.957 84.777 84.424 84.199 84.162 84.332 84.457 85.384 84.589 84.709 85.189 85.074 84.902 84.899 85.927 86.679 85.622 85.657 85.662 86.662 85.677 85.629 85.717 85.924 86.579 87.254 88.902 88.972 88.422 87.769 87.267 91.607 95.807 95.957 96.239 96.044 95.887 89.732 87.429 91.289 95.819 96.187 91.939 90.122 89.337 87.802 88.547
117.577 117.232 108.27 108.5 108.252 108.747 108.137 108.087 108.325 108.815 108.245 108.657 108.297 110.312 111.032 112.617 116.117 118.145 118.575 118.135 114.405 110.815 110.485 110.27 110.94 111.515 109.012 107.827 107.015 107.06 107.16 108.935 108.267 107.575 107.272 107.732 109.08 111.997 113.98 112.977 114.257 109.597 113.32 114.995 117.417 115.787 111.487 107.557 107.515 107.57 108.852 113.22 114.777 114.735 114.99 115.732 116.065 116.14 115.117 110.872 107.627 107.15 108.035 107.197 107.192 107.192 107.182 107.12 107.792 107.675 107.292 107.05 107.067 107.117 107.215 107.272 107.305 107.352 107.325 107.327 107.4 107.625 107.85 107.135 109.542 108.217 108.36 110.702 110.247 108.075 107.53 107.232 111.677 113.972 112.495 107.097 107.047 106.977 106.95 107.565 110.107 112.72 113.215 113.705 110.1 109.877 109.34 110.94 113 110.98 111.71 111.937 110.562 107.435 108.57 108.867 107.96 106.135 105.275 105.265 105.29 105.317 105.342 105.375 105.43 105.392 105.365 105.347 105.36 105.765 106.83 106.585 106.015 105.485 106.005 105.532 105.592 105.72 105.822 106.73 105.745 105.427 105.235 105.345 105.397 105.352 105.265 107.54 110.865 115.015 114.57 113.797 112.107 105.797 106.117 111.065 109.932 113.485 112.272 109.384 109.704 106.544 103.914 102.877 101.712 100.744 99.977 102.694 110.047 101.977 107.282 102.754 101.142 109.354 104.734 102.869 93.027 89.812 97.167 97.429 94.417 94.707 98.027 94.819 93.267 92.202 92.457 92.637 92.789 92.592 92.892 93.902 95.802 99.279 99.097 98.852 95.089 91.449 89.247 94.629 96.519 96.484 95.887 94.994 92.469 87.884 87.612 87.419 87.269 87.039 86.859 86.857 86.859 86.739 86.629 86.532 86.367 86.304 86.314 86.347 86.299 86.749 87.004 86.197 86.059 86.022 86.004 85.992 86.332 87.364 87.814 87.814 87.672 90.732 92.174 93.077 92.902 93.207 93.264 93.197 89.437 92.322 93.712 93.877 94.079 94.252 94.432 94.649 87.144 92.369 93.992 93.479 93.847 94.704 94.697 94.442 86.424 94.254 95.287 95.289 90.869 87.772 95.029 95.467 95.802 95.537 95.749 95.694 94.567 90.809 94.229 94.474 94.494 92.224 91.462 91.139 89.427 92.737 91.809 88.072 88.742 88.917 88.709 87.992 88.852 88.567 88.507 88.619 89.319 88.229 88.202 88.719 89.734 88.754 89.049 90.124 89.742 88.787 89.187 89.679 90.292 89.634 89.787 90.412 89.972 89.959 89.977 90.144 90.082 90.007 90.024 90.047 89.789 90.339 92.529 92.829 89.372 88.812 88.699 89.544 93.549 91.379 94.347 92.677 91.714 89.304 88.459 88.844 89.272 89.289 92.339 91.522 93.434 91.562 94.624 95.027 94.314 96.139 94.797 97.487 98.134 93.264 95.717 90.952 85.977 89.149 92.779 91.714 90.939 87.929 85.342 85.087 85.189 84.912 84.842 84.794 84.724 84.642 86.467 86.097 85.347 84.419 84.324 84.322 84.704 85.787 87.394 85.292 85.179 85.249 85.319 85.257 85.359 86.082 85.787 85.732 85.957 86.449 86.287 86.104 85.897 86.027 87.359 89.244 91.002 91.312 92.284 93.297 91.249 93.744 95.034 96.347 96.574 96.629 96.424 95.779 92.309 88.089 88.559 89.767 88.462 88.057 87.932 87.762 87.812 88.057
117.705 116.605 108.717 108.462 108.405 107.952 107.985 108.21 108.327 108.78 108.24 108.93 108.507 108.9 112.567 117.632 118.665 119.49 119.377 118.532 117.23 111.207 109.985 109.265 107.317 107.192 107.257 107.17 107.295 107.99 108.195 107.782 107.382 107.35 108.717 108.662 113.212 111.02 115.867 113.252 114.297 110.7 114.172 111.61 113.18 113.442 109.842 110.225 107.125 107.08 107.595 110.025 112.722 111.777 110.047 110.875 111.487 111.17 110.132 109.485 107.902 107.657 107.245 107.277 107.282 107.295 107.195 107.977 109.55 109.825 107.987 107.2 107.752 107.225 107.255 107.28 107.282 107.455 107.48 107.495 107.482 107.765 107.607 108.165 107.975 108.872 107.827 109.73 108.265 107.54 108.237 111.97 115.215 115.937 114.01 111.875 107.062 107.005 106.967 107.367 109.015 109.09 108.685 111.162 111.155 109.962 109.472 107.605 110.105 110.2 110.57 111.302 108.785 107.46 112.602 112.55 110.087 108.727 106.797 105.525 105.24 105.237 105.317 105.347 105.415 105.435 105.412 105.387 105.357 105.345 105.407 105.537 105.555 107.065 108.627 106.125 106.04 106.035 106.09 106.152 105.952 105.49 105.325 105.327 105.405 105.385 106.135 112.137 109.235 115.28 113.357 111.072 108.7 106.877 105.762 106.825 108.32 111.657 114.824 113.212 104.657 104.194 103.489 102.022 101.127 100.279 99.542 100.312 108.102 105.097 108.317 102.652 107.509 108.499 114.139 103.587 98.192 96.322 103.952 93.904 103.204 93.869 92.202 90.779 90.879 91.182 91.594 91.982 92.397 92.407 92.217 92.272 92.977 96.969 100.834 98.219 95.467 93.169 90.784 90.732 93.204 96.052 95.949 93.452 89.014 88.179 87.587 87.437 87.169 87.032 86.939 86.939 86.842 86.854 86.572 86.437 86.442 86.377 86.434 86.602 86.389 86.474 87.147 87.329 87.372 87.652 88.582 90.507 90.602 90.849 93.462 93.797 90.604 91.462 93.804 94.012 94.274 94.499 94.599 93.682 89.924 92.959 94.967 94.949 95.397 95.179 95.237 95.237 90.347 91.817 93.784 93.667 93.802 94.672 94.679 94.679 86.759 90.429 92.149 94.299 89.984 87.254 93.464 94.139 94.877 93.822 92.997 92.479 91.099 88.267 88.982 88.657 88.399 88.467 88.109 88.397 89.202 88.447 88.479 88.487 88.954 88.112 87.992 88.099 88.894 88.682 88.657 88.844 89.159 88.679 88.579 88.712 89.719 89.267 89.332 89.704 90.217 89.482 89.519 90.097 90.797 90.032 90.122 91.097 91.619 90.354 90.377 90.442 90.604 90.477 90.444 90.477 92.774 94.154 94.792 92.957 91.042 89.372 89.599 94.752 100.719 94.009 94.652 96.747 94.154 94.757 95.157 88.504 88.784 89.597 93.704 93.697 97.242 89.664 91.259 95.869 94.714 95.339 93.269 94.934 93.032 97.159 94.342 91.527 90.407 91.392 91.524 88.557 86.382 85.519 85.894 86.142 85.722 85.234 85.152 85.084 85.019 84.902 89.569 94.019 90.822 85.942 84.604 84.652 85.034 85.747 85.964 85.312 85.597 85.827 85.749 85.627 85.729 85.939 86.434 86.757 86.574 86.609 86.767 86.947 87.084 87.879 88.584 90.027 92.499 94.832 95.674 95.527 93.599 91.584 95.382 96.507 96.299 95.699 95.269 94.629 91.594 88.867 88.102 87.822 87.887 87.874 88.097 87.817 87.847 89.612
117.057 116.052 113.312 109.095 108.385 108.217 108.625 109.067 108.287 108.322 108.712 108.452 109.117 109.025 115.105 118.745 118.31 119.077 119.89 119.01 118.132 115.92 109.665 108.345 107.625 107.382 107.612 108.395 108.375 107.755 107.457 107.407 107.362 108.525 109.437 110.732 111.052 112.372 109.88 109.847 113.42 109.63 111.652 111.455 111.962 110.787 108.355 108.285 108.905 109.66 108.105 108.002 109.627 109.355 111.865 116.56 117.602 117.9 116.357 112.435 107.682 107.477 107.692 107.55 107.37 107.345 107.245 109.027 109.17 109.475 107.55 107.28 109.06 108.707 107.847 107.387 107.46 108.085 107.825 107.64 107.59 108.337 108.35 107.7 109.03 108.125 107.827 108.062 108.18 107.582 111.85 117.285 116.795 116.452 115.07 110.552 107.042 107 107.73 108.43 109.785 109.205 109.715 110.245 111.985 108.73 107.612 109.155 109.252 109.64 108.777 110.385 108.472 111.675 113.19 113.492 113.015 111.54 109.19 108.76 106.327 105.282 105.262 105.29 105.38 105.38 105.43 105.467 105.415 105.407 105.387 105.392 105.472 105.967 106.037 106.27 106.295 106.292 106.342 106.38 106.28 105.607 105.395 105.382 105.395 105.407 105.322 107.067 108.555 111.762 111.632 112.96 105.695 105.88 105.865 105.722 107.93 110.512 111.644 110.694 105.637 104.334 103.044 104.549 108.487 102.657 100.772 101.029 109.279 102.674 108.107 102.199 99.239 105.752 108.144 108.982 88.992 88.904 90.207 91.932 90.362 89.739 91.599 90.264 90.377 90.547 90.854 91.272 91.787 92.162 92.357 92.987 95.059 94.979 98.344 95.604 100.339 94.819 92.944 95.242 94.884 94.709 94.844 91.404 97.089 91.789 89.114 87.274 87.644 87.514 87.042 86.954 87.009 87.624 86.677 86.569 86.607 87.192 87.837 87.389 86.832 86.644 88.959 90.189 89.982 91.654 93.672 94.539 93.529 94.197 94.517 94.587 92.859 90.422 94.607 94.977 95.559 96.089 95.272 93.909 92.719 92.699 94.879 94.877 94.424 95.129 95.109 95.029 90.552 91.104 93.597 93.862 92.859 91.372 92.117 93.282 88.784 87.134 87.017 89.032 87.322 87.774 90.944 90.907 90.077 89.669 87.524 87.989 88.724 89.014 88.647 88.719 88.829 88.834 88.602 88.717 89.637 89.492 89.117 89.039 89.814 90.834 88.952 89.079 91.367 90.732 88.892 88.874 89.804 88.869 88.779 88.872 89.717 89.657 89.232 89.567 90.724 89.902 89.617 90.619 91.787 90.292 90.882 92.757 92.567 90.817 90.877 90.977 91.677 91.349 91.274 91.549 93.607 92.312 92.254 91.579 90.502 93.879 93.344 90.767 96.259 93.154 93.382 93.759 93.629 95.342 91.774 89.472 88.937 91.307 95.804 98.692 93.059 91.134 92.467 88.964 91.672 97.259 93.412 98.852 95.334 97.757 94.549 91.972 91.167 89.654 86.094 86.079 85.902 85.804 85.739 85.674 85.577 85.504 85.407 85.317 85.237 85.237 91.142 95.537 93.772 87.302 85.374 85.534 85.777 85.782 85.869 85.889 85.982 85.944 85.992 86.752 86.044 86.114 86.574 87.422 86.654 87.004 87.864 87.752 87.387 90.417 93.239 94.909 95.457 96.417 96.829 96.854 96.472 90.799 94.727 95.457 94.837 94.187 94.107 89.994 88.302 88.324 88.287 89.562 89.299 87.879 88.639 87.849 89.039 90.122
118 116.697 117.27 115.9 109.032 108.885 108.207 108.81 108.447 108.425 109.26 108.847 108.737 108.892 110.3 114.91 117.18 118.415 119.672 119.497 118.627 117.487 111.682 109.13 108.335 108.52 108.48 108.5 107.917 107.615 107.545 107.507 107.632 108.667 111.095 109.395 109.952 112.257 109.207 109.777 109.4 110.07 108.04 109.115 108.69 109.837 111.532 109.3 107.677 107.717 107.757 107.96 109.007 109.73 112.52 116.992 117.52 117.827 116.487 114.457 108.805 107.642 108.082 107.665 107.43 107.365 107.302 109.017 109.307 109.107 108.385 107.332 108.125 108.857 108.202 109.11 108.405 107.747 107.717 107.587 107.72 107.71 107.875 107.722 107.77 107.892 107.935 108.037 108 110.877 116.447 117.617 117.72 117.832 116.702 111.647 107.322 107.195 110.797 111.637 110.63 111.87 113.115 112.877 111.957 111.685 109.552 109.522 108.967 109.41 109.355 107.952 109.515 112.96 113.585 114.552 113.552 112.932 110.717 108.922 108.502 107.672 105.355 105.252 105.3 105.34 105.42 105.47 105.47 105.48 105.432 105.427 105.435 105.43 105.57 105.92 106.222 106.382 106.967 106.505 106.31 105.77 105.427 105.417 105.48 105.46 105.385 105.255 106.102 108.222 109.3 106.01 105.71 105.885 105.975 107.517 108.28 108.562 110.572 109.602 105.147 108.789 103.639 104.134 115.809 116.199 103.467 98.572 110.237 108.939 100.729 96.914 102.247 99.084 90.714 95.014 90.807 88.729 88.722 88.804 89.054 89.144 89.697 89.814 89.949 91.624 92.612 90.559 90.872 91.752 91.962 94.819 95.277 98.092 95.257 91.812 92.984 92.592 99.849 97.724 99.187 95.407 94.899 93.604 90.019 94.682 94.377 88.474 87.944 87.277 87.039 86.877 86.802 86.734 87.874 86.964 87.204 86.812 87.687 87.767 87.937 90.359 92.847 89.487 89.557 90.404 94.167 94.602 94.632 94.692 94.642 94.732 93.547 88.977 93.267 94.617 95.012 94.414 94.147 93.807 92.712 92.584 93.837 93.739 93.062 93.367 92.967 91.564 88.844 90.622 92.549 88.842 87.552 86.259 87.687 90.807 87.479 87.007 87.289 87.174 87.694 87.714 88.987 88.962 88.932 89.354 88.772 88.509 88.659 88.997 89.084 89.199 89.174 89.724 89.309 89.292 90.942 89.834 89.272 90.357 90.949 94.347 93.509 90.847 92.664 92.589 89.189 89.259 89.719 89.012 88.959 89.134 89.914 89.977 89.689 89.862 91.402 90.312 90.217 91.787 93.234 92.739 93.992 95.162 94.737 91.509 91.639 91.644 92.444 92.009 92.182 92.219 91.899 91.667 91.479 91.289 93.039 92.144 96.414 91.367 94.829 94.494 96.619 91.662 94.244 95.852 93.022 90.342 90.029 95.592 91.974 96.364 98.467 96.899 96.162 92.559 88.864 91.757 94.647 92.372 94.814 92.552 91.969 94.422 93.354 87.017 86.327 86.242 86.164 86.067 86.014 85.937 85.882 86.099 86.297 85.664 85.499 85.644 89.417 90.107 90.137 86.949 85.782 85.872 85.894 85.894 86.292 86.172 86.169 86.499 86.709 88.199 87.049 86.459 86.687 87.609 88.024 89.057 90.537 92.364 90.949 94.959 95.692 96.287 96.944 97.309 97.029 96.569 95.729 92.454 92.722 94.872 91.744 88.539 88.329 88.364 88.452 88.514 89.782 90.174 88.427 88.202 89.687 88.419 89.149 90.009
118.452 117.83 117.807 114.33 108.307 108.89 108.465 108.357 108.695 108.555 108.637 109.095 108.65 109.067 109.502 110.937 116.317 117.892 119.062 119.282 118.562 117.657 115.785 111.91 109.985 109.125 108.232 107.87 107.8 107.705 107.672 108.682 109.94 109.032 108.035 107.755 107.57 107.437 109.402 114.592 111.87 110.502 113.947 116.302 110.817 110.81 109.647 108.695 107.322 107.295 107.342 107.497 109.337 110.29 110.685 116.955 117.417 117.947 116.665 115.102 110.087 107.81 107.607 107.567 107.51 107.827 107.887 107.987 109.205 109.312 108.727 107.67 108.065 109.592 108.04 107.805 108.145 107.782 107.725 107.61 107.66 107.847 107.882 107.885 107.827 107.895 108.102 108.165 108.22 110.86 116.217 116.905 117.57 117.842 116.805 115.81 107.77 107.312 108.625 108.62 108.357 108.957 112.625 114.122 111.625 110.977 111.387 109.102 109.342 109.057 108.512 107.43 111.05 112.55 113.717 113.59 113.257 112.167 108.847 109.347 110.97 109.165 108.227 107.642 105.312 105.31 105.365 105.432 105.467 105.5 105.492 105.49 105.462 105.432 105.412 105.477 105.735 106.09 106.277 107.087 106.227 105.712 105.512 105.41 105.507 105.485 105.41 105.297 105.292 105.69 105.72 105.507 105.665 105.977 106.842 108.64 108.33 108.317 108.204 107.474 108.162 103.932 104.077 112.207 117.224 114.769 108.977 98.399 104.219 105.919 107.152 97.839 94.759 91.742 88.514 88.692 88.759 88.817 88.824 88.817 88.887 88.814 89.167 89.289 89.529 91.657 92.964 92.982 91.697 90.787 91.384 93.372 95.849 96.454 96.979 96.714 92.367 100.559 94.709 92.804 91.184 93.107 95.627 96.039 94.349 93.677 89.054 88.979 87.492 87.517 86.997 86.844 86.837 87.482 88.739 87.827 88.109 87.122 88.292 89.047 91.857 94.774 95.017 93.407 89.674 90.149 93.889 94.649 94.632 94.704 94.609 94.692 93.794 89.737 92.982 93.662 94.237 92.907 92.632 91.709 90.612 89.499 90.524 88.134 86.659 87.142 86.624 88.014 88.822 88.089 89.152 87.409 86.659 87.104 86.799 86.984 88.339 89.082 87.914 87.882 88.282 88.402 88.094 87.907 87.659 88.449 89.592 88.772 89.082 89.442 89.587 89.587 89.562 89.662 89.577 89.777 90.314 90.264 89.547 92.284 91.272 95.812 92.837 92.109 91.302 90.559 90.077 89.707 89.924 91.159 89.804 90.049 91.224 90.627 89.932 89.957 90.959 91.792 92.152 91.862 94.184 93.647 94.084 93.594 92.762 92.012 92.024 91.952 91.972 92.077 92.034 92.122 92.807 94.169 93.352 91.822 95.959 97.069 93.039 92.229 91.162 99.729 101.304 92.867 94.272 100.292 93.057 92.459 92.762 90.214 92.874 95.264 95.782 92.622 96.797 100.004 92.579 89.262 89.194 90.022 92.837 95.124 95.127 92.897 90.527 89.869 86.572 86.517 86.409 86.632 87.202 86.344 86.139 86.407 86.287 86.034 85.937 85.947 85.949 85.962 86.049 86.234 86.312 86.024 86.024 86.049 86.387 86.359 86.297 86.442 86.642 87.737 88.299 88.504 89.247 89.514 91.099 93.027 95.414 95.819 93.957 94.672 96.092 97.134 96.904 96.322 95.757 95.167 94.272 92.309 89.622 90.832 88.559 88.674 88.929 89.627 88.697 93.814 94.139 92.912 91.549 88.122 88.612 94.312 90.632 90.957
117.597 116.195 115.27 109.882 109.647 108.602 108.57 108.537 109.237 108.862 108.645 109.372 109.312 113.215 114.692 112.417 116.897 118.727 118.395 117.365 117.175 118.18 118.592 113.227 111.167 109.112 108.305 107.915 108.075 108.682 109.062 109.037 108.14 107.935 107.86 107.892 107.695 108.072 109.26 111.905 110.88 113.302 114.342 111.44 111.05 109.925 109.805 107.952 107.307 107.33 107.462 107.472 108.105 107.987 110.042 115.742 117.32 118.682 116.56 115.427 109.25 108.05 107.597 107.59 107.647 107.762 107.632 108.415 109.422 107.87 109.222 108.777 108.472 109.142 109.09 107.72 107.79 108.242 107.84 107.767 107.73 108.527 108.18 108.025 107.97 107.91 107.977 108.215 108.37 108.787 112.532 116.192 116.85 117.565 117.477 113.43 107.415 107.907 109.02 108.607 108.515 108.192 108.42 109.127 108.135 110.782 112.76 110.212 107.445 109.295 108.242 108.787 111.23 111.822 112.467 112.795 112.107 109.372 109.037 111.245 113.827 113.597 110.165 109.217 108.787 105.852 105.325 105.36 105.412 105.475 105.497 105.517 105.48 105.452 105.44 105.397 105.48 105.627 105.99 106.26 105.82 105.692 105.565 105.465 105.515 105.497 105.417 105.307 105.295 105.475 105.497 105.642 105.58 106.732 109.487 109.445 108.945 108.342 108.269 105.952 107.692 110.892 114.142 116.752 111.902 109.804 106.149 106.314 96.884 99.109 102.702 99.309 94.529 88.672 88.657 88.789 88.769 88.894 88.857 88.809 89.029 89.034 88.689 88.662 88.822 89.134 90.834 92.479 93.032 92.279 90.719 90.799 95.444 98.224 97.249 96.562 97.257 95.004 97.117 95.207 95.294 92.102 89.084 91.274 93.787 91.677 92.647 89.399 88.384 87.349 87.129 86.917 86.884 87.059 87.214 87.117 87.217 87.524 90.012 92.329 93.917 94.909 95.247 95.189 91.789 89.457 93.504 94.589 94.409 94.414 93.957 94.639 93.462 89.874 89.794 89.447 88.654 87.744 89.177 89.164 87.784 87.359 88.207 87.624 86.827 87.754 87.479 87.579 87.539 87.329 86.302 86.579 86.987 87.669 87.534 87.832 88.749 88.722 88.347 88.219 88.912 89.432 89.287 88.537 88.637 88.927 89.624 89.584 89.632 90.227 89.684 89.744 89.774 89.872 89.932 90.022 90.214 90.617 90.422 92.547 94.822 92.912 93.354 91.374 90.539 90.344 91.157 90.532 90.752 92.164 91.522 91.294 91.302 91.177 91.317 91.129 91.119 92.444 92.604 93.087 92.192 93.104 94.569 95.104 94.414 92.202 92.217 92.212 93.032 92.789 92.669 92.429 98.204 96.824 93.997 93.974 93.747 92.207 94.482 96.904 92.084 94.482 91.927 94.957 92.082 94.397 95.002 96.477 92.844 99.149 99.382 99.189 98.332 102.339 94.692 95.079 96.972 88.269 92.067 96.099 97.477 101.219 98.297 94.867 90.747 90.634 87.339 86.929 86.707 86.709 86.587 86.524 86.404 86.347 86.397 86.429 86.412 86.444 86.437 86.474 86.534 86.649 87.124 86.287 86.357 86.637 86.907 86.962 86.764 86.967 87.457 87.884 88.807 90.082 92.419 94.522 95.707 97.374 97.002 96.944 97.017 92.929 95.522 95.999 95.499 94.829 93.862 93.369 89.664 89.147 90.877 93.144 89.449 89.352 88.747 89.217 89.162 92.652 94.124 92.787 89.099 88.887 89.612 93.557 95.609 90.592
117.07 113.257 111.95 115.987 117.62 111.98 108.555 108.692 108.712 108.837 108.8 108.9 109.04 108.972 112.495 109.555 114.307 117.835 114.295 110.672 116.055 119.407 118.622 117.262 111.03 109.947 108.812 109.545 109.557 109.557 108.912 107.945 107.932 107.932 108.012 108.587 109.53 109.27 109.81 111.557 109.79 107.87 107.43 110.982 114.732 113.112 110.255 109.292 107.56 107.452 107.647 108.155 108.8 110.567 111.74 115.27 117.157 118.782 117.272 115.735 110.807 107.94 107.675 107.69 107.717 107.69 107.83 108.37 109.697 108.18 109.035 108.28 107.83 107.752 109.297 108.457 107.922 109.162 109.447 108.217 108.26 108.037 108.577 108.065 108.112 108.145 108.627 108.357 108.33 108.477 108.467 112.217 116.162 116.86 113.697 107.862 107.867 108.857 108.487 108.22 108.397 110.475 110.947 108.1 108.09 108.097 108.842 110.02 108.697 109.21 107.355 109.727 110.032 110.94 111.552 111.865 109.255 109.932 110.397 113.24 114.357 112.547 108.995 109.025 109.37 110.557 106.162 105.37 105.34 105.42 105.49 105.495 105.52 105.525 105.507 105.462 105.415 105.467 105.565 105.795 105.695 105.66 105.51 105.532 105.545 105.537 105.41 105.327 105.277 105.57 105.797 105.632 107.17 111.17 109.887 109.247 109.357 109.232 106.794 106.522 108.009 103.049 112.942 106.862 104.922 105.114 108.842 105.042 100.619 100.727 104.874 104.642 92.142 93.159 88.847 88.802 88.897 89.394 89.207 88.877 88.847 88.944 88.807 88.677 88.599 88.664 88.802 89.377 91.777 92.917 92.932 90.842 89.864 95.587 97.474 96.657 100.732 94.817 96.562 93.144 94.262 92.609 90.572 94.519 98.022 95.307 89.142 87.424 87.357 88.137 87.632 87.169 86.869 86.824 86.922 87.377 87.252 90.942 94.277 94.477 94.679 94.927 95.227 95.242 94.472 88.164 92.374 92.144 91.784 89.779 91.162 90.327 89.347 87.354 87.527 88.139 87.617 87.539 87.422 86.722 86.844 88.414 88.024 88.264 87.887 88.787 88.472 87.677 87.832 88.989 86.462 86.397 86.642 88.492 88.199 88.237 89.962 91.769 89.619 88.647 88.947 89.442 89.672 88.822 89.187 89.527 90.334 90.462 90.714 90.719 90.392 90.399 90.469 90.487 90.332 90.844 90.827 94.134 92.144 93.329 94.579 94.742 93.359 91.394 91.174 90.947 91.157 90.982 91.452 92.274 92.314 92.457 92.472 91.754 91.529 92.109 92.917 91.894 92.604 94.402 93.889 93.509 96.139 96.124 94.504 92.867 92.582 93.157 94.594 94.849 93.264 96.019 97.924 96.909 100.077 97.214 94.022 94.372 95.497 92.539 95.024 94.134 92.314 92.479 92.117 95.372 98.184 99.324 98.649 96.312 96.892 98.104 95.467 103.959 99.964 102.037 95.697 89.239 93.374 100.107 101.564 102.339 100.934 100.764 95.607 89.764 87.444 87.402 87.214 87.012 86.899 86.872 86.844 86.789 86.819 86.854 86.847 86.864 86.932 86.954 87.024 87.174 87.907 88.084 87.137 87.142 87.324 87.409 87.544 88.767 89.229 90.284 89.899 94.604 95.917 96.487 97.224 97.997 97.732 97.262 96.209 90.984 94.354 94.459 93.524 92.082 89.584 89.304 88.502 88.559 90.849 94.359 91.199 89.414 89.007 89.302 90.867 89.182 90.772 95.037 93.149 89.592 94.777 94.774 96.847 93.672
117.3 117.122 117.517 118.527 118.262 112.857 108.975 110.382 109.207 109.172 109.137 108.965 109.49 109.575 109.08 109.232 109.735 111.65 116.08 119.067 120.082 120.427 119.67 118.54 112.987 110.315 110.467 109.71 108.41 107.992 107.995 107.935 108.682 109.415 109.54 109.437 110.345 109.075 108.622 109.687 109.745 109.99 110.035 113.067 115.517 114.472 112.37 113.032 108.757 107.725 107.642 107.772 108.227 110.69 111.567 115.815 117.24 118.065 117.21 115.702 111.075 107.872 107.812 107.79 107.815 107.985 108.395 107.895 108.785 107.62 108.277 109.03 108.367 108.055 108.807 111.102 116.515 118.772 120.26 108.55 108.957 108.03 108.025 108.62 108.567 108.207 108.407 108.657 108.39 108.527 108.492 109 111.802 113.94 110.097 109.387 109.49 108.757 108.362 108.187 109.05 113.725 113.425 111.152 108.132 108.13 108.32 110.7 109.86 109.545 108.35 110.925 110.55 111.142 110.45 113.66 110.975 110.727 112.57 114.26 114.017 110.755 108.92 108.955 111.792 114.88 113.285 107.38 105.442 105.357 105.395 105.467 105.497 105.492 105.54 105.51 105.51 105.525 105.445 105.517 105.57 105.542 105.515 105.537 105.512 105.527 105.402 105.342 105.277 105.455 105.777 109.005 112.94 112.595 111 109.32 109.325 108.842 107.207 110.414 105.912 106.032 114.512 107.699 103.032 101.174 100.757 101.292 109.882 111.097 108.962 95.007 90.027 91.027 88.799 88.827 88.807 89.109 89.397 89.164 88.789 88.757 89.847 90.917 88.904 88.522 88.567 88.689 89.809 90.337 91.789 90.909 90.417 89.832 92.552 100.194 99.472 99.612 94.229 99.012 95.437 93.572 94.912 95.887 92.484 94.724 87.677 87.332 87.352 88.184 88.767 87.352 87.179 86.817 86.869 88.154 91.007 93.352 94.942 95.092 95.109 94.514 94.487 94.979 92.679 88.124 88.094 86.334 86.314 86.702 88.414 88.127 87.622 86.624 87.474 87.379 87.744 89.469 87.937 86.692 86.804 88.172 88.777 88.929 88.642 89.334 88.409 87.817 87.772 88.712 87.259 87.447 88.009 88.979 88.374 88.379 90.462 91.942 89.307 89.129 89.287 90.189 89.652 89.757 89.804 89.852 90.792 91.012 90.714 90.727 90.569 90.547 90.544 90.607 91.582 93.694 93.692 96.862 94.464 91.867 92.502 93.799 92.824 91.529 93.489 92.332 91.927 94.972 92.714 92.704 91.864 92.084 92.152 92.024 91.932 94.204 94.049 92.762 92.662 93.282 93.109 93.012 93.479 93.442 93.904 94.449 93.259 93.657 95.269 95.467 95.107 97.509 97.667 97.444 96.134 102.422 98.472 95.952 95.472 94.307 94.279 93.594 92.139 92.142 92.124 97.264 97.729 96.209 93.262 100.352 101.172 103.324 110.559 109.339 109.182 109.084 99.924 90.534 92.367 99.917 103.257 104.009 100.479 99.679 95.774 88.692 88.087 87.934 87.712 87.449 87.297 87.219 87.262 87.189 87.209 87.249 87.257 87.277 87.349 87.502 89.557 87.559 87.834 88.137 87.357 87.792 88.124 88.804 89.864 92.184 95.002 96.157 93.759 95.789 96.899 97.724 97.677 97.537 96.607 96.037 95.462 92.097 90.257 89.949 88.494 88.652 89.404 88.737 88.802 89.059 90.867 94.769 93.982 89.077 90.199 92.377 95.369 90.134 89.534 94.557 89.544 89.424 93.942 91.727 97.939 95.812
117.352 118.375 119.107 118.46 117.71 115.557 110.512 110.72 109.222 109.042 109.775 108.98 109.08 109.832 109.17 109.655 109.907 110.885 117.99 119.745 119.847 120.562 120.105 119.61 116.77 110.705 109.015 108.875 108.652 108.512 108.732 109.12 110.807 109.142 109.27 108.542 108.327 108.135 107.982 108.372 109.81 111.01 110.757 112.95 117.467 111.79 108.442 111.16 108.242 107.822 107.607 107.655 107.755 110.022 111.447 115.112 117.225 117.91 117.412 115.877 111.07 108.12 107.99 107.887 107.92 108.095 108.515 107.937 108.13 107.74 107.682 109.15 109.182 111.407 115.575 120.137 120.965 121.262 121.285 114.265 107.507 108.882 108.762 109.565 109.667 108.705 108.35 108.507 109.222 108.47 108.542 108.54 109.675 112.492 113.265 112.12 111.38 109.3 108.225 109.362 113.635 115.03 113.922 113.38 110.5 108.142 108.12 108.175 110.182 109.802 111.93 114.235 109.815 111.992 112.392 111.68 113.087 112.27 113.3 113.96 110.412 107.87 108.872 109.11 112.63 114.91 115.53 110.855 107.812 106.245 105.372 105.365 105.425 105.492 105.515 105.577 105.557 105.55 105.517 105.495 105.525 105.497 105.53 105.555 105.522 105.477 105.427 105.317 105.292 105.377 106.872 114.042 114.9 114.04 110.362 109.272 109.3 105.62 105.454 106.367 107.032 108.087 107.032 108.914 102.747 102.352 99.254 100.064 106.019 113.104 100.494 90.987 89.109 88.759 88.704 88.697 88.704 88.707 88.947 88.907 88.862 89.369 92.042 92.009 91.112 89.599 87.867 89.077 93.322 90.159 90.537 91.897 92.117 91.589 93.292 91.479 91.607 89.864 92.754 93.137 93.474 93.549 88.992 93.774 94.382 88.769 87.337 87.282 87.377 88.152 88.377 87.317 87.452 87.244 89.342 90.294 91.217 92.524 94.922 95.089 95.069 94.919 93.509 92.779 89.727 87.347 87.652 87.759 86.492 86.979 88.122 87.294 87.112 87.699 89.577 88.477 88.479 89.972 88.837 88.054 88.602 89.289 88.814 88.759 88.722 89.229 88.354 88.037 88.039 88.154 87.789 88.169 88.342 88.567 88.942 89.312 91.214 93.089 91.857 90.429 90.752 90.322 89.779 90.024 90.014 90.357 92.929 90.914 90.884 90.934 90.967 91.072 91.114 91.382 91.832 91.739 94.342 95.099 95.194 92.694 92.394 92.484 95.124 94.037 93.009 93.702 94.602 94.819 95.719 93.957 92.417 92.442 93.649 93.047 93.519 93.302 96.467 98.859 99.322 100.792 95.799 95.827 96.162 93.732 94.189 94.304 94.054 94.949 95.772 96.387 96.674 100.564 100.047 102.717 96.029 105.222 104.429 100.497 94.984 95.329 95.294 94.452 92.862 92.124 92.109 99.947 107.164 106.129 101.512 105.284 107.612 109.534 107.602 114.194 113.559 111.949 95.749 92.317 91.234 96.194 100.382 102.257 101.304 96.757 90.974 88.977 88.659 88.454 88.214 87.932 87.689 87.569 87.647 87.582 87.577 87.662 87.647 87.669 87.759 90.074 93.927 91.834 88.099 88.739 88.309 89.744 90.209 93.904 95.582 98.059 97.529 97.327 96.352 94.599 96.472 96.947 96.392 95.774 95.519 93.537 91.027 90.137 89.184 88.824 89.057 89.252 89.369 89.732 93.484 93.017 91.427 94.864 96.909 93.219 89.479 94.382 93.499 94.509 89.584 89.554 89.437 89.314 94.419 91.954 91.879 92.657
117.52 118.337 119.06 119.005 118.715 118.482 117.12 109.912 109.31 109.02 109.265 109.185 109.19 109.275 109.592 109.467 109.72 110.14 115.115 119.287 119.507 120.24 120.605 119.695 118.775 113.237 109.425 109.365 110.36 110.172 110.58 109.102 108.627 108.56 108.175 109.732 111.037 110.702 109.697 109.322 110.797 110.482 110.295 109.68 113.752 114.857 111.962 114.452 107.797 107.787 107.635 107.647 107.727 110.037 111.167 114.232 116.887 117.882 116.177 115.055 110.24 108.24 108.025 108.345 108.167 108.01 108.227 107.94 107.922 107.82 108.157 109.632 114.435 120.062 120.897 121.45 121.94 122.212 121.835 120.845 107.245 107.035 110.26 114.132 115.255 116.165 113.882 108.552 108.767 108.52 108.512 109.665 113.2 113.977 112.577 112.04 110.605 108.78 109.797 116.485 116.95 116.412 114.83 113.802 113.145 108.74 108.565 108.237 108.685 109.905 110.462 110.81 108.292 111.485 111.265 113.21 115.752 113.475 112.917 108.707 108.527 111.127 109.052 108.692 109.16 114.245 115.382 115.405 114.182 109.082 107.08 105.467 105.382 105.405 105.497 105.652 106.017 105.657 105.555 105.56 105.55 105.572 105.535 105.535 105.492 105.45 105.442 105.335 105.27 105.365 110.062 115.48 116.007 115.45 115.665 110.295 107.485 110.085 110.479 108.249 110.367 107.764 104.687 109.082 102.809 111.664 111.179 97.962 102.754 101.629 95.434 93.587 92.157 89.704 88.914 88.837 88.739 88.667 88.674 88.649 88.817 90.727 91.904 91.672 91.764 91.877 90.234 88.214 89.019 88.529 88.834 90.239 91.937 92.327 95.034 90.942 88.562 91.834 93.219 89.102 89.534 94.577 94.124 93.229 91.809 88.837 87.254 87.249 87.439 87.692 87.687 88.139 88.637 89.449 90.262 90.307 90.382 90.477 92.764 95.079 95.069 94.012 90.717 90.147 89.739 87.087 87.034 88.139 87.024 87.809 88.347 88.922 89.017 89.372 90.367 88.959 88.859 91.309 90.617 88.689 88.822 89.494 89.257 88.939 88.919 89.049 89.659 88.612 88.314 89.052 88.394 88.642 88.834 89.229 89.189 89.979 92.719 93.267 92.689 92.577 92.952 90.007 90.299 92.852 94.029 92.117 92.174 91.577 91.324 91.749 92.439 91.829 91.724 92.169 92.322 92.312 92.997 93.752 93.239 93.669 93.682 93.714 99.582 94.344 94.427 93.842 96.812 93.444 94.674 96.584 94.092 97.364 96.464 93.909 96.304 98.222 100.194 104.884 99.069 96.532 100.757 103.907 105.739 100.662 94.967 95.404 95.684 95.812 96.164 96.457 97.294 100.842 98.634 103.372 97.169 101.724 104.489 97.454 95.959 100.927 96.979 94.239 92.259 93.314 94.054 93.587 100.389 100.269 107.152 110.079 104.389 110.359 114.872 114.617 117.864 104.837 96.242 92.869 93.819 93.127 98.382 99.952 99.772 97.077 90.369 89.707 89.342 89.094 88.682 88.412 88.164 88.009 88.032 87.989 87.969 88.017 88.022 88.032 88.127 89.742 91.562 89.844 88.479 89.139 92.097 95.197 96.459 97.287 97.617 98.187 98.402 98.142 97.102 93.732 95.664 95.407 95.262 93.272 90.099 89.172 88.949 89.394 91.232 89.969 89.282 89.239 90.169 89.789 97.002 97.689 95.592 96.299 99.812 97.039 90.257 90.154 91.847 91.904 89.524 89.434 89.347 89.309 89.304 89.194 91.759 96.122
115.22 117.795 118.995 119.9 119.39 118.91 117.65 110.515 109.197 109.362 109.122 109.137 109.242 109.36 110.185 109.495 109.575 109.607 110.232 117.405 119.355 119.675 120.56 120.022 118.795 116.095 111.867 111.097 110.522 109.155 108.687 108.455 108.335 108.292 108.315 110.045 111.705 111.15 109.142 108.217 108.162 111.677 112.847 111.157 109.66 112.835 115.44 111.332 118.275 117.952 111.805 108.767 108.32 109.195 110.512 109.595 110.38 110.782 110.192 111.937 111.062 108.535 108.192 109.13 108.197 108.132 108.955 108.182 108.77 108.98 115.145 120.075 120.902 121.392 121.87 122.592 123.727 123.23 122.32 121.33 117.24 107.322 110.452 112.145 113.68 115.317 113.317 110.105 108.647 108.712 109.41 109.035 111.847 112.875 109.477 109.605 108.715 112.195 118.03 117.9 117.287 116.817 116.495 111.36 109.23 108.452 108.285 108.32 108.24 108.337 110.705 109.605 108.392 110.735 112.49 111.747 112.872 108.387 108.905 108.075 109.947 109.765 109.782 108.847 108.772 113.867 115.385 115.377 115.412 115.532 114.122 110.31 105.727 105.412 105.395 105.495 105.582 105.87 105.797 105.632 105.58 105.6 105.58 105.53 105.517 105.467 105.41 105.342 105.3 105.442 109.675 115.717 115.02 115.647 115.682 115.632 113.87 112.37 111.462 106.524 106.002 103.222 104.062 106.617 105.809 103.437 107.137 97.174 98.629 98.149 94.872 95.707 94.574 93.224 91.637 89.394 88.862 88.779 88.694 88.649 88.757 91.597 91.934 91.677 91.624 91.797 91.879 91.919 90.067 88.087 88.224 88.484 88.894 90.559 92.257 90.559 88.557 90.454 91.342 89.512 91.827 89.707 95.182 97.249 90.569 90.029 87.127 87.244 87.512 87.732 87.642 87.679 87.869 89.127 90.184 90.049 89.522 88.392 90.127 92.982 93.117 89.362 88.842 90.004 89.542 88.522 86.889 87.739 87.829 88.067 89.632 90.759 89.907 89.247 90.464 91.052 92.639 98.574 90.664 89.587 89.542 89.934 89.467 89.412 89.752 89.967 89.484 88.862 88.737 90.112 89.309 89.139 89.324 90.907 90.654 89.759 91.492 91.299 90.764 92.932 94.262 94.049 93.132 98.437 99.222 94.207 92.452 93.997 93.782 92.602 92.824 92.569 92.842 93.882 93.432 92.962 93.054 93.962 93.752 98.222 94.849 98.322 95.659 98.572 102.344 98.309 100.052 100.789 98.322 96.957 96.987 99.017 98.697 95.164 98.067 100.884 101.167 102.912 101.692 99.709 101.899 104.544 104.397 102.557 96.162 95.952 95.634 95.594 96.294 96.202 96.547 96.597 96.292 97.117 100.529 97.782 101.377 97.544 96.782 97.044 97.602 95.597 94.527 98.514 102.842 95.972 95.857 102.024 111.034 113.274 111.252 109.714 113.367 115.592 114.764 98.159 99.704 93.979 94.839 92.949 96.094 97.649 96.087 94.152 93.692 92.059 91.442 89.639 89.149 88.862 88.637 88.517 88.444 88.407 88.329 88.327 88.372 88.414 88.487 88.549 88.552 92.117 92.274 89.004 92.962 96.577 97.582 98.252 98.517 98.652 97.622 97.064 96.389 92.537 93.539 92.299 89.622 89.319 89.439 89.239 90.097 90.759 90.919 91.167 90.329 89.577 95.557 93.944 95.862 94.537 91.622 96.342 99.317 98.752 92.972 89.862 89.742 89.622 89.577 89.542 89.437 89.377 92.607 93.099 97.292 98.664
112.04 117.522 118.797 119.567 119.815 118.782 117.755 112.602 109.515 109.862 109.405 109.285 109.59 109.42 109.575 109.56 109.637 110.505 110.847 114.86 119.355 119.655 120.09 119.62 118.432 117.727 114.12 110.93 109.405 109.135 108.562 108.462 109.34 108.387 109.127 109.222 109.785 108.425 108.165 108.045 108.04 111.082 112.372 113.8 113.807 115.517 117.622 114.945 118.087 113.455 114.795 109.167 108.62 108.877 109.582 112.95 117.052 117.73 117.817 118.07 117.11 109.465 108.387 108.562 108.212 108.207 108.387 108.53 110.072 116.132 120.602 121.292 121.89 123.087 122.915 123.345 123.86 123.58 122.147 121.53 120.795 116.752 109.985 110.335 113.497 111.19 110.802 108.622 108.765 108.807 109.305 109.152 111.91 109.397 110.747 109.477 112.447 117.21 118.592 118.672 118.56 117.612 115.357 109.332 108.37 108.502 108.545 108.48 108.305 108.36 109.695 110.392 110.005 109.302 112.47 111.082 111.387 110.845 108.155 108.31 110.205 109.085 109.427 109.452 109.417 112.917 115.44 115.44 115.05 115.42 115.29 115.34 112.41 108.28 105.49 105.417 105.495 105.525 105.692 105.68 105.667 105.617 105.56 105.525 105.537 105.475 105.427 105.347 105.282 105.377 106.372 109.965 112.94 114.205 115.457 115.812 115.18 114.562 108.709 108.689 109.777 105.837 102.774 104.302 102.859 100.424 98.117 97.342 98.694 98.137 101.914 99.129 96.394 93.949 93.787 92.622 91.014 89.182 89.052 88.744 88.547 88.157 90.609 91.904 91.822 91.684 91.729 91.752 91.872 91.587 88.577 88.132 88.359 88.519 89.434 88.972 88.712 88.579 88.537 88.854 89.122 90.642 90.022 90.342 87.079 87.044 87.862 88.254 87.562 87.669 87.777 87.964 88.039 87.869 89.017 88.902 89.614 89.497 89.132 88.424 90.119 89.637 89.879 89.559 89.377 87.989 87.432 88.352 88.714 88.034 88.937 90.257 89.789 89.232 90.422 91.594 90.152 93.444 91.612 91.249 91.104 90.519 90.857 91.154 90.929 91.317 90.909 89.349 89.572 89.747 90.177 89.874 90.884 92.349 94.169 92.687 93.819 96.072 92.104 92.884 93.397 95.134 94.967 100.064 101.362 92.567 93.339 96.254 96.192 94.269 94.754 93.332 93.529 94.154 95.769 93.867 93.749 94.767 97.317 102.472 106.199 102.359 100.609 99.337 101.804 100.557 100.959 99.429 101.024 101.192 98.492 97.357 97.254 99.637 97.354 98.464 101.259 100.672 102.027 101.707 98.632 99.852 99.427 98.474 97.812 95.892 96.044 95.854 96.279 96.972 96.927 96.934 97.112 99.889 101.544 100.787 97.112 99.364 95.917 96.542 96.449 100.562 100.664 101.779 99.689 97.599 95.304 107.304 111.194 114.599 113.517 106.339 108.477 106.277 98.759 101.387 102.894 106.544 100.084 93.549 94.114 93.942 93.919 94.202 95.142 94.042 97.697 95.889 89.699 89.369 89.157 89.029 88.934 88.822 88.722 88.657 88.624 88.737 91.837 96.119 99.744 102.137 99.687 89.387 89.924 95.954 97.442 97.952 97.402 96.824 96.452 95.664 92.664 91.589 90.802 90.894 89.394 89.907 89.547 89.727 91.409 90.682 91.164 91.052 90.402 90.967 97.129 102.012 95.884 100.694 93.107 94.539 94.172 92.719 89.904 89.827 89.789 89.739 89.677 90.817 92.384 90.824 101.947 104.472 92.462 98.289
108.992 114.327 118.712 119.267 118.87 117.972 113.697 109.92 109.8 109.687 109.715 109.465 110.205 109.63 109.565 110.382 109.95 110.092 109.925 112.275 118.65 118.95 116.277 116.997 118.487 119.09 115.9 110.88 109.465 109.27 109.427 109.45 109.75 109.852 109.282 108.582 108.49 108.437 108.195 108.202 108.135 112.007 115.722 111.537 110.34 110.235 115.722 112.235 116.26 114.537 117.302 113.415 108.247 108.262 108.862 112.882 117.97 118.462 118.25 117.952 117.395 108.487 108.307 108.465 108.437 108.322 108.21 108.205 108.867 116.105 121.07 121.927 122.82 124.09 123.472 122.852 122.302 121.857 121.227 120.717 120.187 119.907 117.257 107.925 111.02 110.395 108.725 109.462 109.62 108.912 108.977 108.95 112.652 113.925 114.435 111.96 110.61 116.575 117.69 118.67 118.91 117.76 117.047 110.75 108.232 108.297 108.475 108.312 108.312 108.565 108.72 110.072 112.107 116.472 110.89 112.087 113.98 110.8 111.79 111.59 111.832 111.365 110.45 108.88 109.152 113.96 115.437 115.387 115.445 115.27 115.242 115.247 114.03 113.037 110.997 106.317 105.485 105.455 105.587 105.62 105.847 105.76 105.632 105.537 105.512 105.497 105.412 105.385 105.307 105.315 105.54 109.827 112.535 114.33 114.927 114.935 115.717 115.62 114.422 109.599 109.572 104.047 102.782 101.089 104.734 98.437 97.522 99.574 100.022 99.712 107.837 97.227 94.982 94.729 94.604 93.894 93.284 92.402 90.072 89.092 88.812 88.542 87.724 88.347 90.387 91.922 91.802 91.617 91.657 91.832 91.962 90.444 88.307 88.139 88.412 88.789 88.727 88.667 88.607 88.597 88.687 88.777 88.747 88.022 86.907 86.944 91.177 89.502 88.532 87.752 88.094 88.092 88.219 90.242 90.702 88.584 88.634 88.342 86.999 87.097 87.524 89.809 89.002 88.052 88.559 88.284 88.204 88.634 89.182 88.479 88.844 89.687 90.329 89.942 90.429 92.172 93.657 93.609 94.297 94.509 97.254 95.552 94.752 94.252 91.754 93.567 95.577 90.442 90.322 90.432 93.179 91.784 90.777 90.814 93.349 92.129 95.307 97.182 94.084 92.712 94.017 94.657 99.682 102.994 103.442 99.319 97.572 96.064 96.507 96.039 94.899 93.749 93.927 94.007 95.224 95.167 97.049 100.634 99.547 97.867 106.102 97.144 101.392 101.079 103.027 105.062 98.377 100.527 102.689 101.137 99.057 98.692 102.867 105.867 104.257 100.847 105.182 100.212 98.319 100.127 102.659 103.344 100.702 97.994 97.274 99.274 101.384 100.072 96.462 97.792 97.729 97.422 102.519 103.327 101.657 96.917 97.257 97.872 99.132 95.397 101.682 104.907 100.759 100.449 106.212 98.979 92.907 98.994 112.539 113.709 111.822 98.667 93.572 93.809 96.817 105.939 100.579 98.759 100.717 94.009 92.549 92.302 92.962 93.782 95.902 95.752 95.537 96.247 90.119 89.924 89.709 89.557 89.449 89.297 89.109 88.974 88.797 90.684 100.199 102.092 102.097 102.109 102.129 91.602 89.674 93.237 96.684 96.532 96.302 94.174 92.462 90.109 89.499 89.557 89.987 90.807 90.134 89.709 89.667 89.849 90.287 90.992 91.637 90.859 94.614 100.004 94.349 92.249 92.684 94.017 93.072 99.534 91.394 90.039 89.964 89.874 89.869 92.064 94.397 99.997 95.429 96.737 101.794 91.152 92.262 94.812
108.807 112.7 116.982 117.785 115.315 110.025 112.51 115.635 113.502 109.532 109.695 110.152 109.615 109.662 109.685 110.017 110.095 109.95 110.757 110.075 113.925 112.337 111.51 118.227 119.872 119.657 118.632 112.475 109.572 109.877 110.567 109.842 108.977 108.727 108.675 108.625 108.55 108.507 108.62 108.932 109.042 111.007 111.7 117.6 112.395 112.31 115.32 117.067 114.587 114.352 117.495 114.52 108.17 108.32 108.815 113.195 116.425 117.495 117.95 116.912 115.372 110.03 108.697 109.187 108.76 108.387 108.342 108.29 108.407 111.687 120.54 121.35 122.522 122.895 122.995 121.817 121.285 118.847 114.715 112.262 118.89 119.14 113.99 107.775 108.627 108.905 112.742 111.375 116.317 110.65 109.115 109.117 113.532 112.45 115.107 112.035 109.73 112.212 117.337 118.025 118.6 118.737 117.712 109.97 108.345 108.34 108.32 108.32 108.437 110.485 109.827 110.187 110.63 112.37 110.81 112.53 112.797 111.23 110.805 111.785 111.785 111.795 111.722 110.085 107.95 107.765 112.12 115.177 115.34 115.337 115.262 115.232 115.607 115.312 115.335 112.862 106.607 105.537 105.517 105.58 105.617 105.857 105.692 105.597 105.535 105.495 105.46 105.412 105.36 105.33 105.355 109.925 113.955 114.96 113.912 113.42 114.48 115.56 110.307 109.939 108.387 102.914 103.427 101.527 99.394 98.347 98.319 98.714 103.159 106.407 103.939 96.809 97.114 95.539 95.374 95.017 94.674 94.939 93.392 90.419 89.239 88.929 88.739 88.134 87.594 89.359 91.977 91.854 91.814 91.647 91.694 91.874 91.879 89.554 88.059 88.247 88.464 88.597 88.669 88.567 88.654 89.249 89.374 90.124 88.874 92.359 94.262 93.709 88.464 92.137 90.844 89.482 88.779 95.289 97.492 90.229 96.102 96.034 87.647 87.127 87.279 87.907 87.779 87.874 87.952 88.579 88.487 88.547 88.719 89.507 89.377 89.407 91.247 90.887 90.239 92.394 96.994 95.634 97.514 96.664 95.717 98.402 101.782 94.262 91.502 93.322 94.027 91.147 90.862 91.062 92.337 90.539 90.392 90.657 91.932 91.167 94.802 96.047 93.969 94.627 95.224 95.444 92.302 96.979 101.709 101.307 103.394 96.052 95.779 95.622 95.312 94.172 94.159 94.222 95.877 97.072 98.847 105.534 106.159 102.729 97.217 101.377 99.522 105.907 101.482 103.802 103.617 100.842 102.092 100.264 98.382 100.319 101.882 101.184 101.082 103.787 105.814 103.887 100.014 99.747 101.264 104.207 102.134 99.112 99.489 102.089 99.744 98.122 96.802 97.474 97.852 98.114 100.239 104.252 99.419 98.139 98.024 98.224 103.254 104.657 107.669 104.972 101.617 107.097 107.567 101.327 94.524 96.409 109.004 103.492 96.659 94.297 95.829 98.409 102.369 99.739 99.704 93.552 95.587 92.432 92.267 92.287 92.277 93.584 95.047 95.692 94.819 93.577 90.637 90.409 90.209 90.029 89.809 89.584 89.389 91.432 97.307 98.464 101.887 102.127 102.122 102.219 102.154 94.677 90.092 91.239 95.464 92.954 90.774 90.064 90.707 90.017 89.959 90.027 90.247 90.362 90.679 90.342 90.422 90.137 90.412 91.397 91.317 90.914 98.237 95.332 95.877 94.024 99.664 95.034 96.454 94.057 90.192 90.139 90.089 91.492 90.549 93.622 104.619 91.209 99.227 99.079 100.229 101.672 101.502 99.069
108.822 112.085 114.212 111.622 111.825 116.125 118.632 118.507 117.145 112.522 109.672 109.937 109.632 110.4 109.915 109.812 110.852 110.72 110.652 111.175 112.015 118.525 119.527 120.435 121.155 120.457 119.372 115.21 110.302 110.217 109.542 109.437 108.947 108.81 108.787 108.922 108.727 108.8 108.785 108.842 108.982 108.442 113.145 115.61 118.79 113.485 118.157 116.512 119.212 119.177 111.772 108.907 108.167 108.237 108.625 110.38 116.082 117.425 118.097 117.245 115.827 110.885 108.642 108.872 108.932 108.557 108.467 108.402 108.317 110.747 118.32 120.88 121.942 121.407 121.157 120.835 116.455 111.955 111.477 108.605 110.435 107.677 107.162 107.572 109.387 109.022 115.342 117.922 111.637 110.22 109.147 109.255 109.335 111.71 113.1 109.92 109.857 109.777 112.837 117.36 118.195 116.92 110.44 108.58 108.367 108.48 108.915 109.01 109.435 110.307 109.717 109.592 109.695 110.862 112.095 112.532 114.147 110.835 109.645 109.95 111.605 111.785 111.84 111.837 110.967 107.845 108.457 111.277 115.29 115.27 115.665 115.73 115.287 115.387 115.227 115.452 114.26 108.387 105.562 105.537 105.535 105.58 105.6 105.592 105.542 105.485 105.472 105.437 105.372 105.295 105.37 106.11 112.165 114.282 112.922 112.5 113.207 112.945 105.564 105.129 104.622 103.524 102.649 103.372 99.827 104.957 108.467 104.757 98.557 103.892 98.994 96.007 96.362 96.957 96.454 95.752 95.359 95.649 94.049 92.342 91.514 89.559 89.107 88.719 88.429 87.777 87.784 89.917 91.949 91.924 91.654 91.629 91.902 91.922 90.969 88.294 88.097 88.292 88.547 89.394 88.954 88.612 90.014 90.139 90.312 93.584 95.684 90.289 93.767 93.674 92.079 88.714 92.292 89.592 93.317 95.607 96.472 91.809 88.932 89.222 87.999 88.237 87.999 88.124 88.239 88.454 88.629 88.797 88.974 89.304 89.564 91.007 92.442 92.942 90.757 92.779 98.374 92.797 97.682 92.824 100.412 97.852 96.427 98.679 94.307 94.807 95.884 92.649 90.559 90.777 90.992 90.459 90.469 90.522 91.552 92.697 93.832 98.147 96.027 95.427 102.997 100.102 98.894 102.514 107.617 103.057 97.604 94.562 94.602 94.882 94.634 94.497 94.644 94.704 96.454 97.967 102.082 106.677 107.552 103.432 104.409 97.637 99.094 105.809 100.287 98.774 102.127 100.649 100.347 97.654 99.384 103.477 102.702 104.224 108.239 103.197 107.424 103.774 98.347 98.654 98.274 100.907 98.177 99.084 101.072 101.724 100.342 97.532 97.179 97.692 97.984 98.247 103.694 103.619 99.562 101.209 105.557 100.242 103.747 102.937 100.992 100.464 100.964 103.489 108.019 106.669 98.957 97.034 96.057 94.902 94.144 94.214 99.612 104.347 101.574 101.809 104.047 97.014 92.597 92.374 92.329 92.344 92.754 92.714 93.887 95.517 94.382 91.644 91.119 90.849 90.624 90.324 92.759 97.314 100.252 102.179 102.852 103.232 102.322 102.172 102.189 102.944 102.234 99.167 90.349 90.202 91.314 90.514 89.962 90.052 90.609 90.444 90.244 90.312 90.534 90.619 90.417 90.767 90.859 90.577 90.822 91.024 90.977 90.994 92.202 92.317 96.587 95.514 94.204 102.222 96.689 90.314 90.304 92.182 93.147 95.182 94.667 97.934 98.669 99.519 98.647 93.759 93.497 91.789 94.109 91.484
109.222 109.235 110.717 116.425 118.5 119.382 119.917 119.3 119.172 117.807 111.037 111.062 110.157 110.135 110.312 109.917 110.227 110.255 110.155 110.487 112.155 118.802 119.897 119.797 120.955 120.757 120.365 118.797 112.282 109.505 109.545 109.622 109.187 109.015 109.322 109.377 109.225 108.875 108.775 108.662 108.567 108.495 114.932 116.025 114.905 113.12 118.022 110.157 108.39 111.5 109.765 108.197 108.225 108.322 108.737 111.037 116.405 117.477 118.03 117.492 116.64 110.067 108.857 108.865 109.33 108.625 108.577 108.495 108.485 108.195 111.72 120.47 121.182 120.855 117.245 112.635 110.245 109.95 109.465 109.95 107.15 107.317 107.335 108.015 109.077 109.57 110.102 112.955 110.88 109.39 109.265 109.36 109.495 109.472 109.64 109.617 110.12 111.96 110.405 113.755 116.467 111.342 111.1 110.182 109.18 108.792 110.082 110.937 110.065 109.672 109.185 109.172 109.845 110.33 113.272 112.415 112.002 112.067 108.98 108.95 109.032 111.182 111.762 112.135 113.965 114.025 111.197 109.74 112.897 115.312 115.357 115.262 115.302 115.297 115.192 115.212 115.247 115.192 111.862 106.122 105.565 105.507 105.532 105.562 105.535 105.485 105.452 105.44 105.392 105.3 105.257 105.252 105.567 109.005 110.47 109.91 111.43 109.29 105.284 104.357 105.652 103.712 102.892 103.272 100.032 108.802 108.604 108.592 108.214 100.957 96.254 96.439 95.964 95.782 96.314 95.799 96.049 95.697 93.459 92.989 92.562 92.212 91.022 89.612 88.779 94.044 92.529 87.802 88.272 91.819 91.894 91.844 91.629 91.769 91.802 91.959 90.447 88.677 88.164 88.409 88.984 89.802 90.129 90.157 90.644 92.624 95.282 95.527 96.907 95.642 94.212 96.914 94.414 95.469 94.384 94.947 94.434 94.499 92.249 91.672 93.319 89.482 88.254 88.367 88.487 88.582 88.712 89.339 89.582 89.424 89.899 91.172 91.892 92.202 91.779 93.989 98.547 96.139 92.402 98.542 96.294 101.037 95.074 96.719 93.749 97.369 94.367 91.307 90.694 90.702 91.387 90.782 90.524 90.627 92.929 92.667 95.217 93.992 93.794 98.109 98.894 100.314 98.949 103.852 103.654 103.542 94.714 94.474 94.437 94.587 94.589 95.037 95.099 95.334 98.564 103.737 102.487 107.032 102.289 98.624 96.322 97.452 101.514 102.204 102.334 99.122 97.447 97.879 98.322 98.504 100.814 101.299 103.747 105.044 105.637 107.854 99.412 102.064 98.444 98.372 98.602 98.809 98.887 99.162 100.644 99.047 98.319 98.057 98.762 98.224 99.007 100.057 104.642 105.662 101.704 102.287 99.709 100.907 102.007 105.852 101.682 104.787 100.274 101.597 97.737 97.174 96.954 96.312 96.937 94.834 95.082 94.439 94.264 96.772 94.262 96.067 95.004 94.467 92.609 92.447 92.447 94.244 100.904 103.889 97.572 94.242 92.702 92.129 91.689 92.164 95.019 98.997 102.324 102.752 103.194 103.654 104.067 104.464 103.452 102.194 102.174 98.087 97.164 91.884 90.634 90.779 91.092 90.177 90.344 90.507 90.747 91.129 90.659 90.684 91.014 91.669 90.989 90.979 91.032 91.059 91.344 91.204 91.144 91.067 90.957 94.052 91.597 99.562 96.014 99.342 95.589 93.244 95.597 97.034 100.359 91.649 97.622 100.144 94.762 98.894 97.782 95.397 96.309 94.979 89.454 93.307
112.95 110.847 117.45 118.35 119.277 119.815 120.485 119.725 119.167 114.857 110.81 110.357 110.212 109.917 110.185 110.002 110.067 110.03 110.092 110.727 110.417 112.857 118.115 119.192 120.447 121.127 120.397 119.66 115.172 111.965 110.167 110.052 110.23 109.662 109.635 109.16 109.055 108.99 108.925 108.805 108.717 108.955 109.362 112.515 113.065 112.077 111.232 110.797 108.222 108.215 108.197 108.207 108.307 108.455 108.815 110.212 113.917 113.015 112.065 112.642 112.612 111.21 109.027 108.955 108.975 108.732 108.73 108.622 108.735 108.422 108.275 117.092 115.452 109.875 107.695 109.347 109.28 108.552 108.885 109.335 108.767 108.097 108.54 108.922 108.997 109.29 109.332 109.685 110.337 109.515 109.477 109.48 109.585 109.66 109.997 110.625 109.707 110.917 110.075 110.317 113.052 113.42 113.225 111.037 110.342 110.49 109.595 109.58 110.022 109.577 109.225 109.192 109.195 109.772 112.88 112.657 112.005 111.545 109.545 108.945 108.882 108.882 110.28 112.53 115.487 112.95 112.53 107.24 105.855 110.642 115.17 115.277 115.322 115.727 115.487 115.217 115.267 115.262 115.235 113.602 107.997 105.65 105.557 105.557 105.53 105.502 105.51 105.445 105.402 105.337 105.252 105.187 105.122 105.14 106.987 109.62 108.8 105.865 104.797 107.709 106.419 108.179 104.264 101.382 104.384 108.477 108.589 108.584 108.584 108.332 104.797 98.029 96.439 96.602 95.424 95.994 95.502 96.199 96.457 95.322 92.992 92.259 92.027 94.204 95.119 101.317 102.114 88.549 88.402 90.724 91.749 91.987 91.932 91.687 91.592 91.762 91.897 91.292 88.644 88.092 88.372 89.179 89.967 90.274 90.797 92.197 91.317 94.212 93.217 91.102 91.467 89.059 91.442 96.199 94.222 102.222 100.489 97.942 96.322 98.414 93.757 89.669 89.162 88.867 88.772 88.819 89.157 91.074 91.872 90.319 90.477 91.697 91.454 91.502 91.587 93.367 94.472 97.879 96.029 96.317 97.662 99.527 102.214 97.277 94.569 95.334 93.514 92.342 91.224 91.487 92.282 91.437 90.604 91.424 95.634 95.697 94.154 97.084 97.997 98.347 100.449 94.954 97.652 94.929 97.872 95.269 95.599 94.699 94.619 94.567 95.702 95.782 95.464 96.229 100.159 104.944 100.724 103.819 102.097 97.912 96.947 100.867 99.372 100.897 103.349 100.577 104.964 103.912 100.357 99.037 102.434 103.939 100.027 100.467 100.177 105.222 104.562 100.249 98.697 99.112 99.212 99.194 99.254 98.982 100.192 98.359 99.109 98.454 98.124 98.607 101.092 99.592 99.214 100.394 99.509 100.099 98.192 99.669 101.217 103.637 103.084 99.007 101.927 98.692 98.059 96.009 96.137 96.442 96.794 96.144 96.174 94.394 94.354 94.357 94.352 94.337 94.364 94.227 93.057 95.997 101.072 104.532 106.737 106.592 104.757 93.802 92.927 93.364 98.414 101.667 102.647 103.094 103.554 104.012 104.294 104.314 104.009 103.569 103.062 99.264 93.814 90.987 90.969 91.077 90.959 91.084 91.044 91.134 91.552 90.872 90.944 91.509 91.172 94.017 96.029 94.647 91.582 91.407 91.482 91.449 91.442 91.267 91.117 91.027 90.974 90.914 90.859 91.914 93.874 97.284 98.224 94.877 93.762 92.334 95.412 93.032 94.944 91.277 99.934 101.072 101.444 96.484 99.969 94.699 93.402 90.162
111.62 110.93 113.525 116.657 118.3 119.385 120.23 120.392 119.255 118.465 116.87 111.34 110.235 110.107 110.432 110.622 110.16 110.18 110.155 110.235 110.877 110.912 114.397 118.53 119.75 120.955 120.777 119.512 117.707 113.43 111.212 110.727 110.312 109.615 109.34 109.257 109.195 109.125 109.207 109.97 109.54 109.332 109.272 109.037 109.327 110.87 111.482 109.35 108.21 108.225 108.28 108.217 108.275 108.46 108.39 110.152 112.477 112.702 112.187 111.395 111.372 109.847 109.352 108.817 109.207 108.85 108.82 108.777 108.765 108.93 109.042 109.342 108.702 107.682 108.007 108.915 109.015 108.81 108.977 109.052 110.067 109.132 108.91 109.01 109.135 109.205 109.552 110.1 109.645 109.937 110.372 109.632 109.662 109.757 109.857 110.112 109.935 109.922 110.897 112.112 111.892 111.597 111.135 110.052 109.967 109.567 112.95 110.522 109.765 109.625 109.225 109.205 109.21 109.35 111.687 112.51 112.212 111.665 110.505 108.95 108.94 108.905 108.922 111.7 113.007 114.647 111.44 111.107 107.63 106.43 106.84 113.802 115.257 115.28 115.242 115.237 115.455 115.382 115.257 115.527 110.26 105.93 105.597 105.547 105.495 105.452 105.402 105.402 105.362 105.345 105.26 105.16 105.1 105.01 105.01 105.237 106.32 104.957 106.697 109.394 109.317 105.997 108.142 106.189 106.394 108.442 108.627 108.592 108.604 108.612 108.589 108.214 105.039 96.667 95.387 95.292 96.677 96.299 96.899 94.829 93.689 92.987 92.597 95.669 94.902 94.102 93.387 88.662 89.029 91.422 91.484 89.127 90.874 91.904 91.752 91.672 91.717 91.769 91.914 90.564 88.509 88.109 88.569 89.722 90.327 89.769 90.562 93.402 92.569 91.907 91.677 89.274 94.039 91.907 93.337 94.989 91.112 94.007 96.367 101.504 97.869 89.682 89.689 94.612 90.849 89.674 89.479 90.454 91.229 92.079 92.032 91.269 91.367 91.527 91.714 94.012 97.759 97.889 96.239 97.009 100.322 98.994 99.232 96.592 94.339 92.732 92.802 92.484 91.697 91.664 91.902 91.242 91.889 96.789 97.797 100.817 92.527 93.689 97.269 98.077 95.452 94.507 94.974 99.572 98.269 94.609 94.537 94.674 94.639 95.044 98.654 97.899 97.187 96.349 97.249 101.619 103.017 102.112 105.287 98.122 100.364 100.707 99.307 105.562 102.384 100.277 100.197 104.714 104.614 102.589 102.177 104.834 98.619 105.102 102.354 102.914 101.909 99.537 101.349 99.964 99.379 99.237 99.214 99.677 100.002 98.849 98.712 98.502 99.289 99.334 99.727 99.537 98.909 98.819 98.794 98.797 98.832 100.932 100.592 100.882 100.202 100.762 102.209 101.189 98.257 96.744 95.934 96.022 96.644 96.427 97.342 96.169 94.479 94.484 94.454 98.102 100.507 96.619 93.842 101.617 106.729 107.527 106.459 107.394 107.439 95.689 93.194 93.924 100.969 103.467 103.902 104.284 104.309 104.062 103.609 103.189 102.767 101.644 97.112 92.917 91.952 91.237 91.349 92.302 91.387 91.424 91.577 91.447 92.244 94.777 95.599 94.772 92.512 95.829 93.252 92.007 96.167 91.692 91.579 91.464 91.337 91.204 91.167 91.144 91.097 91.034 90.952 93.787 99.984 100.654 94.867 97.267 90.334 96.674 95.817 99.104 94.517 92.597 96.577 101.669 96.077 91.522 93.002 92.647 90.422 91.299
109.197 109.597 109.317 109.73 115.212 118.852 119.922 120.562 119.982 120.135 119.967 113.322 110.782 110.715 110.157 110.525 110.242 110.325 110.25 110.342 110.862 110.395 112.882 119.422 120.052 120.085 119.675 119.08 119.122 117.51 115.152 110.505 109.987 109.705 109.482 109.377 110.63 109.857 110.177 109.587 109.337 109.245 109.207 109.12 109.265 110.097 114.122 108.412 109.155 110.447 110.3 108.89 108.6 110.017 109.63 109.165 110.915 110.535 111.79 110.782 111.062 111.07 109.525 109.052 109.645 108.962 108.952 108.85 109.33 110.207 109.645 109.17 109.562 108.855 108.597 108.882 110.402 108.85 108.85 108.887 109.387 109.842 109.927 112.055 109.212 109.242 109.385 109.757 109.95 110.33 110.442 109.835 109.837 109.912 109.972 109.972 110.127 110.247 112.145 113.512 113.812 112.277 111.317 110.56 111.64 117.48 119.482 112.335 109.867 109.55 109.257 109.242 109.232 109.24 110.172 110.837 112.402 112.627 111.73 109.607 108.952 108.917 108.94 110.292 112.57 112.272 110.735 112.065 108.537 107.87 107.012 105.882 110.412 115.22 115.247 115.527 115.917 115.252 115.252 115.357 113.377 106.045 105.57 105.545 105.5 105.442 105.412 105.385 105.337 105.295 105.255 105.177 105.11 105.017 104.882 104.845 104.882 106.195 108.799 109.407 107.802 104.842 106.074 105.804 107.272 106.997 105.539 108.059 108.574 108.599 108.582 108.582 108.549 106.739 100.979 95.482 95.147 94.982 95.547 97.172 93.877 94.899 94.304 95.767 96.084 102.579 95.374 90.762 88.684 89.617 90.207 88.827 88.697 90.069 91.807 91.919 91.694 91.634 91.714 91.847 91.747 89.027 88.077 88.159 88.757 88.532 89.469 91.904 94.322 92.777 90.962 92.359 94.629 96.334 98.207 92.749 91.294 91.582 92.697 93.547 96.342 94.917 91.114 94.307 92.252 90.202 90.364 91.737 90.307 91.154 92.537 92.777 91.649 91.219 91.787 93.714 99.657 100.219 100.074 99.007 100.172 101.444 98.489 94.054 92.542 92.392 92.369 92.204 92.039 93.522 93.574 92.542 95.022 97.312 100.699 98.287 95.982 95.999 95.482 100.569 98.579 94.324 95.259 95.554 95.104 95.157 94.654 94.744 94.744 100.214 102.644 101.869 100.164 96.652 97.644 99.399 105.467 100.609 101.897 101.492 103.772 103.874 99.629 106.664 107.749 104.494 103.522 107.099 103.317 99.554 99.432 101.269 109.619 109.062 100.942 101.279 101.932 99.762 99.922 99.519 99.304 99.384 99.309 99.384 99.834 98.987 98.902 98.859 98.972 98.957 98.884 99.364 98.887 98.917 98.947 98.974 99.052 101.359 101.319 97.244 97.889 99.237 97.577 97.282 97.987 97.072 96.172 96.124 96.522 97.644 95.859 95.079 95.757 97.154 101.789 107.054 108.497 103.449 94.704 105.709 107.554 107.879 106.574 107.302 107.297 97.097 93.709 94.522 101.402 104.352 104.169 103.727 103.249 102.827 101.142 97.447 94.662 92.504 92.289 92.007 91.639 91.504 93.877 96.204 93.447 91.827 92.974 92.957 92.434 98.232 97.084 97.069 93.424 98.977 92.827 94.039 99.487 96.894 91.527 91.427 91.392 91.339 91.277 91.242 91.179 91.054 91.934 100.099 96.052 100.162 97.312 95.822 99.459 93.609 92.089 97.849 94.784 91.899 96.329 90.317 93.664 93.774 90.124 90.012 90.197 89.384
109.32 109.852 110.097 110.257 113.47 118.542 119.835 120.385 120.032 118.86 115.725 111.265 110.425 110.597 110.462 110.89 110.827 110.402 110.712 110.995 110.447 110.522 112.422 118.71 119.38 114.202 116.52 119.57 119.712 118.902 115.2 111.15 110.34 110.42 110.665 110.63 110.62 109.947 109.657 109.462 109.375 109.27 109.267 115.102 118.552 116.097 115.242 111.532 110.46 109.455 109.082 109.882 109.252 108.54 112.05 112.777 115.075 116.875 118.287 119.027 117.797 114.497 109.685 109.165 109.265 109.187 109.047 108.995 109.362 110.89 109.017 108.99 109.852 109.8 108.807 108.827 110.077 110.67 108.982 110.75 112.652 112.255 112.057 115.932 111.14 109.67 109.74 109.897 110.045 110.447 110.035 110.147 110.112 110 110.075 110.147 110.22 110.86 110.567 112.835 114.285 112.285 111.777 117.865 120.14 120.82 119.852 117.527 114.087 111.242 109.275 109.25 109.247 110.21 113.637 113.915 112.145 113.75 111.992 110.672 108.977 108.93 108.95 109 110.23 111.61 111.372 110.862 108.967 109.742 109.64 108.25 106.29 106.437 110.107 115.647 115.455 115.272 115.242 115.21 115.087 105.755 105.617 105.617 105.542 105.487 105.385 105.34 105.322 105.287 105.18 105.162 105.11 105.027 104.965 104.837 104.762 105.07 107.007 107.937 104.879 104.174 104.189 106.937 107.262 104.289 101.347 101.339 104.829 108.634 108.574 108.572 108.357 107.519 106.107 102.889 96.887 95.757 95.424 95.839 94.109 95.804 95.309 96.329 100.024 100.549 96.187 94.634 91.889 93.622 91.264 89.079 88.909 88.777 88.619 89.957 91.564 91.822 91.702 91.642 91.739 91.864 91.394 88.927 88.062 88.257 88.367 89.459 88.687 88.752 89.097 90.907 92.757 94.977 98.732 92.272 93.542 94.539 95.877 101.897 96.214 90.899 90.364 90.599 90.972 90.384 92.179 90.654 90.907 90.929 90.979 91.522 91.547 92.099 92.754 93.172 94.524 97.904 98.642 100.964 95.234 96.229 93.147 92.512 92.502 92.497 92.409 92.297 92.842 94.219 92.557 91.944 94.164 93.532 97.067 98.129 96.962 94.482 96.977 97.054 98.149 93.439 97.687 96.899 95.254 95.294 94.799 94.804 95.454 98.029 101.772 106.939 105.914 104.604 103.757 101.204 103.544 103.807 108.937 104.544 105.919 99.614 98.727 102.907 103.872 105.164 103.912 100.042 99.667 101.694 101.727 101.699 107.259 105.692 102.167 100.622 99.484 99.092 99.684 99.384 99.357 99.609 99.387 99.372 99.959 99.129 98.994 99.012 99.012 99.039 99.037 99.532 99.019 99.029 99.077 99.084 99.104 99.007 97.842 97.332 97.609 97.354 97.479 98.157 98.024 98.399 97.187 96.027 96.057 97.017 96.274 94.807 100.747 107.672 109.492 108.354 109.299 108.814 97.747 102.754 106.879 107.652 107.884 107.854 107.604 104.659 93.817 96.322 98.029 103.362 102.924 102.457 99.817 97.612 93.152 92.592 92.297 92.047 92.002 91.799 94.194 93.229 94.382 97.247 95.804 94.007 92.349 94.689 95.144 95.934 98.057 99.004 95.589 94.322 95.572 96.549 99.954 97.517 91.684 91.594 91.487 91.467 91.584 92.692 91.174 91.432 94.189 94.419 95.174 95.757 95.792 96.707 91.377 94.144 91.112 90.704 90.107 89.994 89.922 90.257 90.277 90.199 89.929 90.029 89.864 90.534
110.337 109.965 109.91 109.66 112.535 117.5 119.122 119.367 118.42 111.48 115.215 116.285 114.092 110.75 110.635 110.497 110.82 110.502 110.602 111.685 110.527 110.67 110.542 110.967 111.745 116.905 119.557 120.95 120.835 119.977 115.645 111.967 112.267 111.845 110.435 109.99 109.847 109.72 109.645 109.517 109.407 109.345 109.71 113.482 118.27 122.74 116.6 111.317 108.475 108.675 111.665 111.887 108.342 108.93 115.157 116.722 116.735 117 118.252 119.135 117.937 115.345 110.195 109.465 109.752 109.257 109.21 109.79 109.277 111.122 111.687 113.982 114.607 112.85 109.672 108.87 110.122 111.812 110.892 109.942 113.79 112.19 117.232 112.48 111.165 110.065 110.75 115.375 118.36 114.97 110.14 110.272 110.59 110.202 110.172 110.26 110.3 110.347 110.187 110.885 112.127 110.93 113.742 118.692 119.76 120.705 120.365 119.272 117.382 111.825 109.582 109.915 112.82 112.877 116.515 116.362 111.75 113.607 113.067 111.61 109.517 109.012 109.38 110.547 109.912 108.937 108.825 109.185 110.517 109.522 108.767 108.195 107.87 105.882 111.3 115.227 115.245 115.267 115.285 115.185 109.415 105.872 105.71 105.662 105.58 105.5 105.372 105.312 105.26 105.182 105.167 105.125 105.06 105.047 104.942 104.895 104.765 104.632 104.604 104.617 104.534 104.392 105.039 107.257 107.272 104.052 103.504 102.449 102.894 103.499 105.952 108.552 107.934 106.934 105.919 104.919 103.937 100.534 97.164 95.369 94.839 97.062 94.249 94.232 98.302 100.597 96.974 93.632 93.589 93.064 92.737 92.187 89.179 88.987 88.857 88.697 88.982 91.144 91.929 91.829 91.602 91.627 91.792 91.709 89.849 88.687 88.139 88.339 88.402 88.439 88.559 88.899 94.107 91.379 90.969 90.222 92.462 99.674 102.497 100.042 92.589 91.932 90.442 90.464 90.594 91.179 94.632 93.082 93.159 96.192 91.722 91.139 91.587 93.064 93.832 93.249 93.232 93.717 93.259 94.282 95.254 93.987 93.409 92.499 92.537 92.517 92.522 92.329 92.297 92.632 92.859 95.147 93.934 92.899 94.097 97.389 100.367 98.137 99.492 96.717 97.722 93.637 97.797 96.709 98.254 100.469 98.939 98.819 102.572 105.742 102.459 102.319 99.484 98.729 105.024 106.234 108.004 109.909 105.932 100.612 101.347 101.037 103.322 98.514 100.914 102.854 103.492 100.727 99.482 102.209 102.679 101.984 99.784 103.399 104.637 108.149 106.389 103.207 101.142 99.517 99.424 99.407 99.419 99.524 100.542 104.259 99.717 99.159 99.137 99.117 99.129 99.272 99.207 99.099 99.177 99.229 99.244 99.367 98.449 97.622 97.369 97.417 97.434 97.377 98.009 97.994 96.989 96.089 98.912 102.469 98.842 96.254 105.579 108.934 109.874 108.334 109.304 108.979 102.194 97.892 106.874 107.434 107.639 106.164 105.664 104.952 98.794 94.852 94.062 100.229 98.372 94.502 93.372 93.169 93.117 92.737 92.492 95.582 95.819 91.752 92.214 92.739 96.302 94.527 95.434 96.729 94.507 94.847 101.242 99.587 96.932 94.427 97.617 100.997 94.754 93.672 101.174 94.532 91.767 91.717 91.619 91.474 92.902 100.709 101.724 93.212 92.804 95.882 93.454 96.512 96.007 97.172 94.179 92.239 90.134 90.092 90.009 89.942 90.692 89.957 90.899 89.732 89.659 91.509 95.367 98.027
109.892 109.545 109.55 109.765 110.68 115.77 118.795 119.167 118.822 118.645 119.922 120.347 119.367 110.897 111.75 110.882 110.752 110.985 110.652 110.815 110.55 110.77 111.045 111.642 118.23 120.767 120.845 121.377 121.185 120.127 118.715 112.567 111.05 110.757 110.585 110.005 109.892 109.787 111.45 111.687 109.777 110.177 110.427 114.62 117.705 116.43 114.385 116.192 111.115 108.272 112.007 114.35 112.292 108.68 111.252 110.57 111.235 115.585 118.64 119.117 118.147 115.05 110.827 110.027 109.792 109.582 109.342 109.975 109.78 111.342 111.612 116.075 116.092 114.05 111.217 108.897 109.55 111.187 111.487 112.327 115.295 113.962 116.815 113.857 112.767 115.485 118.702 119.245 119.627 118.945 112.092 110.37 110.445 111.345 110.41 110.395 110.447 110.44 110.335 110.377 110.977 111.155 111.547 115.607 119.25 120.147 120.727 119.865 118.405 110.107 111.097 111.125 111.525 110.372 113.822 113.562 110.272 111.63 111.835 111.637 110.875 109.297 110.31 110.075 109.53 110.042 109.697 108.6 108.532 109.445 108.697 108.045 108.797 111.227 115.235 115.247 115.297 115.267 115.305 115.29 107.42 105.905 105.807 105.742 105.652 105.51 105.397 105.402 105.402 105.25 105.115 105.025 104.98 104.93 104.925 104.827 104.737 104.672 104.554 104.457 104.427 104.389 104.867 106.419 107.287 104.087 105.287 104.069 105.719 104.882 103.302 100.049 103.717 106.329 105.359 104.317 103.322 102.297 101.339 98.074 94.987 95.914 95.912 96.517 101.074 101.444 94.127 96.724 93.622 92.867 92.469 92.457 92.844 90.367 89.102 88.944 88.787 88.737 89.894 91.619 91.854 91.744 91.777 91.737 91.817 91.302 89.569 88.084 88.207 88.377 88.447 88.442 88.654 89.117 91.024 91.904 95.477 95.459 99.489 96.527 94.467 92.172 91.327 90.567 90.892 91.927 94.594 98.287 98.244 95.437 93.934 92.094 92.432 93.357 93.507 93.559 93.264 93.279 93.269 93.302 93.872 93.592 93.172 93.967 92.539 92.562 92.569 92.792 92.917 94.062 94.549 94.144 93.047 92.747 93.017 94.914 95.614 97.449 104.062 100.824 98.814 93.824 96.789 97.339 99.264 100.437 103.574 102.077 103.649 102.607 104.287 105.962 107.277 110.187 101.669 104.204 103.799 108.352 103.824 98.939 99.762 100.267 99.009 101.732 98.817 100.404 99.599 101.627 102.067 105.839 103.592 100.902 100.814 101.179 107.122 106.862 105.897 103.622 101.822 100.017 99.467 99.429 99.412 99.419 102.564 104.739 102.754 102.497 99.244 99.224 99.189 99.322 99.502 99.217 99.287 99.344 99.359 99.402 99.394 98.184 97.444 97.479 97.522 97.504 98.029 98.624 96.674 99.367 108.352 109.234 105.224 96.424 106.112 109.132 109.647 109.399 109.747 109.849 109.372 96.117 105.334 107.929 107.852 106.172 103.194 99.984 97.807 95.552 95.492 94.227 93.842 93.699 93.597 93.434 93.137 92.874 94.494 96.507 97.297 96.724 101.169 97.892 97.282 98.244 94.657 96.922 95.187 93.799 100.042 98.237 94.319 97.244 97.097 96.514 95.449 100.582 98.734 94.477 91.842 91.722 91.617 93.174 101.852 98.847 96.909 94.274 99.104 95.094 99.417 100.172 99.277 100.107 98.979 91.982 90.052 90.014 89.962 89.879 90.479 89.982 90.182 91.304 89.789 94.814 97.862 97.819
109.57 109.56 109.565 109.52 109.922 113.36 118.257 119.402 120.177 120.752 120.575 119.63 117.552 111.3 112.435 111.36 110.675 111.985 110.86 110.817 111.53 110.79 112.237 111.262 115.715 119.762 120.072 120.957 121.67 121.105 119.982 115.425 110.89 110.787 110.687 110.49 109.97 109.992 111.912 112.597 110.937 110.36 110.092 111.565 116.502 122.74 118.19 117.247 114.792 108.497 112.59 111.16 114.3 110.255 109.727 110.162 110.09 115.082 118.16 119.72 118.68 116.11 110.75 109.632 109.355 109.495 109.432 109.547 109.5 110.405 111.325 115.827 116.022 115.177 112.55 110.15 110.892 112.355 114.587 115.16 112.655 113.455 112.76 113.127 118.207 119.215 119.792 120.312 119.94 118.987 111.727 110.72 110.522 111.95 112.065 111.005 111.06 110.587 110.54 111.095 110.612 111.67 111.017 112.495 118.58 119.735 120.705 120.437 119.712 113.5 110.457 110.68 110.44 109.75 109.732 109.722 109.912 110.675 112.052 111.745 112.012 111.542 110.952 110.565 110.327 109.517 109.51 109.815 109.412 108.837 108.102 107.942 107.742 110.167 113.605 115.055 115.277 115.302 115.3 114.925 107.152 105.95 105.877 105.817 105.702 105.56 105.54 111.127 113.585 108.407 105.157 104.98 104.897 104.842 104.825 104.822 104.755 104.66 104.542 104.442 104.362 104.257 104.249 104.249 104.877 104.449 107.944 107.384 112.677 107.449 107.787 102.929 99.289 100.532 103.927 103.807 102.797 101.752 100.752 99.769 98.792 98.107 97.029 98.922 96.739 94.077 96.237 99.627 93.192 93.739 92.409 92.437 92.412 92.439 91.367 89.372 89.059 88.889 88.729 88.564 90.689 91.954 91.787 91.622 91.612 91.814 91.899 91.239 88.897 88.069 88.234 88.412 88.389 88.482 90.142 93.942 102.552 101.349 94.287 91.539 92.217 97.587 92.389 90.544 90.654 91.787 95.137 99.422 101.227 94.789 96.767 93.509 93.209 93.112 93.169 93.462 93.269 93.287 93.279 93.289 93.387 93.762 95.022 93.812 93.374 92.859 92.929 92.599 93.734 93.632 93.637 92.804 92.942 93.084 95.209 96.067 98.989 97.952 95.049 97.774 94.667 97.652 94.482 96.564 96.327 99.777 102.517 101.349 98.464 102.317 99.087 105.712 105.174 106.867 104.174 101.557 101.287 106.327 102.109 100.074 99.139 99.249 99.207 101.984 99.687 103.437 101.604 108.617 102.379 100.907 102.892 106.047 99.722 105.304 106.322 107.559 106.517 106.052 102.327 99.922 99.617 99.469 99.472 99.457 99.699 101.967 103.637 103.137 99.307 99.397 99.302 99.332 99.324 99.332 99.364 99.382 100.762 100.679 99.459 97.989 97.562 97.457 98.314 97.604 97.584 98.494 99.557 102.797 108.674 109.599 109.489 96.419 101.712 109.257 109.674 109.712 108.792 108.269 107.114 96.147 99.707 106.637 107.379 107.124 101.419 96.924 95.892 95.922 96.594 96.872 96.157 94.717 93.757 93.544 93.502 98.439 97.947 97.672 98.984 100.069 96.992 99.012 95.992 96.859 100.654 98.459 97.059 92.904 93.679 96.214 94.264 96.597 100.587 99.187 95.807 92.302 93.684 91.932 92.282 92.772 93.177 92.147 95.502 99.642 96.237 96.017 102.447 98.169 100.474 101.029 98.342 96.367 90.129 90.887 89.952 89.887 89.872 89.962 92.382 94.934 98.972 100.339 90.462 90.967 97.557 97.889
110.005 109.642 110.35 110.27 110.135 110.992 115.795 119.41 120.462 121.057 121.077 120.15 119.155 114.447 111.355 110.902 110.85 111.132 111.017 110.927 111.242 111.195 111.852 110.997 111.492 115.897 119.862 121.082 121.745 121.62 121.055 118.87 116.482 112.462 110.69 110.735 111.577 110.962 110.34 109.952 109.935 109.68 109.662 110.482 119.802 114.992 112.425 114.292 112.99 110.387 111.187 110.057 110.372 109.287 109.485 109.857 110.44 115.615 118.192 119.1 118.497 116.87 111.35 109.72 109.822 109.942 109.582 109.532 109.505 110.155 116.555 117.247 115.157 115.985 114.247 110.785 111.94 112.195 111.8 112.95 110.302 110.28 114.785 117.647 118.725 119.775 120.617 120.822 120.482 119.537 118.175 113.007 110.602 111.37 112.24 111.047 111.352 110.937 110.685 111.242 111.182 110.845 111.217 111.802 116.852 119.317 120.677 121.972 120.452 118.535 110.775 111.297 110.14 109.807 109.765 109.75 109.782 113.872 114.925 112.847 112.982 112.145 111.397 112.09 110.682 109.807 109.392 108.895 109.107 109.332 109.277 108.8 108.772 107.592 107.4 108.36 110.037 114.625 115.435 113.712 106.455 105.96 105.922 105.907 105.797 105.68 107.515 117.127 119.58 118.737 112.392 105.675 104.922 104.792 104.8 104.712 104.68 104.622 104.567 104.479 104.362 104.219 104.132 104.119 104.582 105.374 107.932 107.114 107.689 106.304 103.154 103.252 105.329 100.547 99.887 101.354 101.622 101.214 100.224 99.239 98.429 99.147 97.669 100.287 102.742 98.084 94.319 93.167 92.464 92.412 92.379 92.379 92.372 92.387 92.389 92.064 91.604 89.422 88.987 88.822 88.664 89.222 91.309 91.869 91.769 91.599 91.762 91.764 91.894 90.314 88.089 88.067 88.332 90.574 92.099 100.069 103.774 99.302 92.189 93.742 94.349 92.457 92.067 90.944 91.467 93.762 94.474 96.847 100.372 98.692 98.809 97.069 93.452 94.409 96.047 94.332 95.399 94.502 93.494 93.312 93.502 93.632 93.677 94.582 93.827 93.794 94.652 93.717 94.782 93.629 93.832 95.362 97.929 93.832 96.727 98.204 96.672 95.592 94.709 97.694 102.777 97.997 99.712 98.934 98.499 102.077 101.847 99.614 97.004 97.977 104.057 105.989 103.127 104.712 109.324 102.709 100.799 101.189 99.274 99.069 99.247 99.392 99.439 99.782 101.267 102.742 102.797 105.077 103.189 102.059 101.187 106.107 100.369 110.624 112.022 112.999 107.092 105.084 102.439 100.019 99.747 99.507 99.484 99.517 99.524 102.489 105.512 101.912 99.334 99.319 99.319 99.294 99.772 99.637 99.379 100.554 102.419 102.494 101.067 98.302 100.179 107.469 107.792 100.817 104.027 100.522 107.787 109.549 109.182 109.379 109.269 100.184 98.787 107.099 109.302 109.912 107.989 106.424 105.542 99.654 95.992 100.877 99.789 97.872 96.797 96.214 95.822 95.854 97.072 97.007 96.779 94.634 97.364 93.687 93.892 99.504 101.187 97.537 97.847 97.249 93.342 95.837 100.087 97.974 96.287 99.257 96.112 92.939 92.879 93.957 98.417 99.382 98.189 92.444 92.254 92.222 92.434 92.204 92.344 92.137 91.697 93.502 97.299 94.729 98.057 98.737 96.709 97.027 93.074 95.122 96.159 97.679 91.262 90.624 90.054 90.214 93.289 97.939 100.964 101.232 101.447 101.134 94.172 90.107 95.084 97.887
110.032 110.117 110.647 109.895 109.86 110.547 111.59 117.525 120.277 120.805 121.715 120.99 119.905 119.265 114.56 110.992 111.06 110.94 110.907 110.987 111.072 111.427 111.197 112.38 113.282 117.017 120.997 121.167 121.392 121.702 120.685 119.512 116.552 112.272 111.022 111.305 110.46 110.057 109.782 109.69 109.677 109.68 109.63 109.655 114.907 115.887 111.105 113.497 112.225 109.997 109.315 108.827 108.965 109.402 114.11 115.482 115.677 116.725 117.83 118.85 118.675 116.997 112.015 109.797 109.812 110.662 109.652 110.6 114.175 114.722 117.6 113.65 115.265 115.767 115.382 112.717 111.955 110.855 110.215 110.2 110.517 110.577 114.495 117.15 118.227 119.725 120.422 120.822 120.702 120.06 119.447 114.925 110.577 110.702 112.012 111.062 110.847 110.99 110.89 110.88 111.22 110.895 111.54 111.427 113.52 118.84 120.062 120.922 120.612 119.675 116.822 115.607 110.8 109.847 109.822 110.26 110.137 113.217 115.19 112.542 112.775 113.72 112.362 111.387 110.15 109.785 109.417 109.005 111.687 108.08 108.07 108.095 108.755 108.99 113.85 112.495 108.925 107.075 107.717 108.007 106.122 106.035 106.03 105.975 105.805 105.737 111.12 119.257 119.732 119.422 119.062 115.027 106.195 104.87 104.71 104.642 104.62 104.552 104.519 104.444 104.337 104.262 104.127 104.029 103.962 105.817 108.759 106.162 106.007 105.892 105.264 105.872 106.977 109.809 102.429 100.349 99.889 100.272 99.729 98.977 100.829 102.827 100.099 101.712 101.254 94.572 95.007 92.494 92.422 92.414 92.382 92.377 92.354 92.352 92.309 92.367 92.349 92.414 90.764 90.699 89.164 88.772 88.592 90.307 91.599 91.889 91.667 91.629 91.774 91.999 90.192 87.839 89.019 90.884 91.452 93.659 100.609 97.619 96.009 93.142 97.392 91.719 94.722 93.387 94.519 97.359 100.034 92.087 100.472 94.617 92.762 95.029 101.602 101.339 103.287 97.264 98.014 98.499 94.184 93.479 93.562 93.602 94.729 95.459 95.007 95.174 95.244 95.189 93.809 93.569 96.039 99.584 96.852 98.254 95.077 95.869 94.224 98.324 103.057 106.492 102.354 97.064 102.782 103.429 105.652 104.859 104.599 104.564 103.687 97.457 101.549 109.252 110.734 106.212 108.987 103.439 103.899 99.109 99.154 99.237 99.434 99.682 99.712 102.047 102.319 103.587 105.262 104.232 103.969 100.847 100.859 105.034 106.764 110.057 110.369 105.824 109.407 106.239 101.017 100.007 100.009 99.707 99.524 99.619 99.512 99.474 100.357 99.334 99.329 99.332 99.347 99.322 101.674 103.234 99.907 100.049 102.527 106.224 105.837 99.862 107.297 110.447 110.054 110.074 110.649 104.472 104.829 109.394 109.304 109.549 109.792 104.382 98.247 102.812 109.452 109.584 108.732 105.319 99.547 98.572 96.559 95.972 96.107 96.519 96.717 96.434 95.857 95.832 96.727 96.739 96.052 94.872 96.904 96.134 97.312 98.047 99.874 100.257 98.747 99.202 97.994 99.402 95.954 95.702 99.012 97.419 93.232 93.077 93.029 93.407 96.862 94.122 94.159 92.552 95.664 92.657 92.489 92.187 91.939 91.907 92.209 94.632 95.839 95.349 95.264 96.842 96.154 93.329 91.432 90.847 91.024 93.334 91.704 90.742 94.497 99.094 101.067 101.317 101.587 101.862 101.952 101.402 99.367 89.752 91.132 97.784
110.527 110.282 109.892 109.957 110.062 110.15 111.722 115.097 119.777 120.635 121.447 121.582 120.647 119.912 114.74 111.71 111.587 111.232 111.002 111.07 111.175 111.862 111.257 112.227 112.002 112.737 118.907 120.09 120.677 120.235 119.642 116.355 111.822 111.152 111.642 110.77 110.027 109.795 109.755 109.735 109.69 109.675 109.697 110.057 111.357 113.842 112.072 110.555 108.8 108.707 108.71 108.735 108.842 108.847 111.892 116.747 116.73 116.627 116.68 117.805 114.922 114.327 111.325 110.095 109.915 110.24 109.79 110.49 115.362 118.37 119.662 114.617 112.287 114.007 111.712 110.562 110.385 110.197 110.25 110.227 110.375 110.292 111.94 116.365 117.64 118.832 119.835 120.375 119.64 119.555 118.597 116.4 110.65 110.657 110.8 111.012 111.342 111.472 111.485 111 111.317 111.517 111.102 113.245 113.105 117.105 119.585 120.515 120.997 120.08 118.185 111.077 110.597 110.082 109.93 110.56 110.135 110.437 110.482 114.752 111.48 112.312 111.58 110.582 109.85 109.71 109.377 115.132 117.81 117.455 116.345 117.477 110.952 112.847 117.475 117.502 117.5 116.637 112.06 106.907 106.19 106.117 106.12 106.05 105.92 106.022 111.55 118.785 119.782 120.152 119.822 118.847 116.642 107.027 104.782 104.635 104.512 104.477 104.422 104.384 104.329 104.222 104.132 104.064 103.929 103.834 107.329 108.347 107.357 107.749 106.357 105.679 104.127 112.864 108.717 105.962 102.044 102.474 98.037 100.679 100.502 103.797 102.662 109.022 108.124 101.304 96.839 93.949 92.442 92.419 92.422 92.377 92.362 92.302 92.282 92.297 92.309 92.287 92.529 93.547 93.514 89.042 88.827 88.669 89.159 90.612 91.849 91.742 91.847 91.544 88.709 88.414 90.199 90.889 89.917 93.224 97.494 99.119 93.502 93.929 95.404 94.014 98.709 97.497 93.467 101.002 103.422 98.537 99.759 94.864 93.782 95.784 101.882 95.032 105.244 101.129 99.232 96.602 99.644 93.787 93.597 93.837 95.962 95.657 95.209 95.164 95.177 94.332 93.382 96.017 100.034 94.324 98.614 101.424 102.374 98.924 100.642 103.037 98.419 108.174 102.012 100.647 110.334 107.784 102.489 105.447 103.007 99.624 100.054 101.599 100.337 103.592 105.819 106.967 104.217 103.179 99.219 99.182 99.202 99.264 99.547 99.867 99.957 100.282 102.429 103.269 106.309 105.232 102.549 99.809 99.819 99.854 104.997 112.827 103.729 102.217 103.637 103.677 100.119 101.464 101.302 100.907 99.667 99.437 99.427 99.459 100.332 99.624 99.354 99.357 99.337 99.352 99.304 99.929 99.414 99.672 108.672 112.474 111.387 101.139 106.167 110.382 110.622 110.297 110.702 110.582 103.039 109.822 109.394 108.722 108.889 108.274 99.419 100.642 105.719 106.392 101.507 97.992 97.242 97.177 97.059 96.194 96.112 96.129 96.297 95.977 95.887 95.824 95.994 96.984 97.609 101.749 102.757 99.457 96.797 101.409 102.117 100.117 103.949 103.297 101.229 99.097 99.932 99.314 98.192 96.354 93.307 93.202 93.097 95.109 98.597 93.977 93.527 94.552 99.419 94.357 92.172 92.704 93.807 93.437 92.369 93.607 92.337 97.067 94.669 94.112 93.704 91.119 91.407 90.969 90.709 92.089 92.769 98.497 101.104 101.412 101.674 101.947 102.214 102.422 102.229 101.664 100.779 90.567 89.619 95.917
111.312 110.335 111.937 115.225 112.892 111.765 110.897 113.34 118.78 119.905 120.81 121.112 119.462 115.917 112.855 112.22 111.81 111.63 111.152 111.33 111.272 111.415 111.46 111.272 111.75 111.525 113.545 118.995 117.832 114.105 111.007 113.117 116.382 114.605 113.07 110.907 110.155 109.845 110.825 109.747 109.915 111.095 111.437 110.755 110.182 112.112 112.042 110.657 109.78 110.595 109.477 109.082 109.287 109.222 110.465 112.482 111.435 110.632 109.3 111.805 111.222 112.557 111.647 110.395 109.847 109.787 109.887 109.922 114.465 119.697 115.882 115.83 111.585 112.732 111.662 111.45 110.717 110.197 110.275 110.27 110.322 110.327 110.36 114.517 115.982 116.36 119.137 119.935 119.215 118.135 116.837 116.09 111.452 110.895 111.545 111.712 111.5 111.142 111.717 111.08 111.075 111.062 110.992 113.912 114.737 113.652 119.012 120.05 120.997 120.595 119.56 113.577 110.98 110.145 110.022 110.042 109.945 111.467 115.037 114.502 111.49 111.197 111.182 110.225 109.86 109.702 109.552 116.095 117.467 117.482 117.472 117.575 116.857 117.205 117.497 117.492 117.485 117.432 112.787 107.157 106.257 106.25 106.215 106.1 105.99 107.612 116.585 118.49 119.2 119.772 120.707 119.882 118.5 115.887 109.587 105.165 104.567 104.422 104.342 104.287 104.239 104.174 104.107 104.044 103.959 103.869 104.467 105.217 110.619 110.197 103.504 103.779 103.789 112.954 108.579 102.904 101.099 101.314 100.169 98.772 104.384 100.247 103.729 104.217 104.769 100.742 98.847 96.479 96.229 96.304 94.642 93.547 95.172 95.532 94.669 92.252 92.264 92.249 92.242 92.287 92.922 90.252 89.114 88.954 88.779 88.967 91.022 92.292 93.107 90.107 88.417 88.392 88.414 89.454 89.492 88.267 92.564 95.499 89.804 92.222 96.742 101.227 96.587 95.357 93.147 97.422 102.632 102.062 95.757 93.709 94.059 97.787 99.349 104.734 102.344 100.677 99.679 97.789 95.977 95.079 93.774 93.682 94.774 95.244 95.177 95.139 94.309 93.842 93.939 96.727 95.559 102.734 104.242 98.309 99.917 96.677 104.897 102.357 97.694 101.964 100.624 108.417 113.069 104.869 99.007 100.244 101.024 106.429 104.874 104.637 102.189 105.257 103.489 104.067 102.517 99.234 99.287 99.319 99.332 99.399 99.594 100.084 100.209 101.117 102.559 102.154 107.199 104.474 103.089 100.607 99.847 99.852 100.489 103.202 104.229 104.087 104.482 100.199 100.177 100.967 103.129 101.677 100.164 99.332 99.559 100.434 99.782 100.219 99.469 99.274 99.297 99.202 99.179 99.812 99.399 102.129 110.239 112.242 112.494 104.779 102.247 110.334 110.707 110.602 110.702 110.612 101.289 106.339 108.589 107.594 108.349 105.992 100.219 98.134 97.544 97.497 97.527 97.469 97.367 97.449 97.402 97.424 96.264 96.169 99.274 101.202 98.847 96.274 96.137 96.914 97.702 99.072 101.757 100.084 99.137 99.434 101.014 98.777 98.009 102.159 96.214 94.872 94.467 94.079 95.467 93.479 93.349 95.109 98.624 100.544 96.662 93.852 99.419 96.242 96.679 94.562 93.544 95.844 94.887 92.979 92.007 92.967 93.129 94.814 91.879 91.147 91.102 91.374 94.269 93.984 91.394 90.787 92.114 94.229 101.067 101.689 102.202 102.387 102.442 102.294 101.857 101.479 101.127 95.644 90.167 89.679
111.072 111.965 111.887 114.667 114.702 112.162 110.605 111.75 116.382 119.835 120.355 120.305 114.475 119.9 120.21 117.627 112.147 111.45 111.272 112.29 111.59 111.407 112.137 111.675 111.66 111.71 111.68 112.527 113.212 117.465 120.772 121.162 120.352 117.605 113.067 110.895 110.317 110.025 110.81 111.885 112.282 111.272 111.59 110.495 109.847 110.04 110.035 110.02 109.832 111.267 110.94 110.48 110.037 110.197 110.465 114.817 115.402 116.39 117.727 120.375 121.302 119.982 115.315 110.19 109.975 109.917 110.015 110.052 110.077 116.615 115.452 112.665 110.85 111.875 113.51 112.975 110.665 110.25 110.277 110.282 110.34 110.38 110.4 110.635 111.885 110.752 117.382 118.08 116.912 116.39 116.262 116.282 114.342 111.47 111.605 112.435 111.47 111.272 111.2 111.23 111.25 111.14 111.072 112.062 112.452 111.917 116.477 119.577 120.517 120.992 119.937 116.287 113.945 111.342 111.705 110.667 110.315 116.407 115.182 117.84 115.075 112.682 110.892 110.085 109.852 109.657 110.547 117.185 117.487 117.495 117.525 117.715 118.132 117.575 117.517 117.5 117.46 117.532 111.7 106.902 106.375 106.337 106.282 106.18 106.037 108.91 116.445 115.877 118.077 118.73 118.757 119.642 119.885 119.04 118.042 117.777 109.862 105.492 104.344 104.214 104.179 104.104 104.059 103.982 103.934 103.884 103.807 103.732 105.239 107.172 103.872 105.079 107.459 109.127 104.549 106.879 103.069 105.157 104.699 102.489 99.572 100.407 105.022 102.232 103.442 100.494 99.669 97.452 98.047 95.627 93.312 100.532 99.087 100.117 98.347 93.449 92.939 92.219 92.224 92.229 92.264 92.294 91.302 90.259 89.274 90.554 89.639 90.142 91.387 88.759 89.187 89.567 88.392 88.452 88.834 88.339 87.552 92.374 92.942 91.224 93.257 96.612 94.484 92.094 92.547 98.309 98.052 97.087 95.452 93.467 95.559 99.642 98.129 99.092 99.444 102.942 100.304 95.529 94.674 94.982 94.302 94.152 93.804 94.429 95.099 94.684 94.139 93.669 97.294 99.809 99.259 103.607 102.282 102.487 95.859 95.169 99.312 101.552 96.734 101.849 102.932 103.464 102.462 99.347 101.594 99.139 103.054 103.219 105.842 104.357 101.917 104.379 102.432 100.107 99.482 99.339 99.354 99.374 99.419 99.502 99.669 100.279 100.467 100.494 101.074 101.849 100.762 103.197 102.859 99.972 99.914 99.904 99.914 99.894 100.434 100.662 100.234 100.229 100.207 101.367 101.912 100.747 100.234 99.674 101.122 102.377 102.439 100.449 99.694 104.467 107.827 103.227 103.774 104.624 104.957 112.299 112.259 112.167 112.694 110.177 102.697 108.554 110.582 110.147 109.672 110.074 105.164 103.064 106.607 104.602 102.652 99.522 98.477 99.689 97.504 97.462 97.557 97.502 97.809 97.852 97.999 97.419 96.292 99.059 103.277 105.552 104.157 100.819 96.362 96.069 97.057 97.062 99.847 97.882 99.689 96.542 99.169 98.657 101.202 99.952 96.412 94.107 93.939 93.769 93.647 93.472 94.892 100.997 103.504 95.194 95.649 96.512 97.142 97.847 96.984 95.834 93.214 92.759 91.964 91.829 92.549 93.049 94.222 94.122 92.292 91.887 92.434 95.657 100.679 102.109 97.994 93.554 92.257 92.764 100.162 101.494 101.992 101.949 102.342 102.462 101.762 101.187 96.772 90.787 90.159 89.404
111.275 113.805 114.39 113.787 111.67 110.33 110.64 111.075 114.235 118.752 120.272 120.867 121.5 121.362 120.67 117.815 111.472 111.895 112.462 111.572 111.85 111.547 111.872 112.332 112.29 112.635 112.795 114.03 119.592 121.152 122.155 121.81 121.125 119.147 111.17 111.217 111.487 111.05 111.59 111.672 111.51 110.995 110.887 110.73 109.887 110.037 111.052 109.975 109.057 109.077 109.435 109.5 108.972 109.072 109.202 113.76 118.147 117.96 119.402 120.812 121.44 120.067 116.627 110.37 110.28 110.43 110.132 110.127 110.125 112.067 111.682 110.18 110.307 112.117 113.042 113.66 110.392 110.272 110.26 110.32 110.38 110.405 110.495 110.57 110.8 112.122 116.282 116.205 116.21 115.285 115.07 114.515 113.777 116.432 119.34 114.592 111.472 112.07 112.512 114.9 111.6 111.302 111.237 111.232 111.855 111.62 113.552 119.075 119.157 115.23 115 114.885 114.967 113.612 113.815 111.307 111.422 114.897 116.162 114.867 114.595 111.442 113.062 110.63 109.917 109.635 111.49 117.462 117.497 117.525 117.54 117.55 117.597 117.82 117.557 117.675 117.935 117.49 108.565 106.647 106.455 106.432 106.33 106.252 106.172 111.162 116.197 114.41 110.787 113.497 118.002 118.835 119.537 119.845 119.702 119.38 117.64 116.365 107.447 104.319 104.152 104.049 104.027 103.937 103.892 103.852 103.784 103.707 103.634 103.567 103.499 108.894 107.494 111.344 107.089 101.722 103.807 101.954 104.189 103.544 102.817 104.719 98.999 98.692 97.434 97.292 97.449 103.077 102.309 95.177 98.444 101.562 97.737 101.092 99.392 95.627 95.037 92.217 92.207 92.177 92.219 92.277 92.304 92.292 92.799 91.877 89.379 88.489 89.584 89.527 91.404 92.189 88.789 88.407 88.419 88.472 88.864 88.617 88.997 90.469 94.632 95.022 95.689 94.117 93.207 95.542 99.162 98.449 98.717 98.069 94.777 97.267 96.407 96.824 99.672 96.242 97.564 94.084 97.024 97.544 96.577 97.612 96.754 96.254 94.469 93.822 93.699 94.012 94.639 99.667 101.527 95.954 102.942 100.312 95.229 99.032 101.159 101.422 100.114 103.157 100.254 100.259 104.162 103.222 99.652 100.047 100.182 101.242 102.167 105.154 101.249 101.984 101.994 100.514 99.617 99.759 99.369 99.409 99.484 99.582 99.659 100.249 100.597 100.609 100.622 101.037 102.347 101.944 100.849 100.057 100.337 99.924 99.909 99.912 100.089 104.262 102.244 100.289 100.237 100.224 100.264 100.519 101.457 102.484 102.599 102.357 105.124 103.904 104.189 111.309 112.392 111.809 112.332 110.672 101.417 111.404 112.534 112.424 112.684 112.582 105.389 105.879 109.594 108.987 108.854 109.197 104.074 100.169 101.047 98.332 98.332 98.237 98.592 100.267 99.449 97.977 97.637 97.587 97.894 97.904 97.752 97.139 96.747 99.617 105.572 107.734 106.262 103.259 95.839 95.752 95.504 95.402 95.527 99.269 100.404 95.757 95.542 95.167 95.814 96.134 95.699 94.084 95.564 95.099 93.617 94.249 99.549 96.189 105.764 97.859 96.227 93.807 103.312 93.339 94.252 92.887 92.357 92.797 91.757 91.434 91.459 92.074 93.769 95.842 93.474 98.472 101.042 100.927 102.152 102.839 103.164 95.199 93.654 91.272 96.857 101.182 101.497 101.467 101.962 102.417 102.004 101.402 99.899 89.542 88.779 89.812
