ncols 423
nrows 32
xllcorner    528140
yllcorner    186432
cellsize     2
NODATA_value -9999
68.732 71.152 71.499 71.407 70.662 68.334 67.889 72.259 73.432 73.842 73.077 68.704 65.414 65.247 65.197 66.037 66.619 70.799 70.044 65.652 63.044 61.742 61.809 61.624 61.542 61.444 61.464 66.477 69.837 65.924 67.934 68.254 64.674 63.481 63.431 62.601 62.646 62.826 68.724 70.234 70.716 70.781 70.954 69.771 68.961 64.664 64.154 64.264 64.299 64.871 63.891 63.616 63.331 62.879 64.491 61.049 61.246 61.146 61.016 60.951 61.254 64.774 64.811 63.989 62.636 62.224 60.919 62.226 62.156 64.516 64.426 64.996 63.204 61.939 62.436 66.684 62.926 61.649 61.611 61.501 61.301 61.071 60.931 60.781 61.341 62.164 63.534 64.061 64.414 60.789 63.341 64.016 65.994 65.034 66.409 66.794 67.036 67.161 63.531 62.259 60.519 65.576 67.149 64.901 60.641 59.461 59.404 59.396 59.359 59.334 59.279 59.244 59.186 59.086 58.816 63.906 65.789 65.829 65.814 65.144 61.879 58.546 58.539 58.604 58.416 58.319 58.794 58.776 58.279 58.299 58.279 58.156 58.144 58.061 57.989 57.999 58.174 58.309 58.244 58.189 61.699 64.576 65.216 65.924 65.466 65.006 64.386 60.264 59.386 58.966 59.061 59.451 57.971 57.579 57.496 57.636 58.546 62.219 57.199 57.229 59.119 57.479 57.194 57.174 59.201 57.254 56.939 56.866 56.919 56.899 56.804 56.751 56.784 56.866 60.891 57.814 56.581 56.361 56.296 56.299 56.029 57.496 58.316 58.011 58.994 57.314 58.871 60.429 59.539 56.959 56.516 56.671 57.109 56.234 56.329 55.984 55.919 55.886 55.884 56.296 56.574 55.966 56.011 55.536 55.486 55.646 56.044 56.074 56.046 56.146 56.159 56.204 56.216 56.124 56.116 56.109 56.149 56.399 56.234 56.126 56.139 56.261 56.716 58.694 61.996 63.701 59.711 57.121 57.191 56.979 58.929 58.191 61.324 61.696 61.099 63.806 66.031 63.449 65.874 61.911 62.936 59.761 58.204 58.006 60.326 62.304 61.084 61.964 63.334 63.556 66.589 66.164 61.859 59.339 59.136 60.969 59.701 59.546 61.036 59.821 59.686 59.544 61.491 61.309 60.714 62.071 69.851 65.564 65.156 62.889 60.994 61.086 61.161 62.674 64.336 65.866 66.396 63.319 65.049 65.396 64.054 65.369 65.671 65.756 66.476 62.266 62.239 62.299 62.419 62.286 62.296 62.224 63.624 67.121 66.089 63.426 62.424 62.644 67.371 74.351 75.771 75.149 72.941 62.736 62.554 63.441 63.216 62.549 61.734 61.659 61.696 61.889 61.411 64.794 70.646 72.774 72.784 71.084 68.176 67.636 64.571 60.701 60.426 60.386 60.326 60.276 60.291 61.089 60.346 59.986 60.009 60.041 60.586 59.956 59.904 60.041 60.084 60.621 62.001 65.859 67.546 66.951 67.529 67.499 67.386 67.441 67.351 66.206 64.551 62.259 61.231 62.514 61.799 60.156 60.066 60.954 61.139 61.274 65.319 72.756 72.981 72.979 72.529 70.504 72.621 73.334 72.871 71.629 69.469 67.914 63.446 62.924 62.981 63.039 63.179 63.344 63.611 63.351 63.826 64.559 69.516 72.851 75.024 76.009 74.269 71.699 67.534 66.394 69.419 66.086 65.531 65.894 65.721 65.804 66.161 66.836 67.846 67.481 67.429 69.071 67.751 68.004 68.436 70.304 73.811 73.444 69.811 72.691 79.146 78.909 79.116 77.551 73.166 69.131 68.809 68.539 68.586 68.709 68.871 68.971 68.984 68.996 69.041
66.354 67.817 68.052 69.757 66.327 66.037 66.464 69.702 72.692 73.784 73.339 71.117 66.142 65.109 64.487 64.499 67.204 69.744 68.509 64.187 62.427 62.179 62.354 61.717 61.454 61.307 61.272 65.069 66.302 65.519 64.201 69.634 63.721 62.466 62.514 62.584 62.671 62.764 68.486 69.769 69.259 68.126 66.946 65.811 64.796 65.656 65.326 64.724 67.736 68.461 68.816 63.564 61.734 62.104 64.519 62.091 61.061 61.441 62.191 65.516 67.334 69.316 67.976 67.604 62.296 62.539 63.864 62.079 61.179 61.589 64.304 65.611 64.696 62.164 61.704 62.384 62.211 61.596 61.419 61.196 61.076 60.951 60.779 60.686 60.634 62.789 63.459 60.829 65.526 61.991 64.834 63.106 63.879 66.836 67.081 66.909 66.584 66.229 65.019 62.734 60.711 63.179 64.104 63.329 60.799 59.409 59.369 59.339 59.371 59.394 59.309 59.329 59.184 59.069 58.729 64.861 66.519 67.406 66.736 65.626 63.284 58.549 58.521 58.441 58.296 58.211 58.126 58.911 58.186 58.204 58.179 58.066 58.776 59.184 58.244 57.904 58.296 58.631 58.454 58.536 64.619 65.196 64.841 64.016 62.261 60.951 58.894 58.064 58.094 58.016 57.559 57.499 57.456 57.419 57.419 57.719 59.599 59.071 57.394 57.099 58.261 57.481 57.091 57.071 57.241 57.106 56.866 57.424 58.634 57.246 56.746 56.764 56.679 57.104 56.871 56.314 56.914 57.064 56.244 56.286 55.876 57.211 58.261 60.869 62.764 63.519 60.169 57.811 56.299 56.964 57.456 56.336 56.524 56.994 56.611 55.899 55.854 55.811 55.846 57.591 56.581 55.876 55.549 55.499 55.449 55.449 56.061 56.026 56.031 56.099 56.276 56.176 56.214 56.166 56.079 56.544 56.671 56.824 56.134 56.106 56.121 56.151 56.789 59.311 58.179 58.679 57.751 56.666 57.249 59.206 65.059 62.576 60.401 60.471 64.571 62.754 62.636 61.629 64.159 62.779 60.201 58.101 58.194 57.974 58.851 60.376 62.179 61.739 64.789 63.351 62.036 64.116 61.214 59.129 58.979 59.956 59.754 59.351 60.149 59.714 58.896 58.901 60.429 61.444 60.671 60.774 61.174 61.006 61.029 60.886 60.934 60.979 61.106 64.566 64.441 65.789 65.196 68.764 69.109 67.739 66.926 64.391 66.696 67.204 63.299 62.179 62.266 62.349 62.486 62.216 62.274 62.839 66.894 66.341 67.704 64.901 62.784 62.496 62.664 69.959 74.651 73.274 69.006 63.089 63.641 62.789 62.019 61.756 61.626 61.459 61.244 62.456 61.541 65.696 71.399 73.146 72.359 70.089 67.716 67.661 62.719 60.819 60.386 60.376 60.326 60.281 60.189 60.201 60.109 59.971 59.911 59.926 60.046 59.869 59.781 60.119 60.286 60.071 66.494 67.441 67.429 67.356 67.521 65.826 67.406 67.254 67.551 67.399 67.419 65.834 61.881 60.921 61.386 60.231 59.844 59.931 60.046 60.309 66.669 69.269 71.356 72.259 72.899 73.126 72.561 72.671 73.244 71.566 63.501 63.041 62.826 62.949 63.679 63.041 63.214 64.551 63.329 63.376 64.539 67.236 74.126 74.446 76.104 74.954 72.849 70.781 68.074 66.994 66.919 65.394 65.639 65.821 66.284 66.116 66.864 69.661 70.531 67.551 67.724 67.624 67.861 67.774 68.474 67.911 68.699 69.099 68.299 69.204 75.634 78.021 78.376 78.771 77.206 71.571 68.884 69.129 68.661 68.746 69.729 68.991 69.036 69.024 69.114
66.197 66.184 66.309 66.687 66.002 66.089 66.077 68.054 69.979 72.452 71.722 68.322 66.907 65.209 64.722 64.379 64.407 64.502 63.714 63.324 65.827 66.267 62.367 61.629 61.334 61.282 61.182 62.902 61.217 62.529 63.876 68.049 65.424 62.424 62.476 62.549 62.649 62.724 63.686 66.476 67.344 65.676 65.226 65.374 66.614 66.394 67.439 65.041 63.489 66.354 62.819 63.554 61.006 62.299 65.541 63.671 62.986 66.239 68.681 69.714 70.356 70.294 69.146 67.266 66.729 68.656 69.689 64.524 61.151 61.109 62.286 65.056 65.394 62.764 61.621 63.321 63.599 61.384 61.196 61.076 61.896 60.829 60.701 60.576 60.566 61.484 62.354 60.549 61.819 62.634 61.406 61.246 61.186 63.231 66.199 65.419 63.844 62.049 60.776 60.151 61.391 63.271 63.151 62.791 60.674 60.479 61.316 61.896 62.019 60.846 62.101 62.409 60.581 60.294 59.396 64.906 66.599 68.024 66.789 65.404 62.284 58.591 58.624 58.424 58.196 58.094 58.001 58.249 58.031 58.119 58.029 57.954 58.059 58.036 57.761 57.986 57.844 57.834 57.879 57.939 61.069 62.159 60.156 57.799 59.211 60.044 61.129 60.636 58.429 57.506 57.479 57.436 57.394 57.359 57.331 57.351 58.764 57.831 57.904 56.914 56.964 57.754 57.026 57.004 57.141 59.101 58.074 56.841 58.001 58.816 58.441 56.694 56.526 56.596 56.359 56.164 56.081 56.206 56.394 56.716 56.746 56.404 57.504 62.834 63.941 64.056 62.851 60.909 56.151 57.881 57.476 56.626 56.834 56.926 55.796 55.784 55.774 55.739 55.956 57.569 55.864 55.531 55.499 55.519 55.471 55.451 55.534 56.249 55.969 56.004 56.071 56.086 56.054 56.064 56.841 57.401 59.841 58.809 57.104 56.084 56.084 57.316 57.466 58.826 59.329 58.344 57.231 60.624 62.329 60.791 61.964 61.336 63.314 63.829 62.959 66.706 62.529 61.964 61.609 59.969 58.236 57.759 58.739 58.044 57.884 59.656 60.571 62.871 64.111 64.399 63.714 63.919 59.114 58.766 58.869 59.446 60.039 59.026 58.926 60.789 62.311 59.724 59.536 61.251 60.706 60.679 60.691 60.736 62.479 62.944 63.909 62.189 61.031 64.956 68.289 66.914 66.346 67.456 69.361 67.794 68.541 65.269 62.511 62.174 62.144 62.241 62.331 62.681 62.271 62.146 62.189 62.156 62.916 66.684 69.414 67.899 69.296 62.539 62.694 65.491 66.771 64.346 62.799 62.139 62.049 61.844 61.744 61.594 61.491 61.406 61.531 62.134 61.281 65.956 71.899 73.086 71.754 69.191 65.634 66.486 61.771 60.514 60.381 60.329 60.291 60.241 60.191 60.091 59.999 59.949 59.876 59.884 59.761 59.726 59.721 60.111 60.826 59.706 64.149 65.971 67.081 67.366 67.454 67.404 67.501 66.064 67.356 66.214 67.486 64.001 63.039 62.649 61.404 60.689 60.414 60.049 60.059 60.716 65.494 67.846 69.534 70.971 72.246 72.091 72.064 64.641 68.559 65.736 64.119 63.086 62.694 63.274 63.089 62.934 63.504 63.341 63.521 64.214 65.004 65.806 72.931 75.724 75.361 73.111 72.386 72.379 71.539 68.426 66.141 66.114 65.759 65.816 65.864 66.756 67.884 74.674 76.241 72.121 69.674 67.784 67.699 68.514 67.839 67.974 68.609 68.204 68.251 68.819 69.406 76.936 78.189 79.086 78.476 77.861 72.611 69.181 69.121 68.776 69.914 69.019 69.039 69.116 69.136
66.082 66.064 66.007 65.989 65.957 65.924 66.324 66.859 66.589 69.677 67.244 69.179 71.922 71.869 67.692 64.262 64.182 63.924 63.674 64.817 68.889 70.534 67.284 62.507 61.207 61.199 61.099 61.004 60.959 61.509 63.904 65.634 64.614 62.416 62.411 62.529 62.926 64.291 63.394 62.631 65.001 64.331 62.634 63.304 65.984 67.239 68.959 65.551 63.949 65.859 62.139 61.504 61.206 62.349 66.586 67.871 69.196 70.154 70.389 69.976 69.319 70.051 71.601 70.056 70.151 70.934 71.194 69.054 61.449 61.236 62.004 64.446 65.701 63.546 63.599 66.431 65.959 61.821 62.489 61.554 60.981 60.574 60.576 61.129 62.766 62.081 60.534 60.684 61.289 61.524 59.904 60.046 61.511 60.716 61.919 60.296 60.446 60.294 59.911 59.676 61.744 63.111 61.301 60.881 60.126 59.834 60.161 60.864 60.541 60.101 59.729 60.309 59.149 59.079 59.911 64.909 66.651 68.059 66.734 65.406 62.464 58.859 58.921 58.826 58.094 57.981 57.911 58.564 58.154 57.994 57.969 58.121 57.799 57.734 57.656 57.874 57.881 57.894 57.869 57.529 57.541 59.106 61.634 63.064 64.099 64.204 63.611 61.181 58.386 57.421 57.444 59.451 60.434 58.221 58.104 58.649 59.229 57.776 57.514 56.911 57.501 58.034 57.421 56.974 57.444 58.791 58.529 56.649 59.114 59.149 58.886 57.364 57.159 56.381 56.226 56.164 56.044 56.011 56.011 55.951 56.439 57.174 58.471 63.379 64.486 63.916 63.001 60.421 55.886 56.216 56.009 56.779 55.944 55.811 55.714 55.701 55.686 55.696 57.884 58.584 55.584 55.709 55.991 55.924 55.536 55.459 55.641 56.414 56.366 55.986 55.994 56.009 56.014 56.724 57.666 60.666 63.526 63.624 58.549 56.501 56.224 56.526 57.789 56.356 56.354 56.934 59.531 63.229 61.744 59.661 61.329 60.799 66.639 60.641 59.749 59.294 57.769 57.614 57.444 57.509 57.574 57.676 58.766 59.321 58.064 58.516 59.991 63.224 60.294 59.626 58.729 59.096 58.994 58.759 59.591 59.324 60.511 61.951 65.231 66.234 66.101 63.481 59.209 60.344 60.831 60.506 60.574 60.814 65.976 67.036 67.116 63.889 62.151 62.586 66.164 66.211 64.871 66.834 67.734 67.359 63.806 61.861 61.954 62.046 62.101 62.214 62.301 62.259 62.219 62.129 62.149 62.826 65.499 63.191 65.451 67.381 65.776 66.394 63.459 64.031 64.849 63.134 61.571 61.319 61.431 61.524 61.524 61.509 61.654 61.306 61.839 61.799 61.129 68.621 72.336 72.874 71.304 66.924 64.599 64.901 62.181 60.361 61.826 61.739 61.219 60.209 60.174 60.091 60.006 59.946 59.851 59.931 59.774 59.834 59.959 59.884 60.674 59.306 60.059 61.011 61.684 64.064 65.094 67.484 67.466 67.364 67.394 67.356 67.334 63.579 63.229 62.939 60.209 59.739 59.999 60.519 60.719 60.959 60.544 61.954 71.241 71.811 72.076 70.999 67.971 62.896 62.724 62.734 63.919 62.986 62.531 62.681 62.789 63.314 63.064 62.964 64.119 62.999 68.444 74.161 70.484 73.181 73.814 71.584 71.634 72.429 71.156 65.391 65.274 65.524 66.259 66.059 66.181 68.491 73.339 75.849 76.069 74.626 73.734 69.066 68.761 68.291 69.559 68.964 68.054 68.071 68.219 68.264 68.496 71.476 77.479 78.256 79.166 79.124 77.109 70.071 68.919 68.874 68.931 69.061 69.084 69.084 69.166
65.994 65.954 65.937 65.944 65.917 65.899 66.699 67.644 66.647 67.042 72.077 72.514 72.879 72.107 68.262 64.344 64.229 64.112 63.817 65.512 69.377 69.879 68.552 63.849 61.087 61.029 61.049 60.962 60.867 60.844 62.499 64.296 64.164 63.169 62.909 64.281 63.849 62.579 62.441 63.294 63.801 63.201 63.634 63.344 65.704 67.686 68.286 66.711 67.509 64.994 61.324 62.161 66.364 68.681 69.751 70.359 70.321 69.806 69.616 70.701 72.156 73.144 74.031 72.616 71.129 70.324 69.306 68.341 65.256 65.101 65.136 62.276 65.341 66.359 66.269 65.714 65.094 62.286 60.756 60.524 61.554 60.564 62.209 62.426 62.004 62.296 62.346 62.619 60.024 59.896 59.836 59.774 61.206 60.366 59.726 59.704 59.614 59.559 59.521 59.554 62.706 62.021 59.814 59.649 59.991 61.719 59.369 59.001 59.066 60.186 58.979 58.866 58.686 58.644 59.004 64.936 66.544 67.191 66.644 65.451 62.914 58.474 58.241 58.844 57.999 57.874 57.824 58.514 58.146 57.871 57.996 58.784 57.691 57.609 57.556 57.856 58.054 58.174 57.469 57.366 61.954 64.004 64.969 66.249 65.074 63.614 61.366 57.484 57.309 57.649 58.161 62.269 62.454 60.406 57.334 58.794 60.104 58.929 58.706 57.526 58.774 58.624 58.859 58.421 58.629 58.819 58.671 57.221 57.941 58.606 58.449 58.184 58.789 57.004 56.739 56.509 55.999 55.974 55.946 55.884 55.886 56.119 60.621 64.579 65.131 63.516 62.749 58.881 56.701 57.144 56.094 55.936 55.789 55.689 55.651 55.624 55.539 55.689 58.516 57.151 57.151 61.311 62.189 57.494 55.774 55.411 55.816 56.556 56.071 56.004 56.089 56.104 57.206 60.419 62.564 63.776 64.234 63.344 61.049 57.719 56.079 56.444 56.461 57.014 58.076 59.024 56.914 60.334 62.351 63.611 62.239 61.271 61.891 65.961 61.721 58.939 57.276 57.286 57.359 57.474 57.531 57.611 57.734 59.101 58.344 58.084 59.511 58.844 58.474 58.689 58.859 58.981 58.939 59.781 61.726 64.444 65.556 66.371 67.026 67.509 66.961 65.366 59.096 59.661 60.916 60.509 60.504 63.546 65.086 62.901 66.231 67.019 64.964 61.474 67.796 67.941 66.834 67.436 68.366 62.411 61.804 61.866 61.959 61.991 62.034 62.034 62.024 62.041 62.086 62.051 62.076 62.061 64.686 68.236 72.796 70.716 65.711 66.061 63.836 62.316 62.421 61.739 61.176 61.144 61.244 61.329 61.394 61.376 61.344 61.276 62.216 61.341 61.149 71.116 72.736 72.491 70.866 66.394 64.661 67.111 66.866 66.584 65.384 64.461 63.239 60.454 60.149 60.056 60.401 59.904 59.864 59.924 59.756 59.974 59.949 59.711 60.929 59.301 59.719 61.544 59.609 60.289 60.836 61.776 64.674 64.954 67.099 67.346 66.269 59.844 60.484 62.154 61.131 59.746 59.811 59.921 60.994 60.549 61.489 66.346 72.204 71.796 72.016 71.976 66.786 61.989 62.756 62.819 62.396 62.801 62.719 62.621 62.709 63.516 62.799 63.816 63.636 69.519 75.154 75.854 77.269 71.779 69.814 66.969 68.814 70.766 66.064 65.549 65.439 65.769 65.804 68.011 68.269 66.831 71.246 76.006 74.954 74.044 73.526 72.006 69.249 68.794 69.164 67.966 67.926 68.111 68.204 68.896 68.996 69.026 75.614 78.704 79.061 78.094 71.736 70.109 69.254 69.274 69.216 69.756 69.099 69.136 69.176
65.939 65.899 65.894 65.899 65.887 67.239 68.912 66.559 71.287 73.774 73.722 72.922 72.472 72.049 69.734 64.322 64.252 64.144 64.697 67.547 69.409 67.702 66.119 63.039 61.407 60.962 60.937 60.879 60.797 60.652 60.699 61.461 64.424 64.211 63.799 62.211 61.749 62.159 62.786 62.626 62.444 63.196 62.666 62.516 64.839 64.881 69.861 65.331 66.264 63.436 60.921 61.099 69.686 70.414 69.906 69.534 70.044 71.336 72.609 73.526 74.276 74.576 74.114 72.891 68.831 67.831 66.176 65.431 66.291 67.379 67.314 62.809 64.044 65.396 66.194 61.461 60.796 63.699 64.886 65.624 66.476 63.251 60.929 62.476 61.706 61.829 62.179 61.044 63.681 63.161 60.809 59.641 60.586 60.744 59.434 59.476 59.341 59.339 59.341 59.969 60.749 61.279 59.651 59.841 60.656 62.696 61.164 59.849 59.156 59.631 58.709 58.684 58.689 58.699 58.544 64.864 65.426 65.499 65.514 64.919 61.976 60.221 61.696 60.199 57.946 57.816 57.734 57.836 57.746 57.769 58.021 58.321 57.554 57.484 57.446 57.784 57.754 57.394 57.354 57.361 60.886 64.164 65.314 66.584 66.239 65.226 61.761 57.411 58.186 57.839 57.846 60.301 62.984 59.149 58.184 57.834 59.596 59.936 58.649 57.924 58.094 58.489 59.834 59.029 57.666 57.974 57.989 58.351 58.719 58.656 59.239 57.901 57.321 56.339 56.196 56.334 56.194 56.176 55.911 55.896 55.919 57.604 63.201 64.569 64.209 63.179 61.654 57.154 56.894 58.231 57.511 55.879 58.246 55.624 55.599 55.564 55.576 56.441 57.389 60.554 62.894 64.376 62.904 59.391 57.251 55.354 55.351 56.174 56.384 56.731 59.896 62.316 62.629 64.416 65.281 63.624 63.709 63.739 60.569 56.621 56.301 57.999 61.251 60.646 61.976 60.276 58.934 61.386 61.759 64.576 61.684 60.566 58.421 56.984 57.181 57.334 57.216 57.259 57.316 57.439 57.479 57.529 57.614 57.934 58.791 58.839 59.619 59.679 58.446 58.699 58.659 61.794 62.464 65.346 65.991 66.971 67.406 68.256 67.581 66.996 66.269 65.279 61.034 59.314 60.526 60.594 61.046 63.761 65.599 63.886 63.734 65.876 64.951 62.306 61.366 64.374 67.646 63.564 61.726 61.609 61.654 62.839 64.194 61.946 61.981 62.001 61.999 61.986 61.991 61.999 61.954 62.011 61.916 63.374 66.001 68.336 65.139 66.994 64.606 61.476 61.424 67.871 64.451 60.999 61.106 61.134 61.266 61.281 61.266 61.129 62.531 61.184 65.389 71.601 73.011 72.006 70.101 64.361 67.311 68.071 67.844 67.541 67.264 66.954 66.741 64.934 64.259 62.186 62.109 60.821 59.801 60.834 59.926 59.949 59.876 60.074 60.074 59.284 59.731 60.144 59.276 60.524 59.489 59.839 59.509 60.024 61.351 61.806 62.106 59.439 60.144 62.584 61.919 60.819 60.374 60.416 65.864 67.216 67.704 71.849 71.656 71.644 71.349 70.426 63.746 62.299 62.509 62.449 62.289 63.266 62.571 62.654 63.216 62.716 62.716 62.804 63.219 72.981 75.751 76.951 77.214 75.761 72.629 65.874 66.851 65.886 64.919 65.424 66.614 66.319 66.066 67.449 68.656 66.729 67.366 71.701 73.724 73.644 74.096 73.576 70.364 70.756 70.849 68.534 69.066 68.649 69.849 68.829 68.804 68.949 69.849 77.476 76.651 72.521 70.049 69.341 69.346 69.804 69.244 69.129 69.139 69.156 69.206
65.862 65.844 65.849 66.397 67.602 66.787 67.179 71.574 74.444 74.939 74.304 72.979 71.937 72.282 72.269 69.272 64.302 64.407 67.477 69.177 69.044 65.152 62.364 62.227 61.209 61.029 60.862 60.754 60.724 60.654 60.551 60.596 61.384 61.884 61.204 61.409 62.786 62.324 61.836 62.009 61.474 62.964 61.566 62.061 62.981 63.336 65.619 65.119 61.839 60.976 60.994 60.931 65.176 69.846 71.021 72.149 72.999 73.939 74.571 74.381 73.726 72.759 71.831 70.541 67.849 67.294 65.656 65.499 65.949 66.591 65.454 62.476 61.856 64.921 62.526 60.786 65.809 66.431 66.764 67.061 67.059 64.866 60.179 60.826 62.841 60.994 63.239 62.364 64.969 65.106 62.751 59.656 59.496 61.396 59.911 59.189 59.179 59.166 59.174 59.454 59.624 60.234 60.016 60.511 61.011 60.964 62.459 61.804 59.369 59.461 58.749 58.704 58.699 60.471 59.166 61.459 61.176 61.124 61.254 61.249 59.211 58.684 58.789 58.276 57.821 57.731 57.644 57.516 57.631 57.646 57.711 57.816 57.479 57.464 57.386 57.499 57.406 57.346 57.284 57.376 60.709 64.774 65.074 66.369 66.769 65.221 62.311 59.191 58.054 57.244 57.211 57.731 57.626 57.146 58.844 59.424 59.631 59.671 59.604 59.609 58.584 59.531 59.844 58.924 57.039 56.479 57.529 57.824 58.044 57.966 57.289 56.896 56.911 56.471 56.116 56.064 56.011 56.369 56.204 56.256 55.796 58.249 63.016 64.439 63.734 62.709 59.824 56.396 56.736 56.646 58.484 60.431 58.609 55.729 55.549 55.486 55.519 57.436 56.156 57.964 62.646 62.449 63.036 61.149 58.484 55.444 55.319 55.369 56.486 56.384 62.939 64.009 64.489 63.604 63.089 62.404 62.511 62.911 58.956 55.971 55.921 60.169 61.249 58.744 59.134 59.626 61.684 60.009 62.416 62.834 59.449 57.906 57.506 56.926 57.251 57.304 57.216 57.239 57.261 57.376 57.434 57.459 57.464 57.411 57.864 59.879 59.371 59.414 58.741 62.154 65.231 65.771 66.619 67.531 67.674 67.691 67.239 66.606 65.811 65.129 63.526 61.161 60.394 59.414 60.249 61.151 60.276 63.894 69.226 63.899 65.884 69.589 64.461 60.954 61.081 61.404 62.149 61.569 61.446 61.579 62.861 64.934 68.134 66.084 62.076 62.009 61.991 61.931 61.974 61.904 61.916 61.959 61.886 64.176 67.054 65.046 64.921 69.284 62.319 62.034 72.136 73.706 72.399 63.096 61.306 61.014 61.344 61.526 61.176 61.461 61.854 61.169 67.131 71.844 72.524 71.539 67.389 65.231 69.276 69.044 68.751 68.546 68.166 67.961 67.666 67.374 67.051 66.824 66.556 64.544 62.829 63.629 64.361 64.214 62.289 61.566 59.361 59.224 59.244 59.174 59.196 59.336 59.174 59.601 59.781 59.141 59.286 59.431 60.134 59.329 61.186 62.769 60.169 60.564 60.851 65.896 68.346 68.424 69.829 71.104 71.986 71.711 71.369 62.364 62.581 62.476 62.219 62.301 62.726 62.311 62.391 63.559 63.339 62.796 62.906 62.849 64.246 66.234 73.046 77.041 76.196 74.974 71.261 66.739 65.759 65.919 65.619 65.634 65.781 66.101 67.204 67.936 67.189 66.329 66.411 68.821 72.621 73.866 73.179 73.066 68.084 68.956 68.626 68.236 68.391 68.939 68.846 70.114 70.434 69.484 69.466 70.546 70.989 70.416 69.984 69.351 69.396 69.809 69.579 69.154 69.174 69.224 69.266
65.809 65.849 66.297 68.292 69.984 66.704 67.884 73.772 74.502 73.947 72.792 72.269 72.542 73.089 72.794 72.077 66.512 65.327 67.794 69.682 68.334 64.482 63.219 62.009 61.059 60.977 60.797 60.669 60.639 60.592 60.516 60.369 60.424 60.669 61.121 62.001 62.844 63.369 61.431 60.681 60.731 60.814 60.844 60.869 60.889 60.929 60.926 60.929 60.949 60.971 62.414 62.284 74.261 74.539 73.511 74.336 74.574 74.089 73.246 72.344 71.306 69.676 69.416 70.141 69.336 67.414 66.161 63.851 62.629 62.311 62.704 66.234 63.209 64.479 62.779 62.689 64.896 67.099 66.879 66.469 66.074 64.284 60.264 60.849 61.396 60.139 60.149 62.999 61.714 65.754 62.496 59.419 59.404 62.126 62.691 61.109 59.966 59.134 59.356 59.974 61.604 61.669 61.969 59.076 59.791 61.971 62.081 61.469 59.839 58.924 58.949 58.664 58.831 60.984 61.316 62.704 61.931 61.774 62.419 60.841 59.896 58.716 59.286 57.799 57.704 57.601 57.519 57.411 57.539 57.566 57.789 58.369 57.414 57.404 57.314 58.591 57.394 57.261 57.339 57.504 58.689 63.729 64.444 66.004 66.561 64.984 62.726 59.814 59.469 59.696 57.189 57.159 57.124 57.136 57.086 59.244 59.576 59.751 59.736 57.549 57.956 58.081 59.194 58.034 56.331 56.314 56.271 56.621 56.861 56.106 56.091 56.961 56.464 56.871 56.356 55.979 55.921 55.856 55.751 55.584 55.681 56.796 58.326 61.426 62.366 61.686 55.939 55.881 56.544 56.159 56.729 56.639 58.504 57.159 55.404 55.381 55.684 56.571 55.539 56.904 60.446 61.081 63.626 62.451 56.766 55.406 55.311 55.261 55.541 55.826 60.261 63.474 63.851 62.669 61.024 58.386 57.809 56.409 55.734 55.924 56.914 57.576 60.231 59.079 57.919 65.074 60.346 60.951 60.176 59.069 57.114 57.574 56.914 56.804 56.826 57.226 57.241 57.226 57.294 57.356 57.354 57.684 59.131 60.489 64.044 64.266 60.429 58.589 58.866 62.754 66.276 67.391 67.701 67.791 66.751 66.151 65.324 64.274 61.941 60.354 59.091 59.421 60.816 59.799 60.381 60.176 60.069 62.024 66.099 67.466 66.441 65.506 61.704 60.826 60.914 61.041 61.451 61.324 61.504 61.619 61.704 66.001 65.199 66.764 65.666 62.106 62.099 62.894 64.314 64.691 61.849 61.851 61.881 62.126 66.731 66.494 65.671 65.989 61.754 69.931 73.416 74.656 73.744 72.901 69.274 60.826 61.021 61.696 61.134 62.161 61.296 60.981 66.191 70.739 70.926 70.829 65.259 65.534 68.909 69.166 69.396 69.406 69.199 68.961 68.646 68.364 68.026 67.774 67.504 67.224 66.891 65.409 64.341 64.319 64.326 62.289 58.846 58.889 59.084 59.049 59.734 59.644 59.106 59.191 59.229 59.284 59.259 60.009 59.516 60.019 62.819 62.021 59.964 59.781 61.329 67.234 67.744 69.426 70.811 71.581 71.631 70.529 68.804 61.964 62.401 62.524 61.999 62.529 62.669 62.254 62.471 62.461 63.239 65.064 63.411 63.509 63.669 64.841 65.224 69.971 74.561 74.696 68.334 66.586 65.196 65.591 66.604 66.024 65.771 65.956 68.074 67.844 66.306 66.304 68.479 72.089 73.634 73.434 71.681 69.234 70.986 69.041 68.034 68.224 68.431 68.346 71.151 69.331 69.696 69.256 70.151 70.819 75.494 77.241 76.914 74.994 70.806 69.774 70.346 69.251 69.191 69.251 69.279
65.887 66.814 66.229 65.312 65.829 65.044 66.799 70.077 73.524 70.854 67.552 71.187 72.662 73.462 73.322 72.517 70.817 66.649 67.347 68.064 64.667 64.169 66.299 65.287 61.354 61.489 61.484 61.334 62.194 60.512 60.406 60.296 60.216 60.371 61.279 61.179 60.594 60.586 60.499 60.566 60.654 60.729 60.794 60.834 60.861 60.856 60.869 60.876 60.886 60.916 68.646 84.784 92.039 82.254 74.589 73.676 72.904 71.914 70.751 69.584 69.756 70.356 70.256 69.386 68.344 65.796 62.176 60.971 60.849 61.569 64.561 67.489 66.949 66.149 62.454 61.434 61.766 66.189 65.066 63.266 61.231 60.254 60.684 64.131 62.531 59.669 59.334 61.729 62.791 61.561 59.406 59.391 59.311 60.064 61.739 59.221 59.076 59.059 59.356 61.406 62.466 61.816 60.886 59.171 59.224 59.034 59.161 60.851 58.621 58.561 58.466 58.261 58.276 60.149 60.596 64.191 65.229 65.674 65.401 63.889 60.069 58.004 58.219 57.716 57.601 57.496 57.389 57.291 57.426 57.459 57.736 57.989 57.291 57.291 57.224 58.246 58.271 58.521 59.264 58.891 58.201 63.634 64.789 65.509 66.566 65.404 63.894 63.141 63.841 63.424 57.819 57.109 57.106 57.666 57.071 58.881 57.831 57.941 57.711 57.716 56.281 56.269 56.959 56.306 56.249 56.254 56.161 56.329 57.034 55.959 55.926 57.206 56.616 56.669 56.746 56.406 55.869 55.736 55.591 56.389 58.404 58.541 58.644 59.071 58.644 62.324 57.674 55.674 55.631 55.649 56.386 55.779 57.694 55.451 55.346 55.359 56.824 55.996 55.346 55.556 59.321 60.209 62.384 62.994 59.224 57.654 57.994 55.749 55.271 55.434 56.526 60.414 63.516 62.111 58.236 55.656 57.646 56.169 55.826 57.036 58.006 58.054 57.954 56.761 58.394 60.506 60.306 59.476 56.521 57.241 56.551 56.564 56.736 56.736 56.726 57.724 57.459 57.294 57.314 58.716 60.879 62.719 64.381 65.236 65.699 65.481 63.324 58.104 59.426 60.104 66.761 66.784 66.251 65.506 64.886 62.211 60.689 58.866 60.956 61.691 63.741 62.916 63.779 59.976 59.774 59.841 59.881 59.979 63.059 61.741 60.474 60.506 60.621 60.736 61.271 67.044 67.229 63.976 61.726 62.229 63.554 65.406 64.681 66.179 63.696 62.384 63.834 64.079 67.599 66.114 64.441 61.726 61.781 61.714 62.591 67.524 65.141 65.064 64.451 64.046 72.569 74.081 74.689 73.586 72.286 63.844 60.879 61.076 60.996 62.079 61.131 61.084 67.921 67.819 67.914 68.019 64.879 67.041 67.954 68.239 68.539 68.784 69.131 69.344 69.416 69.331 69.094 68.801 68.461 68.161 67.879 64.909 64.344 64.306 64.309 60.276 58.506 58.416 58.401 58.779 59.151 59.414 58.844 58.939 59.036 59.106 59.726 60.171 59.861 62.026 62.276 60.661 60.861 60.949 61.481 62.934 65.489 71.526 71.559 71.591 70.456 67.059 63.424 62.131 62.264 61.944 61.866 62.031 62.089 62.519 62.944 62.249 63.644 64.939 64.909 67.596 66.609 64.801 64.201 64.644 67.316 67.314 64.954 64.804 65.416 65.896 66.301 67.419 67.239 67.431 68.244 66.514 66.239 67.816 72.876 73.454 73.739 72.334 68.951 69.269 70.864 70.071 69.384 69.041 68.634 68.506 69.664 68.869 75.719 77.449 76.909 74.916 78.441 80.331 81.394 81.301 76.959 70.169 70.666 69.299 69.211 69.291 69.296
66.007 65.634 65.309 65.207 65.147 65.032 65.304 67.242 67.834 66.424 65.672 67.932 71.962 72.887 74.229 73.392 72.254 70.342 66.602 64.217 63.864 63.734 66.214 66.314 63.089 62.854 63.484 62.022 60.949 60.419 60.346 60.266 60.126 60.154 60.239 60.379 60.304 60.376 60.416 60.559 60.671 60.784 60.834 60.876 60.886 60.906 60.886 60.844 60.854 60.869 62.839 82.896 93.671 84.391 73.454 71.126 70.446 69.426 70.089 70.391 69.931 68.794 67.289 64.941 61.941 61.669 62.659 66.046 62.941 62.641 64.794 65.761 66.551 64.171 61.146 61.734 60.911 62.031 60.704 60.224 60.371 60.056 62.069 65.114 64.329 59.816 59.279 59.699 61.696 59.534 59.511 59.534 59.289 59.236 62.731 62.844 59.881 59.189 59.459 60.811 60.861 61.374 60.706 59.639 59.181 58.901 59.011 58.914 60.019 59.051 58.514 58.416 59.224 57.949 58.041 64.451 66.091 66.701 65.449 64.756 61.534 58.374 58.421 57.846 57.474 57.559 57.339 57.214 57.354 57.369 57.314 57.174 57.166 57.141 57.124 57.626 58.491 57.979 57.351 57.101 57.266 61.456 64.506 64.981 65.419 64.929 64.249 64.146 63.491 62.426 58.599 57.696 60.889 62.626 61.296 57.869 57.646 56.479 56.961 58.366 56.819 56.181 56.369 56.959 56.159 56.154 56.074 55.981 56.131 55.884 55.866 56.206 57.451 56.099 56.029 56.669 56.009 55.589 56.531 60.611 61.064 58.809 58.604 61.211 65.951 60.326 61.811 58.444 56.081 55.571 55.486 55.351 55.334 55.301 55.236 55.334 57.644 55.799 55.199 57.684 59.991 60.231 60.441 59.594 56.099 60.194 60.574 56.411 55.234 55.621 56.321 56.829 58.994 57.226 56.956 59.586 60.461 58.481 58.499 59.264 58.044 56.664 57.329 56.371 56.214 56.264 56.469 56.366 56.374 56.639 57.211 56.549 58.341 58.094 56.666 56.979 57.504 57.459 62.011 64.214 64.794 65.596 66.486 66.369 66.131 65.356 64.186 58.346 59.419 58.464 64.079 65.064 63.296 60.629 60.061 58.849 58.839 59.124 63.811 64.909 62.421 65.261 59.531 59.766 60.164 59.846 59.854 59.979 60.031 60.124 60.216 60.944 60.549 61.384 63.174 66.916 63.899 65.699 61.809 61.561 61.546 63.181 66.154 66.236 62.266 61.844 64.264 64.314 68.691 67.794 64.146 62.714 61.651 61.644 61.521 64.879 66.379 65.241 64.159 61.759 71.716 73.546 75.279 74.829 72.916 72.414 62.189 60.941 61.004 61.496 61.266 61.194 63.511 64.011 66.459 66.139 65.156 66.441 66.979 67.274 67.496 67.821 68.094 68.329 68.644 68.939 69.231 69.439 69.319 69.114 67.646 64.511 64.409 64.316 64.001 59.504 58.436 58.394 58.374 59.339 58.391 58.341 58.356 58.451 58.631 59.029 60.394 60.686 59.521 60.811 60.466 59.314 59.434 60.604 64.299 62.689 64.421 69.964 71.371 71.801 71.664 64.691 60.646 62.621 62.146 61.761 61.791 61.934 62.041 62.086 62.264 62.294 62.711 62.674 64.616 69.771 70.306 69.766 67.634 66.151 66.461 65.624 65.264 65.174 65.729 65.829 65.989 67.019 71.034 71.936 66.859 66.259 66.391 73.569 75.146 74.226 72.726 70.371 71.196 71.269 68.009 68.466 70.479 70.026 69.379 70.699 69.931 69.369 75.656 77.946 78.169 78.096 78.861 80.236 81.406 80.956 77.469 70.059 70.709 69.399 69.244 69.291 69.309
65.577 65.257 65.297 65.489 65.777 65.887 65.954 66.097 64.589 64.657 65.812 66.139 69.992 72.527 73.439 73.514 72.784 71.989 67.757 64.134 63.787 63.999 67.114 69.247 64.489 62.947 63.364 63.492 61.892 60.414 60.286 60.214 60.146 59.949 59.984 60.081 60.991 62.559 61.236 61.511 63.031 60.794 60.814 60.834 60.856 60.866 60.906 60.841 60.804 60.829 61.059 74.726 77.116 70.489 68.519 69.779 70.419 70.264 69.406 68.199 66.244 63.571 61.124 60.964 60.946 61.049 68.229 64.476 65.704 64.936 66.121 66.789 62.979 66.451 63.414 60.419 60.299 60.556 60.114 59.519 59.524 59.541 59.589 61.689 61.486 59.456 59.334 59.344 59.394 59.384 59.421 60.174 59.254 59.181 62.111 62.499 60.336 61.286 66.016 66.019 64.376 62.859 61.334 60.136 59.794 59.964 62.336 62.669 62.679 62.939 59.959 59.596 60.451 61.111 59.884 64.396 66.024 67.364 65.404 64.276 61.866 60.484 61.441 60.066 57.374 57.989 57.196 57.101 57.216 57.279 57.331 57.444 57.049 57.039 57.024 57.929 57.099 57.074 57.056 57.054 57.061 58.484 62.934 64.119 63.801 62.674 61.739 59.274 58.901 58.311 58.254 58.934 62.296 63.404 62.159 58.656 57.069 56.426 56.409 57.631 56.684 56.111 56.066 56.391 56.089 55.971 55.916 55.866 56.379 55.821 55.804 55.774 57.264 56.976 55.644 56.186 56.669 57.169 61.626 62.746 62.534 61.009 62.351 62.909 63.934 59.669 61.514 59.394 56.316 55.494 55.376 55.234 55.241 55.199 55.204 56.066 57.624 55.256 55.126 56.689 58.204 56.756 55.186 55.086 55.069 56.856 57.261 55.231 56.321 59.081 56.496 55.429 56.036 58.894 60.969 61.159 60.999 60.484 59.374 57.706 57.856 56.439 56.269 56.664 56.149 56.111 56.609 56.706 56.316 56.404 56.824 56.506 56.659 56.946 56.661 56.364 56.789 57.411 61.276 65.139 66.211 66.294 65.891 65.061 64.389 63.686 61.444 59.644 58.991 59.361 61.039 59.784 58.474 58.376 58.971 60.341 59.636 58.989 59.244 64.504 64.439 64.326 59.456 61.041 60.466 59.836 59.776 59.869 61.386 61.556 64.586 65.926 63.569 61.881 66.176 66.224 65.989 67.244 63.636 61.349 61.384 61.806 62.326 63.039 61.631 61.684 64.044 65.334 63.286 66.921 66.876 62.614 61.516 61.574 61.526 63.461 65.619 66.641 68.046 66.944 64.664 72.709 74.844 75.706 74.104 72.931 66.226 60.926 60.954 61.064 61.254 61.059 60.994 61.061 61.281 64.326 64.416 64.276 65.011 66.121 66.564 66.849 67.129 67.396 67.659 67.976 68.219 68.499 68.771 68.999 66.626 64.411 64.366 64.296 63.281 58.956 58.734 58.386 59.029 61.356 59.271 58.326 58.311 58.296 58.334 58.361 58.851 58.784 58.786 59.864 59.411 59.264 59.349 59.901 59.969 62.266 67.946 65.331 65.181 66.279 67.721 63.114 61.641 63.341 61.676 61.639 61.781 61.886 63.046 62.096 62.231 62.576 62.486 62.491 67.291 70.119 71.404 71.181 70.304 68.584 63.821 65.249 66.256 66.124 65.984 65.984 66.456 66.796 67.634 69.136 66.326 66.294 70.301 75.039 75.979 75.456 71.944 69.099 72.236 72.681 70.614 68.496 68.131 68.364 68.289 70.406 71.621 71.761 77.461 78.239 78.579 78.644 79.214 79.636 81.524 79.774 72.859 70.006 70.656 69.359 69.306 69.374 69.321
65.182 65.144 65.517 67.579 67.164 65.709 64.949 64.714 64.729 64.734 65.339 66.272 67.789 71.479 72.644 73.364 73.024 72.332 70.392 65.167 64.064 64.327 68.002 68.359 63.357 62.509 62.174 62.602 61.217 60.432 60.186 60.146 60.079 59.981 59.856 59.924 62.061 62.994 62.991 61.534 63.621 63.141 60.919 60.859 60.864 60.806 60.821 60.829 60.754 60.786 60.871 61.456 62.006 60.949 65.684 69.881 68.746 67.526 66.586 62.916 61.091 61.009 60.974 60.961 61.816 61.779 66.051 66.421 65.686 65.784 65.254 64.471 64.029 64.434 63.196 61.564 60.419 59.839 59.316 59.236 59.221 59.184 59.851 59.834 59.404 60.431 59.364 59.361 59.379 59.346 59.291 59.714 59.359 59.144 61.436 65.454 62.716 63.646 67.166 66.846 68.876 68.106 60.351 58.781 59.194 58.951 59.734 60.389 60.166 61.259 60.106 58.184 58.026 58.316 61.499 64.899 66.469 66.859 65.406 64.629 60.626 58.811 60.199 59.464 57.269 57.171 57.059 57.024 57.129 57.201 57.171 57.479 56.956 56.951 56.944 57.834 57.111 56.941 57.216 57.461 56.981 58.309 60.334 60.316 58.839 61.291 60.906 58.091 58.221 57.556 56.436 56.444 60.721 60.439 58.231 57.939 56.856 56.246 56.309 59.726 56.711 56.021 56.739 55.951 56.004 55.894 55.861 55.809 56.539 55.751 55.651 55.684 57.341 57.011 55.654 56.259 60.619 62.644 62.874 64.044 63.714 62.429 61.959 58.394 62.971 59.046 57.681 56.841 55.509 55.354 55.209 55.166 55.169 55.131 55.159 56.864 56.489 55.139 55.046 55.321 55.181 56.009 60.586 57.611 55.046 57.634 62.189 62.774 61.266 63.019 57.551 58.851 59.376 60.816 60.964 60.556 59.204 56.961 61.221 59.624 57.261 55.836 55.889 56.606 57.141 56.104 56.151 56.349 56.249 56.314 57.434 56.579 56.326 56.184 56.049 57.289 56.396 57.176 58.541 65.164 65.214 64.586 63.824 62.584 60.846 58.996 57.536 58.499 58.081 59.174 58.336 58.744 58.386 58.659 59.279 63.209 63.886 58.809 59.101 64.924 63.134 62.484 59.321 59.476 59.526 59.614 59.736 59.901 62.466 65.869 63.831 65.911 63.401 67.519 62.921 68.074 62.759 66.846 61.389 61.309 67.376 63.506 62.689 62.124 61.436 61.499 61.556 62.499 64.266 64.179 63.844 63.206 63.071 64.001 61.449 61.399 65.319 64.869 65.409 63.494 61.271 65.249 73.134 74.109 74.749 73.521 68.366 60.944 62.579 63.386 66.889 65.976 61.059 65.351 62.521 63.984 63.824 63.491 63.329 62.684 63.486 64.754 65.399 66.326 66.679 66.976 67.256 67.534 67.801 68.036 64.671 62.956 63.526 63.741 61.989 58.861 58.639 58.571 58.814 60.041 58.839 58.314 58.681 58.259 58.291 58.311 58.344 58.476 58.531 59.391 59.199 59.336 59.381 59.561 59.974 66.121 71.874 72.234 71.419 70.079 62.911 61.516 61.941 62.206 62.041 61.786 61.716 62.776 62.874 62.054 62.859 62.664 62.779 64.104 69.269 70.744 72.011 71.366 69.906 65.909 64.034 63.536 63.941 65.131 66.124 66.529 66.864 67.539 66.509 66.361 66.296 66.501 68.881 74.326 74.751 74.909 69.181 68.016 70.459 72.006 73.439 74.824 72.154 69.729 68.576 70.554 71.269 72.489 77.556 77.901 78.009 78.191 79.246 80.679 81.521 79.116 71.711 70.076 69.949 69.394 69.331 69.364 69.309
65.727 65.144 65.197 66.114 66.224 65.117 64.714 64.699 64.812 65.664 66.342 65.662 64.864 69.884 72.189 72.679 72.239 71.894 71.974 70.982 66.122 64.047 64.647 63.739 63.349 62.429 61.834 61.449 60.989 60.689 60.371 60.076 60.019 59.941 59.851 59.789 60.394 62.581 64.366 64.169 61.476 64.804 63.309 61.134 61.166 60.784 60.734 60.706 60.664 60.714 60.804 60.919 60.936 60.881 63.001 66.886 62.301 62.606 65.616 63.231 60.991 60.956 61.011 62.439 65.421 64.416 66.209 62.761 65.391 63.684 63.199 65.966 65.809 66.129 61.871 61.949 61.406 59.286 59.221 59.191 59.349 61.404 64.944 60.784 60.664 62.679 59.266 59.309 59.321 59.304 59.229 59.179 59.126 59.086 60.414 63.604 62.484 62.519 63.116 65.416 68.429 68.446 62.814 58.694 58.934 58.786 58.604 58.579 58.451 60.636 59.399 58.039 57.914 59.141 61.159 64.584 65.979 66.414 65.356 64.426 60.314 57.571 57.521 57.476 57.194 57.056 57.011 57.384 57.019 57.064 56.986 56.911 56.906 56.894 56.859 57.131 56.894 56.979 57.619 57.234 57.249 62.601 57.874 61.434 60.349 61.101 60.009 59.036 56.874 56.506 56.356 56.394 57.229 56.386 56.134 56.254 57.754 57.441 56.931 59.316 57.669 55.931 55.924 55.869 56.099 55.824 55.829 55.774 56.309 56.266 56.906 57.119 57.564 57.411 55.616 58.296 62.861 63.669 64.351 64.691 63.426 62.324 61.216 60.504 60.239 61.061 60.664 56.011 56.819 56.834 55.084 55.134 55.051 55.026 55.144 57.376 55.234 55.029 54.959 56.391 55.921 63.589 66.019 58.061 58.371 65.881 64.149 58.476 59.331 62.721 60.234 59.734 57.964 59.941 60.926 57.769 56.004 56.769 57.456 57.931 57.259 56.226 55.846 56.141 57.631 57.741 56.291 56.289 56.219 56.756 57.149 56.151 56.121 59.506 62.581 62.626 57.136 57.154 57.176 62.466 62.896 60.869 58.594 58.219 57.561 57.444 57.516 57.926 58.481 58.704 58.301 59.226 59.154 58.471 59.384 60.299 61.764 58.764 59.481 59.111 59.174 59.171 59.231 59.379 59.539 59.684 59.799 60.096 65.446 66.289 64.526 64.814 63.901 65.629 62.966 63.969 66.091 64.769 61.104 65.916 73.136 73.151 72.126 72.859 68.616 66.311 62.789 61.444 61.486 62.199 63.574 66.099 65.659 66.836 63.616 61.346 61.719 64.434 62.214 61.896 61.179 61.281 68.564 72.754 74.231 74.144 72.819 65.976 60.959 67.666 70.571 70.221 70.536 64.371 63.654 63.001 62.856 62.656 62.841 61.909 62.744 62.611 62.441 62.501 62.976 64.809 65.669 66.551 66.814 66.919 63.121 62.946 62.906 62.836 59.711 59.304 59.071 58.424 58.431 59.599 58.326 58.284 58.254 58.236 58.266 58.291 58.336 58.404 59.671 59.786 59.779 59.139 59.701 59.596 60.721 70.586 72.074 72.161 71.276 69.476 62.406 61.804 61.659 61.604 62.391 61.666 61.664 61.719 61.829 62.934 62.889 62.686 62.889 68.001 70.031 71.354 72.004 70.716 68.951 64.829 63.441 63.519 63.641 63.829 63.914 64.609 67.589 67.656 66.714 67.246 67.814 67.946 67.011 72.336 72.109 69.974 68.449 67.759 67.751 68.924 68.966 70.061 70.339 69.706 73.486 75.409 72.361 69.854 74.229 74.969 75.169 77.391 79.549 80.859 81.154 78.941 70.726 69.884 70.286 69.366 69.374 69.381 69.381
65.504 65.422 65.682 64.974 64.904 64.757 64.707 64.879 66.019 65.544 64.744 64.629 64.517 65.419 68.877 71.917 71.917 72.394 72.597 71.942 68.497 63.829 63.779 63.197 62.612 62.317 62.112 62.769 62.399 62.632 61.284 60.276 59.914 59.871 59.834 59.696 59.689 59.999 63.519 64.676 63.101 61.961 62.171 60.671 60.656 60.626 60.584 60.536 60.529 60.624 60.681 60.784 60.824 60.871 60.876 61.764 63.654 62.129 64.541 62.349 61.324 62.564 63.776 63.269 63.071 61.501 64.129 63.641 68.369 63.536 63.254 60.896 63.509 62.749 62.681 63.374 62.256 59.369 59.214 60.791 61.579 59.679 60.101 62.929 62.514 61.946 59.554 59.231 59.231 59.889 59.879 59.104 59.074 59.016 59.201 61.791 64.246 62.616 62.284 60.184 63.004 65.261 60.446 58.586 58.909 59.531 59.131 58.776 58.399 58.319 58.534 58.386 58.231 58.744 60.796 64.249 65.069 66.001 64.779 63.711 59.166 57.539 57.381 57.274 57.089 56.991 56.906 57.981 56.926 56.936 56.881 56.741 56.774 56.759 56.769 56.776 56.791 56.819 57.521 57.554 59.006 63.689 59.894 60.379 59.339 59.339 58.944 57.996 57.194 56.721 56.304 56.306 56.344 56.131 56.094 56.099 57.506 58.211 56.521 56.479 57.571 55.924 55.851 55.821 55.814 56.091 55.786 55.736 56.181 58.549 58.771 58.634 57.791 56.951 56.734 60.964 62.506 63.714 64.304 63.316 62.389 62.454 58.639 56.186 56.604 56.106 57.134 56.669 56.786 58.149 55.444 55.046 55.026 54.999 56.146 57.636 56.049 55.559 57.261 56.191 56.099 63.604 61.579 56.634 62.776 65.864 63.976 57.819 57.811 57.451 59.246 58.961 56.959 55.889 56.831 56.569 55.701 55.744 55.666 55.591 56.576 56.471 55.911 55.844 56.886 59.346 56.616 56.016 56.946 58.199 57.959 60.096 62.946 63.549 64.161 63.944 61.496 57.476 57.284 59.166 57.939 57.721 57.186 57.314 57.729 57.429 57.516 60.259 63.541 61.999 58.661 57.989 58.059 58.156 58.361 59.431 58.856 58.649 60.141 59.456 58.941 59.126 59.269 59.411 62.509 62.574 60.664 59.864 66.394 65.601 65.216 62.401 61.594 61.899 61.144 61.076 61.969 60.886 61.031 68.616 74.076 74.809 74.454 74.481 74.139 73.549 72.276 64.046 62.454 61.376 61.829 62.776 65.261 66.439 67.201 62.279 61.226 61.646 61.314 62.474 63.479 64.614 64.196 67.816 73.066 73.931 69.609 62.671 65.616 67.484 68.376 69.169 68.791 69.194 65.691 61.476 61.816 62.356 62.076 62.866 62.454 62.444 61.814 61.799 62.456 62.439 64.079 64.986 64.861 64.926 62.751 62.759 62.781 62.296 59.104 59.346 59.254 58.494 58.346 58.386 58.731 58.374 58.271 58.249 58.271 58.274 58.354 58.406 63.489 60.431 60.309 60.134 60.389 59.756 60.994 70.529 71.659 71.851 71.894 70.901 61.496 61.694 62.086 61.416 61.546 61.576 61.551 61.619 61.746 62.406 62.839 62.636 62.694 69.414 70.476 71.364 71.486 70.099 67.759 64.054 63.459 63.501 63.589 63.636 63.791 64.281 66.171 65.679 67.156 68.849 69.909 70.236 66.954 66.714 67.654 68.721 67.981 69.846 69.426 70.421 71.731 67.949 69.459 68.609 72.974 74.979 73.981 70.191 70.246 69.594 69.384 78.221 80.039 81.081 80.969 79.721 71.559 69.831 70.151 69.361 69.381 69.411 69.381
65.449 65.287 64.869 64.769 64.807 64.874 66.054 65.919 65.149 64.914 64.599 64.604 65.147 64.692 68.467 72.064 72.674 72.799 72.627 71.472 66.409 66.487 64.639 63.022 62.792 62.494 62.322 63.329 63.397 63.157 61.486 60.386 59.844 59.831 59.776 59.709 59.554 59.614 59.989 62.386 63.739 66.046 63.156 61.194 60.491 60.481 60.351 60.324 60.394 60.509 60.589 60.659 60.741 60.791 60.814 61.721 63.421 63.629 60.909 62.024 64.139 64.279 63.574 60.936 61.129 62.556 63.156 62.129 63.854 62.744 61.789 60.216 60.669 61.406 67.254 65.331 62.176 60.859 59.199 61.631 61.574 63.291 64.691 63.544 62.956 60.509 59.314 59.171 60.214 60.596 61.549 59.139 58.994 58.986 58.941 58.859 60.054 60.584 60.584 60.939 62.686 62.256 59.306 59.249 59.209 59.581 58.731 58.931 58.636 58.884 59.376 59.356 59.454 58.881 58.371 59.979 60.536 61.131 60.409 60.511 58.541 59.149 58.731 57.229 56.966 56.884 56.804 57.429 56.834 56.884 56.789 56.704 56.724 56.719 56.689 57.236 58.086 57.409 56.899 56.821 57.546 57.901 58.796 58.119 57.559 57.074 56.629 56.476 56.376 56.286 56.206 56.206 56.331 56.244 56.021 56.011 56.996 58.209 56.644 55.841 56.384 56.211 55.774 55.754 55.784 57.251 55.699 55.641 56.214 57.719 56.434 57.749 58.161 55.776 58.539 58.839 61.269 62.714 63.256 62.614 61.646 58.376 55.901 55.429 55.439 55.764 57.349 60.256 60.711 59.974 57.341 54.981 54.901 57.451 64.394 64.814 57.304 56.374 59.571 55.889 54.826 57.126 56.846 56.819 61.076 64.831 63.179 61.689 60.071 58.431 60.924 55.869 55.416 55.471 55.581 57.074 55.754 55.611 55.726 55.546 55.619 56.666 55.789 55.834 57.724 56.959 56.414 57.914 61.756 62.504 63.404 63.899 65.266 65.034 64.794 63.926 61.456 56.846 57.126 57.364 59.221 60.791 62.979 57.931 60.201 57.944 59.919 63.136 61.811 59.281 57.934 58.854 60.274 59.121 58.226 58.354 58.476 60.299 63.714 67.291 66.126 65.146 60.809 61.204 62.219 63.429 60.776 59.219 63.651 62.789 63.791 62.569 64.244 62.094 60.824 60.631 60.661 60.811 61.379 70.299 73.211 73.896 75.059 75.621 76.284 74.671 74.029 73.349 72.426 62.239 61.321 65.734 68.031 66.756 65.714 62.494 61.254 61.096 61.386 66.551 66.526 65.111 66.404 63.534 66.296 67.754 61.839 60.889 66.171 66.886 62.501 62.594 65.011 62.309 62.481 60.269 60.216 60.311 60.716 61.546 61.884 61.746 59.884 60.994 60.536 61.341 63.469 64.076 64.739 64.579 62.586 62.481 62.571 61.739 60.779 59.246 58.571 58.564 58.369 58.604 59.201 58.691 58.259 58.249 58.286 58.954 58.349 61.471 61.284 59.684 59.444 59.591 59.634 59.441 62.069 71.189 71.916 71.196 71.536 69.479 62.221 61.874 61.459 61.351 61.489 61.746 62.501 61.606 62.099 61.921 62.106 62.441 63.211 67.914 69.374 69.974 70.394 69.491 64.621 63.479 63.446 63.474 63.504 63.939 64.301 64.674 65.104 65.086 65.384 67.839 68.916 70.581 69.731 68.559 68.039 67.841 67.509 67.754 68.471 68.854 68.564 68.444 68.776 68.369 68.346 69.581 68.989 72.499 72.694 71.259 70.661 77.409 80.811 81.451 81.911 76.521 70.444 70.056 69.994 69.361 69.409 69.461 69.404
64.927 64.862 64.782 64.687 64.742 66.052 65.672 64.799 64.589 64.547 65.039 65.159 65.982 70.029 72.137 72.964 72.532 71.644 68.509 65.959 64.994 64.734 63.452 63.222 62.934 62.662 62.437 62.497 63.537 63.769 62.679 60.624 60.159 59.711 59.691 59.604 59.514 59.436 59.496 60.104 61.644 65.809 63.066 63.026 60.646 60.216 60.071 60.144 60.289 60.391 61.731 61.539 63.136 61.361 60.726 61.374 64.476 66.624 65.004 64.951 64.236 62.851 61.061 60.469 60.479 60.254 61.491 60.146 60.286 60.921 60.094 59.694 59.616 59.709 61.841 65.859 62.771 60.789 59.254 59.341 60.919 62.734 61.674 60.814 59.181 59.139 59.164 59.199 60.521 63.616 61.199 60.159 58.966 59.176 60.171 59.984 61.274 66.041 60.229 60.229 62.739 59.466 58.779 59.449 58.806 58.286 58.166 58.289 58.166 57.994 57.871 58.169 58.094 57.901 58.859 61.801 61.696 61.254 60.744 60.114 59.644 60.871 58.936 57.496 56.841 56.706 56.644 56.649 56.719 56.741 56.754 56.599 56.684 57.184 56.656 57.439 58.286 57.039 56.589 56.551 56.561 56.424 56.796 58.051 56.646 56.551 56.456 56.386 56.251 56.304 56.196 56.099 56.159 56.269 55.954 55.929 56.096 57.924 58.039 55.971 56.794 56.494 55.669 55.624 56.066 56.484 56.461 56.334 57.081 59.761 60.316 61.719 62.004 57.429 57.364 57.499 57.026 60.859 61.974 62.169 59.949 55.899 55.546 55.416 55.484 55.861 55.249 56.966 58.986 56.014 59.564 54.899 54.881 61.999 65.441 65.371 58.019 55.681 55.844 55.486 56.181 58.524 55.209 55.774 56.239 59.891 61.064 57.519 56.859 57.166 57.201 55.479 55.326 55.381 55.599 56.284 56.029 55.519 55.561 55.676 55.571 56.681 57.239 56.281 56.109 58.691 61.096 63.049 63.671 64.324 64.971 65.016 65.234 64.026 63.181 62.476 61.136 57.736 57.249 57.054 61.061 62.791 63.314 66.501 66.219 57.439 58.061 59.204 57.826 59.006 58.024 58.376 58.501 58.064 58.164 58.289 58.421 65.444 65.146 65.761 65.314 62.716 61.874 60.969 62.414 61.461 59.626 58.684 60.064 64.519 63.421 60.351 60.721 59.801 60.516 60.781 60.641 60.946 60.881 62.769 64.524 72.806 75.896 73.504 74.011 74.271 74.719 73.984 71.594 61.379 61.294 63.644 68.891 65.576 62.611 61.199 61.381 61.019 61.014 62.336 64.824 64.499 62.654 67.724 62.921 61.676 60.904 60.839 65.756 63.766 63.671 68.994 65.849 61.269 60.551 60.236 60.174 60.194 60.176 60.221 60.324 59.891 59.681 59.621 59.656 59.681 59.659 59.459 60.539 62.034 62.349 62.429 62.396 60.026 60.184 59.511 58.561 58.371 58.416 58.439 60.611 58.946 62.884 60.496 58.386 59.219 60.694 60.964 61.979 59.399 58.934 59.051 59.229 59.336 64.879 71.941 72.089 71.881 71.766 68.269 61.181 61.454 61.366 61.351 61.476 61.911 61.899 61.639 62.204 61.916 62.281 66.729 70.346 67.416 65.039 66.234 68.729 67.446 63.471 63.441 63.496 63.541 63.559 65.569 67.124 65.476 65.746 65.224 65.106 65.779 66.804 67.836 68.709 68.306 67.326 68.136 70.821 68.621 68.089 67.926 67.971 68.139 69.501 69.499 69.396 68.614 69.444 76.966 77.564 77.736 77.604 78.859 80.376 81.561 80.664 75.861 70.191 70.296 70.174 69.369 69.391 69.439 69.419
64.857 64.779 64.767 65.459 67.407 67.714 66.007 64.594 64.557 64.717 66.544 68.579 71.719 72.409 72.514 72.002 70.304 65.977 64.832 64.417 64.002 63.667 63.557 63.377 63.067 62.839 62.632 62.542 62.732 63.647 62.921 61.836 60.906 61.319 59.781 59.516 59.511 59.411 59.361 59.366 59.941 62.569 64.124 62.264 62.774 59.816 59.889 60.026 60.151 60.286 60.466 61.414 61.554 60.594 60.821 62.721 64.951 67.049 64.406 62.684 60.499 60.184 61.511 62.944 59.959 60.176 60.476 59.934 59.861 59.741 59.621 59.916 59.534 63.166 62.106 61.859 62.199 61.931 60.251 61.476 60.851 59.834 59.211 59.189 59.166 59.161 59.549 60.039 62.949 62.666 61.966 60.949 60.429 62.651 64.866 65.571 60.856 65.039 61.826 59.549 59.304 62.841 63.119 62.911 58.776 58.096 58.006 57.921 57.866 57.814 57.771 57.701 57.616 58.244 60.606 63.676 64.579 64.809 64.336 63.111 58.674 57.751 57.209 57.086 56.796 56.664 56.594 56.531 56.636 56.649 57.036 57.026 56.549 56.564 56.561 56.716 56.876 56.921 56.746 56.536 56.611 56.461 56.844 56.716 56.369 57.074 56.306 56.236 56.224 56.439 56.079 56.039 56.029 56.306 55.889 55.869 55.931 56.629 56.976 55.769 56.071 56.404 55.541 55.509 55.649 56.056 57.821 60.159 61.881 62.324 63.731 63.566 63.061 60.514 55.609 55.659 55.561 57.041 59.774 57.669 55.936 55.729 56.634 55.749 55.851 55.314 55.169 55.021 56.419 54.994 54.939 54.816 56.959 59.709 63.046 63.764 61.084 55.374 54.611 57.114 59.201 60.146 56.306 56.031 55.919 55.641 56.686 57.136 55.474 55.296 55.361 55.276 55.294 55.364 55.444 55.764 56.621 55.686 55.516 55.526 55.571 55.759 57.304 56.269 60.916 63.706 64.084 64.774 65.841 64.936 64.111 63.451 62.994 60.689 59.671 57.169 56.616 57.084 56.651 57.634 59.199 61.264 65.549 58.574 61.949 57.514 57.556 57.396 57.561 57.701 57.676 57.754 57.849 57.984 58.146 58.304 59.316 63.261 63.661 65.701 66.946 61.274 60.529 59.149 59.366 60.164 58.969 59.999 62.724 65.979 66.336 62.879 59.116 59.839 60.659 61.069 61.434 62.686 60.829 60.894 60.979 74.259 76.964 72.421 73.036 72.716 72.636 73.076 67.179 61.184 64.766 63.949 65.311 62.409 62.739 61.224 60.956 61.399 60.921 63.189 64.796 64.204 66.499 62.256 60.959 61.126 60.924 61.419 61.864 67.511 64.804 67.036 63.311 61.126 60.326 60.336 60.204 60.504 60.304 59.834 59.706 59.651 59.596 59.506 59.696 59.814 59.364 59.204 59.139 59.094 59.506 59.569 60.474 60.279 59.449 58.529 58.659 59.024 59.159 59.554 61.761 67.861 67.824 67.639 59.081 62.934 60.901 61.279 62.979 58.906 58.931 59.319 59.259 59.549 65.029 71.784 72.254 71.546 71.291 66.749 61.036 61.359 61.481 61.909 61.421 61.444 61.484 62.821 62.841 62.594 65.074 69.751 70.734 70.869 70.696 66.049 63.276 64.364 63.644 63.469 63.534 63.531 64.446 66.816 66.211 64.416 66.516 65.606 65.266 65.986 67.499 66.589 66.729 66.954 67.189 68.266 70.124 69.421 69.179 68.944 68.336 68.076 68.219 68.374 68.841 69.649 70.961 77.721 78.031 77.681 79.454 80.216 80.966 81.516 79.781 74.136 70.084 71.011 70.144 69.406 69.444 69.469 69.434
64.869 65.452 69.049 68.112 68.079 68.792 65.977 64.544 64.582 66.102 68.517 70.882 71.967 72.302 71.557 68.899 65.254 64.842 63.964 64.799 64.249 63.717 63.707 63.579 63.222 62.999 63.434 62.644 62.644 63.087 62.764 63.784 64.484 63.829 64.879 63.864 61.719 59.404 59.301 59.214 61.034 61.019 64.289 65.211 63.161 60.429 59.784 59.944 60.824 60.424 60.444 61.789 62.214 62.551 61.299 61.969 61.774 61.919 61.006 60.309 60.226 60.246 64.069 64.174 60.551 60.126 60.234 59.804 59.769 59.661 59.574 59.506 59.461 61.396 60.246 62.724 61.881 60.289 59.654 59.284 59.204 59.131 59.104 63.631 64.421 61.711 64.569 63.489 63.074 62.911 60.056 58.954 58.849 59.896 59.611 66.081 65.094 64.854 60.619 58.126 59.114 62.059 60.511 59.634 58.869 58.016 61.241 61.491 58.056 57.981 57.684 57.736 57.709 57.461 57.589 64.071 65.746 65.819 64.571 64.396 59.031 57.109 57.229 57.026 56.694 56.679 56.596 57.004 56.554 56.539 57.191 56.891 56.436 56.476 56.514 57.081 56.711 56.914 57.696 56.941 56.859 56.516 56.259 56.181 56.191 56.814 56.206 56.146 56.166 56.046 56.031 55.999 55.989 56.206 55.871 55.504 55.391 55.526 55.654 56.566 57.324 56.926 55.616 55.546 58.344 57.679 58.576 62.246 63.351 63.916 64.446 64.069 63.616 62.071 56.764 56.709 56.634 56.816 55.439 55.351 55.484 55.501 56.076 55.944 55.284 55.201 55.209 55.479 54.966 54.909 55.856 54.734 57.776 58.704 60.504 62.786 58.896 56.516 57.131 60.204 56.259 59.396 57.591 55.159 55.096 55.101 55.336 57.359 57.759 55.721 55.669 56.421 55.764 55.319 55.361 55.389 55.836 55.956 55.551 55.386 55.294 55.584 56.261 56.639 59.751 64.154 64.831 64.441 63.706 63.206 62.046 60.679 57.224 57.249 56.539 56.244 56.701 57.521 57.144 57.294 60.511 62.704 62.646 62.749 57.596 57.986 57.349 57.361 57.501 57.564 57.616 57.646 57.801 57.979 58.699 59.741 60.596 64.009 61.646 61.434 63.139 63.349 62.069 59.019 59.099 59.499 61.329 64.264 66.164 67.276 66.596 65.024 60.531 59.954 60.469 60.194 61.159 60.959 60.776 60.869 61.291 72.394 72.911 64.666 65.641 66.751 63.999 67.229 63.224 62.019 64.129 63.236 63.831 65.634 65.544 63.751 63.221 62.654 61.249 60.811 64.784 64.654 65.406 61.469 60.861 61.046 61.334 61.096 61.056 62.356 66.381 60.931 60.114 61.401 59.969 61.171 60.271 59.889 59.751 59.696 59.596 59.549 59.504 59.476 59.501 59.279 59.169 59.154 59.189 59.066 59.106 59.401 59.024 58.899 58.619 58.421 58.119 58.341 58.959 58.049 62.119 64.786 63.769 64.444 60.374 61.319 62.374 60.849 58.891 58.861 59.681 61.634 60.724 59.564 66.614 71.664 72.269 71.171 69.986 63.284 61.579 61.721 62.169 61.986 61.354 61.666 61.419 62.106 62.476 63.899 68.516 70.611 70.826 70.819 69.914 64.309 63.851 63.704 64.136 64.401 64.249 63.749 65.644 64.971 64.661 64.791 66.524 66.439 65.319 66.039 67.084 66.541 66.879 66.901 67.011 68.184 67.654 67.776 68.056 69.469 68.376 68.594 68.354 68.371 68.471 68.701 70.624 77.459 78.009 77.689 79.366 80.404 81.279 81.546 78.871 72.059 69.974 70.964 69.709 69.396 69.461 69.496 69.446
66.854 67.322 68.962 66.517 66.554 68.122 67.894 66.009 66.197 67.972 70.144 70.284 71.159 70.209 66.572 66.474 65.892 65.979 64.067 63.792 63.744 63.722 63.987 65.807 63.594 63.304 62.959 62.797 62.664 62.407 63.841 64.521 64.836 62.596 67.909 70.261 68.716 62.366 59.254 59.189 59.131 60.911 61.236 59.969 59.696 59.531 59.686 60.859 63.236 62.339 62.604 63.344 62.339 61.539 60.451 60.236 60.206 60.144 60.141 60.251 60.149 60.721 64.511 65.489 63.841 60.024 59.826 59.714 59.641 59.551 59.554 59.599 60.706 61.289 62.166 60.944 62.366 59.389 59.214 59.189 59.114 59.016 59.254 61.031 64.931 64.134 64.169 61.626 59.389 61.664 58.201 58.079 58.554 60.896 61.596 61.994 62.101 61.156 58.674 58.096 59.054 62.296 61.431 60.614 60.101 59.931 62.481 63.519 59.566 59.029 58.964 60.711 58.701 58.954 58.321 63.834 65.771 66.246 64.401 63.706 58.014 57.281 57.356 56.919 56.604 56.549 56.406 57.291 56.474 56.446 56.391 56.414 56.356 56.401 56.436 56.461 56.421 56.839 56.791 56.436 56.399 56.561 56.599 56.761 56.111 56.366 56.164 56.089 56.346 56.501 56.041 55.976 55.949 56.211 56.616 55.374 55.379 55.464 55.711 58.119 58.719 59.211 60.426 61.879 62.344 61.226 56.439 61.504 63.356 63.756 63.319 63.039 62.331 61.579 57.426 57.109 55.651 55.351 55.724 55.814 55.466 56.049 55.811 55.276 55.209 55.171 55.811 55.289 54.936 54.879 56.691 56.569 59.321 60.926 58.729 58.566 54.841 58.616 57.586 58.266 60.504 61.541 58.834 56.451 55.064 55.054 55.096 55.594 57.031 57.346 57.516 57.279 57.334 57.694 55.316 55.366 55.334 56.249 55.806 55.419 55.221 56.371 56.741 57.199 56.731 61.701 62.409 62.559 60.296 59.216 56.966 56.174 56.026 57.724 59.246 58.601 58.454 56.606 56.596 56.646 57.391 59.394 59.004 57.779 57.124 57.099 57.156 57.259 57.336 57.466 57.524 57.556 57.689 58.234 58.996 59.164 60.076 60.576 60.939 61.181 61.509 62.319 60.161 58.614 59.396 60.659 65.244 66.434 67.419 66.879 65.889 63.424 59.071 59.054 59.611 59.799 60.671 60.901 60.754 60.761 60.871 61.471 61.429 61.404 61.134 61.061 61.046 61.184 61.906 64.449 65.286 63.724 64.716 67.974 65.729 66.989 64.874 65.314 64.191 60.786 60.719 60.986 60.764 60.751 61.204 60.909 61.676 60.714 61.791 60.956 60.506 60.896 59.954 62.301 65.931 66.244 61.266 59.766 59.684 59.654 59.599 59.704 59.789 59.346 59.346 59.379 59.679 60.421 59.751 59.881 59.494 58.954 58.919 59.076 58.749 59.226 57.971 58.004 58.389 58.866 59.359 62.349 58.596 61.199 60.834 58.511 59.014 58.326 58.396 58.566 60.189 65.124 62.134 59.711 60.569 62.921 64.421 64.319 64.624 61.269 61.606 61.576 61.634 61.379 61.341 62.011 61.404 62.136 62.576 64.784 69.496 70.734 70.884 70.729 67.849 64.226 63.126 63.481 63.629 63.896 64.754 67.516 67.536 65.409 64.551 65.244 65.359 65.966 65.774 67.346 67.859 66.516 67.461 67.381 67.014 67.306 67.601 67.854 68.081 69.326 68.899 70.086 70.279 68.876 69.181 69.139 71.069 77.319 77.496 77.506 78.976 79.921 81.171 81.111 78.171 70.906 70.016 70.149 69.541 69.426 69.511 69.499 69.484
66.002 65.784 65.844 64.657 64.562 65.104 67.257 66.239 66.479 69.412 70.179 70.162 70.314 66.379 67.072 66.974 65.237 64.294 63.784 63.694 63.704 65.092 70.409 70.722 65.847 63.689 63.039 62.864 62.727 63.037 64.496 64.746 61.976 62.619 67.666 69.169 67.749 64.461 59.179 59.174 59.024 59.001 59.004 59.104 59.314 60.416 60.569 62.251 64.354 64.884 63.736 61.406 60.256 60.171 60.161 60.146 60.119 60.084 60.704 62.371 63.261 65.691 66.054 66.181 65.936 60.556 59.796 59.634 59.529 59.559 60.951 60.981 60.531 59.581 59.284 59.246 59.181 59.114 59.039 58.986 58.889 58.766 60.404 63.546 62.591 59.991 58.636 59.144 59.424 61.584 63.546 65.281 65.844 66.056 65.864 66.166 66.056 65.704 65.564 59.501 58.476 58.939 59.989 60.134 60.249 60.434 60.949 62.234 59.549 59.146 57.641 58.239 57.921 58.109 59.296 64.209 65.829 65.906 64.556 64.301 58.341 57.451 56.941 56.626 56.509 56.411 56.336 56.401 56.394 56.389 56.684 56.599 56.259 56.301 56.314 56.361 56.271 56.496 57.154 56.331 56.474 57.339 56.699 56.136 56.161 57.066 56.586 56.024 56.314 56.826 56.299 55.966 55.679 55.674 55.931 55.389 55.419 55.741 55.389 61.156 62.039 62.544 63.051 63.516 63.474 61.946 56.779 60.584 62.471 62.636 62.126 61.591 60.864 57.234 55.571 55.991 55.324 55.299 55.474 56.141 55.784 55.639 55.919 56.964 55.989 54.966 55.119 54.934 55.234 55.269 55.691 62.476 58.501 62.676 59.904 59.829 59.591 57.596 56.054 59.384 57.516 58.481 57.946 57.319 56.404 55.066 55.839 58.896 60.016 57.704 58.626 59.849 60.714 60.796 55.744 55.289 55.236 55.971 59.936 60.821 58.546 61.196 58.241 56.926 56.049 59.804 59.321 57.036 56.061 56.679 59.689 56.619 57.426 58.901 60.304 57.716 56.591 56.654 57.134 56.581 57.281 56.904 56.791 56.849 56.979 57.096 57.166 57.209 57.246 57.346 57.426 57.471 57.561 58.494 58.826 58.124 58.514 59.264 61.241 60.881 62.961 60.354 60.646 59.191 61.599 65.146 66.489 67.669 67.169 65.616 63.061 58.676 59.214 59.476 59.499 59.734 61.044 62.116 63.779 60.664 60.799 60.754 61.081 61.106 61.081 61.071 61.171 61.021 61.514 64.881 62.624 64.634 66.014 67.219 65.314 64.331 65.256 64.741 64.484 61.979 60.696 60.614 60.439 60.496 61.346 61.446 61.214 61.814 60.744 60.636 60.326 60.151 61.751 66.699 67.676 67.686 66.014 60.494 59.746 59.804 59.846 59.469 59.371 59.279 59.959 60.796 60.991 60.639 59.899 59.056 58.961 58.881 58.851 59.606 59.441 58.664 58.006 58.049 61.369 59.354 59.014 59.046 57.879 58.566 62.761 58.729 58.214 58.256 58.286 58.341 59.159 60.751 63.201 59.716 59.536 61.731 63.676 62.426 62.076 62.111 61.054 61.964 61.184 61.244 61.344 61.584 61.399 62.931 62.314 67.351 70.611 70.819 70.824 70.591 64.594 64.459 63.546 63.394 63.619 63.854 66.521 69.901 69.651 64.629 64.846 65.154 65.039 65.186 65.956 66.669 66.529 66.539 66.819 67.401 66.886 67.349 67.671 67.899 68.044 68.541 68.274 68.431 68.724 68.706 68.694 68.751 69.794 72.126 71.844 75.046 78.296 79.874 81.311 81.226 79.319 71.516 69.831 70.469 69.514 69.474 69.556 69.566 69.566
65.827 65.822 64.897 64.584 64.557 65.277 65.079 64.662 65.339 69.762 70.159 69.952 69.197 65.829 65.157 64.582 63.957 63.797 63.734 64.764 67.797 72.719 72.724 71.609 69.672 64.699 63.292 63.167 64.157 63.864 63.406 63.619 64.226 64.624 64.149 68.586 67.944 63.824 61.224 59.101 59.014 58.984 58.921 58.966 60.339 61.844 61.449 61.609 63.024 65.039 66.226 63.249 60.114 60.116 60.091 60.056 60.204 61.944 65.439 65.819 66.234 66.374 65.791 64.964 62.751 60.134 59.914 60.151 60.219 60.106 60.696 60.404 59.996 59.129 59.121 59.104 59.071 58.971 58.866 58.774 58.706 59.414 60.321 60.776 60.784 59.769 61.296 64.591 65.966 66.271 66.399 66.459 66.411 66.616 66.386 66.364 66.474 66.354 66.489 58.776 58.834 58.424 59.966 60.121 60.229 60.751 59.986 59.374 58.214 59.346 58.034 57.379 57.244 57.471 58.061 63.876 65.271 65.381 64.289 63.739 58.119 56.839 57.139 56.549 56.469 56.379 56.239 56.201 56.271 56.311 56.624 56.714 56.446 56.409 56.234 56.481 56.269 56.406 56.831 56.259 56.211 58.199 56.584 56.119 56.744 57.444 58.001 55.899 55.736 55.651 56.379 55.851 55.656 55.484 56.874 57.491 58.176 58.086 55.994 60.426 62.941 64.114 65.001 64.454 63.784 62.431 58.466 58.511 60.176 59.791 58.299 57.131 55.774 55.659 55.604 56.226 55.469 55.609 55.506 55.429 55.219 55.236 55.929 55.476 54.931 54.986 54.971 54.914 56.196 58.426 56.964 61.826 62.176 62.524 61.646 61.991 57.371 54.724 54.494 54.494 55.659 56.426 57.359 57.449 57.336 56.526 56.211 61.386 61.246 61.501 60.166 60.174 66.459 65.164 57.701 55.186 57.021 61.289 62.439 62.101 62.249 62.729 61.061 55.861 56.866 56.979 55.869 55.621 56.069 58.691 61.574 58.624 56.531 57.264 61.016 58.171 56.544 56.724 56.761 56.506 56.536 56.629 56.736 56.926 57.001 57.151 58.631 60.294 57.766 57.324 57.349 57.406 57.439 57.564 58.146 59.186 58.189 58.734 59.304 59.336 58.374 58.601 59.699 62.851 65.484 66.644 67.354 66.546 65.256 62.231 59.169 58.756 59.171 61.481 59.711 59.694 62.694 62.241 63.634 63.039 61.681 60.659 60.756 60.866 60.971 61.091 62.586 61.539 60.909 64.044 63.454 67.204 64.464 64.234 63.471 65.369 62.506 65.316 61.819 60.731 60.551 60.529 60.444 60.346 60.459 61.011 61.449 60.614 60.509 60.414 60.216 60.364 62.046 66.409 68.016 68.484 67.509 64.174 59.926 59.724 59.534 59.396 59.284 59.269 59.659 61.239 60.289 60.964 59.426 58.999 58.901 58.874 59.161 59.546 60.396 58.571 58.064 58.244 58.099 59.411 57.641 57.739 57.686 57.966 59.051 59.824 58.916 58.264 58.279 58.291 58.311 58.346 58.589 59.131 61.161 62.789 62.641 62.819 63.734 61.901 61.024 61.659 61.171 61.236 61.341 62.269 61.346 63.086 63.419 66.879 70.719 70.891 70.311 68.514 62.911 63.961 63.531 64.049 64.686 64.834 71.381 68.334 65.444 64.631 65.101 66.866 70.966 69.136 69.221 66.379 66.559 66.594 66.619 66.889 66.794 67.246 67.741 67.974 68.086 68.221 68.536 68.509 68.631 68.724 68.861 68.859 68.856 68.899 69.361 69.696 77.089 79.814 81.104 81.109 79.326 71.281 70.086 70.469 69.524 69.486 69.581 69.559 69.531
65.132 65.287 65.624 64.712 64.562 64.904 65.052 65.097 65.382 66.892 70.347 66.502 64.272 64.019 63.899 63.894 63.852 63.722 64.647 70.154 72.777 72.944 72.904 72.579 71.212 67.314 64.144 64.549 64.044 62.919 61.924 63.594 64.789 63.881 66.021 70.161 71.041 66.986 63.356 62.446 58.979 58.906 58.866 58.844 58.916 63.014 62.771 63.841 63.306 66.034 67.226 64.341 60.286 60.039 59.999 59.936 59.929 63.959 66.424 67.011 66.311 65.174 62.874 60.356 59.519 59.471 60.351 60.336 59.611 59.189 61.211 63.071 63.721 61.841 58.959 58.954 58.841 58.741 58.654 59.879 60.786 60.776 60.811 60.841 60.814 61.381 65.696 66.356 66.474 66.371 66.354 66.494 66.449 66.711 66.426 66.429 66.574 66.406 66.286 58.899 57.919 58.074 59.484 59.821 59.794 59.926 59.899 58.006 58.959 59.784 58.551 58.714 58.054 58.051 59.389 63.494 62.494 64.556 63.899 62.326 57.579 56.639 56.976 56.536 57.096 56.709 56.481 56.179 56.239 56.261 56.266 56.611 56.521 56.804 56.291 56.824 56.164 56.149 56.839 56.396 56.121 56.101 56.554 56.816 55.966 57.954 58.669 56.274 55.976 55.574 56.399 56.616 58.414 58.416 58.516 58.781 59.236 62.309 60.066 57.321 62.451 63.694 63.439 62.971 62.794 62.076 60.174 55.576 55.649 55.691 55.849 56.076 56.106 55.446 56.334 55.831 56.009 55.406 55.186 55.099 55.046 54.999 56.061 56.166 54.966 54.874 54.894 54.846 56.554 58.961 57.734 58.429 60.586 61.256 60.424 58.664 54.479 54.421 54.434 55.694 55.359 54.749 57.296 58.334 57.419 57.329 59.589 61.031 59.931 57.941 63.839 59.701 58.366 61.996 58.359 55.214 57.396 61.344 62.731 63.466 63.014 62.216 60.891 56.844 56.999 56.114 57.651 57.021 57.049 56.464 61.521 58.646 56.224 56.251 56.424 56.681 56.241 56.254 56.319 56.424 56.566 56.706 56.809 57.101 58.049 59.151 60.224 60.221 62.429 57.624 57.429 57.831 57.596 57.456 57.551 58.619 59.061 58.154 58.784 59.094 58.469 58.356 61.989 65.456 67.581 67.499 66.429 65.566 60.886 59.461 58.816 58.986 60.366 63.096 61.394 60.324 63.344 65.936 66.051 66.079 65.836 62.864 60.574 60.659 60.966 61.091 63.746 63.044 60.776 60.791 61.549 62.771 63.071 62.024 60.816 61.176 61.716 63.199 61.404 60.581 60.431 60.441 60.399 60.321 60.276 60.326 61.134 62.884 63.881 61.679 60.974 59.834 59.814 63.134 66.849 68.319 68.239 66.681 62.644 59.751 59.586 59.426 59.376 60.044 60.146 59.481 59.061 59.111 60.444 59.814 59.046 59.624 59.499 60.454 60.159 59.304 58.164 60.094 62.066 59.949 57.536 57.606 57.624 57.896 57.894 58.716 58.349 58.244 58.304 58.314 58.311 58.351 59.051 59.704 67.431 71.304 71.316 71.281 71.339 66.741 60.991 61.534 61.321 61.724 61.311 62.146 61.371 63.156 64.814 65.619 68.839 70.106 68.224 65.686 63.271 63.591 63.364 63.524 63.871 64.886 70.374 68.686 64.954 64.691 64.829 68.689 71.871 72.414 69.634 66.856 66.604 66.636 66.671 69.436 68.876 67.421 67.856 68.039 68.154 68.354 69.559 69.544 74.189 71.339 70.709 68.964 69.111 69.961 69.534 69.571 69.536 70.761 73.011 75.661 73.379 70.771 70.604 70.086 69.546 69.554 69.669 69.596 69.551
65.444 69.204 68.074 64.802 64.439 64.759 64.899 65.282 65.249 65.582 64.239 63.992 63.977 63.912 63.817 63.794 63.787 63.872 63.847 70.424 71.647 72.954 72.934 72.907 71.102 67.759 65.869 65.809 62.904 62.134 62.034 63.049 62.161 62.051 62.399 65.536 67.619 64.304 64.504 60.899 58.939 58.849 58.844 58.811 58.761 61.334 63.746 65.951 66.074 65.464 64.914 62.186 61.066 59.924 59.876 59.794 59.749 63.104 66.141 65.991 63.509 62.506 59.714 59.494 59.469 59.329 59.231 59.149 59.104 59.161 60.674 63.986 62.976 60.481 58.779 58.724 59.709 60.696 60.721 60.821 60.791 60.806 60.909 60.804 59.791 60.499 65.191 66.469 66.509 66.439 66.421 66.601 65.869 66.364 65.736 65.641 65.681 65.851 65.159 57.989 59.444 58.981 58.936 58.801 59.194 58.784 58.764 58.899 59.291 60.226 60.191 60.171 59.216 59.856 60.106 60.631 60.694 60.386 60.164 59.986 57.536 57.634 57.524 56.316 56.459 56.334 56.209 56.056 56.149 56.154 56.201 56.291 56.264 56.634 56.164 56.314 56.059 56.041 56.544 56.689 56.031 56.534 56.636 56.514 55.896 56.281 59.621 56.141 56.104 56.971 56.784 56.384 59.499 60.979 62.274 63.524 64.131 64.129 62.164 56.589 61.966 62.449 61.806 61.706 62.389 60.381 57.271 55.444 55.361 55.339 56.014 55.424 55.861 55.586 55.244 55.126 55.069 55.409 55.141 54.871 54.856 54.854 54.896 54.929 54.904 54.864 54.779 54.689 54.854 58.156 59.279 57.694 58.074 58.251 57.979 59.039 55.316 56.749 61.111 61.336 58.019 54.584 54.591 55.704 57.784 57.416 57.979 59.151 57.686 61.216 59.539 60.361 59.711 63.569 57.196 58.844 61.489 62.776 63.089 62.334 61.424 59.121 56.564 55.844 55.984 56.424 57.911 56.786 55.884 55.876 56.051 56.356 56.524 56.204 55.971 56.011 56.094 56.239 56.376 57.131 58.971 58.349 58.721 57.759 58.034 57.166 59.304 61.341 59.454 58.609 57.484 57.909 58.271 57.439 57.441 57.514 58.619 58.431 58.594 58.801 58.811 63.791 65.619 66.926 67.449 66.591 64.939 61.771 59.261 58.754 59.371 59.061 59.219 60.336 59.484 61.631 62.516 62.824 63.029 66.414 67.969 61.846 60.431 60.499 60.579 60.526 61.339 61.194 60.629 60.686 61.649 62.116 60.869 60.236 60.711 60.929 61.114 61.166 61.926 61.114 60.399 60.304 60.276 60.249 60.149 60.186 62.589 61.451 67.359 65.494 60.364 59.774 59.694 60.531 65.069 67.266 68.896 67.829 66.366 61.419 59.669 60.441 59.961 59.491 59.129 59.009 58.961 59.044 59.399 59.994 59.409 58.736 58.574 59.309 59.456 59.769 58.121 57.984 61.604 60.804 58.006 57.549 57.579 57.594 57.626 57.729 58.064 58.159 59.121 58.304 58.319 58.359 59.021 59.614 66.631 71.694 71.956 71.744 71.864 68.644 60.766 61.439 61.349 62.721 61.296 61.351 61.356 63.686 62.216 62.841 64.879 66.399 67.966 65.151 64.104 65.096 63.609 64.354 64.581 67.424 71.764 66.206 64.546 64.791 64.901 67.479 71.149 70.304 67.046 67.629 66.699 66.686 67.881 75.864 80.321 79.179 75.659 69.829 68.261 68.409 71.451 70.529 69.731 73.451 75.354 73.261 70.969 69.841 68.374 69.241 75.704 75.411 74.334 71.564 70.099 70.034 69.834 69.841 69.594 69.626 69.644 69.596 69.569
69.789 66.402 65.577 64.684 64.684 65.114 65.802 66.172 65.724 64.297 63.994 63.942 63.877 63.794 63.742 63.742 63.779 63.999 63.819 66.147 70.664 72.559 72.609 70.692 68.529 68.942 68.062 64.839 62.432 62.214 62.124 62.146 63.041 65.124 63.516 63.066 67.044 65.816 62.414 60.759 59.559 58.814 58.786 58.756 58.681 58.859 59.206 62.584 66.726 67.436 63.274 63.614 63.346 60.591 60.819 59.689 59.649 60.351 62.786 61.714 59.826 59.481 59.521 59.281 59.181 59.119 59.079 59.044 59.044 59.031 61.429 62.359 61.659 59.511 59.266 60.576 60.846 60.829 60.814 60.809 60.701 60.049 58.971 59.166 58.404 58.654 59.941 63.209 66.431 65.774 65.141 63.776 63.799 62.896 62.364 63.951 64.139 63.996 61.916 58.219 61.179 61.066 61.044 61.006 60.971 60.954 60.911 60.866 60.869 60.866 60.824 60.789 60.791 60.779 60.746 60.726 60.711 60.679 60.646 59.744 57.166 56.754 56.491 56.251 56.221 57.121 55.999 55.926 55.981 56.024 55.936 56.056 56.516 56.056 56.081 56.419 55.956 55.926 56.129 57.236 55.996 57.121 56.546 57.654 56.929 55.934 56.816 58.281 58.659 59.091 60.424 56.056 61.579 62.659 63.799 63.996 64.214 64.016 63.054 55.914 60.094 61.056 61.789 57.564 57.149 56.069 55.304 55.376 55.526 55.264 55.389 55.229 55.449 55.096 55.019 54.949 54.924 56.911 56.369 54.811 54.854 54.866 54.899 54.791 54.771 54.711 54.739 54.711 54.581 54.629 54.704 54.609 56.174 55.769 55.751 56.399 58.119 60.749 62.066 62.409 61.119 54.729 54.651 54.576 57.544 57.869 57.351 60.934 59.759 60.589 62.741 59.656 59.281 60.174 63.594 58.646 62.216 62.341 61.596 59.639 56.761 55.416 55.271 55.766 55.726 56.276 55.774 55.489 55.679 56.506 56.459 55.701 57.121 55.814 55.924 56.069 56.184 56.279 56.576 59.044 60.719 60.006 57.251 56.619 56.564 56.579 58.224 59.504 57.034 58.289 57.874 57.461 57.669 57.509 57.366 57.411 57.514 57.971 58.114 58.174 59.704 65.179 66.554 67.294 66.149 64.784 60.531 58.599 58.684 58.689 60.411 59.469 59.224 59.314 59.446 60.416 61.101 64.651 63.901 66.351 66.701 61.376 60.226 60.344 60.436 60.421 60.499 60.514 61.491 60.501 61.781 61.206 60.194 60.329 60.421 63.189 64.799 61.586 60.784 61.939 60.386 60.789 60.864 60.196 60.141 60.071 62.001 64.639 63.904 62.669 61.174 59.779 59.671 59.879 61.891 65.341 67.726 68.616 67.491 64.796 60.196 60.276 59.304 59.171 59.049 58.939 59.019 59.749 59.216 58.914 58.716 58.599 58.484 58.451 58.996 59.701 58.611 58.336 59.391 62.086 59.374 58.466 57.591 57.586 58.201 57.691 57.791 58.049 58.236 58.271 58.304 58.486 59.234 59.559 65.576 71.199 71.864 71.234 70.806 64.049 60.849 63.631 61.174 62.501 61.319 61.731 61.664 62.971 62.749 63.711 65.626 66.324 67.354 67.574 66.321 63.539 64.486 64.759 65.404 68.734 71.056 65.534 64.724 64.839 64.941 65.029 65.851 65.976 66.316 67.036 66.731 66.786 67.526 79.771 81.251 81.659 80.584 71.496 68.379 68.406 71.111 75.244 73.291 75.299 77.244 73.609 73.456 70.616 69.154 69.381 77.121 80.821 81.141 80.461 73.596 70.519 71.146 71.994 69.566 69.609 69.599 69.584 69.586
68.997 66.749 64.437 64.447 64.452 65.147 66.559 65.304 64.042 63.992 63.967 63.862 63.789 63.709 63.704 63.712 64.627 64.287 63.764 63.754 67.154 70.784 68.394 67.764 68.964 69.064 69.512 69.054 63.439 62.287 62.346 62.771 63.206 63.029 61.799 63.696 64.001 62.616 61.004 61.661 60.321 58.771 58.891 58.666 58.641 59.174 59.476 62.499 63.114 68.224 65.846 64.641 64.094 61.429 64.461 59.866 64.686 59.796 59.556 61.334 60.126 59.794 59.686 59.266 59.081 59.044 58.999 58.949 58.934 58.844 59.749 61.746 61.554 60.611 59.074 60.839 61.184 63.039 61.336 59.326 58.519 59.174 58.536 58.186 58.476 60.284 60.384 59.689 64.386 63.969 63.891 61.024 61.681 60.759 60.194 59.989 60.274 61.544 61.221 59.479 62.049 61.976 61.946 61.916 61.876 61.864 61.809 61.771 61.744 61.756 61.721 61.679 61.684 61.631 61.646 61.616 61.594 61.574 61.549 61.034 56.664 57.389 56.221 56.171 56.174 56.069 55.954 55.874 55.944 55.929 55.831 55.929 55.929 55.944 55.971 56.354 55.734 55.571 55.681 56.541 56.161 57.081 59.106 56.699 56.906 56.104 58.879 60.874 62.164 62.251 62.014 56.419 61.044 63.551 64.066 64.011 63.309 62.894 62.179 58.454 56.039 56.291 56.394 55.874 55.861 55.296 55.276 55.339 55.441 55.159 55.111 55.099 55.021 54.971 54.884 54.746 54.794 54.796 54.809 54.764 54.801 54.761 54.699 54.699 55.874 55.436 54.734 55.029 54.676 54.521 54.561 54.526 54.446 54.386 54.431 54.531 57.166 59.804 61.494 62.341 61.374 58.771 55.711 56.106 57.126 57.464 57.419 60.214 60.566 61.161 58.104 61.439 61.066 57.276 59.864 60.894 58.661 59.819 57.011 54.976 55.641 55.914 56.064 56.019 55.249 55.391 56.256 56.581 55.566 57.756 55.544 56.951 57.956 60.601 57.336 56.044 56.496 57.894 58.576 59.331 60.676 60.111 56.494 56.441 56.439 59.679 63.189 62.624 56.899 57.741 57.694 58.539 57.491 57.819 57.846 57.369 57.441 57.536 58.076 58.431 58.604 60.396 66.514 66.026 64.651 60.786 58.389 58.924 59.239 59.239 59.229 61.241 61.901 59.361 59.506 59.721 62.354 61.749 63.881 64.711 64.844 61.404 60.176 60.256 60.289 60.269 60.339 60.404 60.451 61.616 60.539 60.081 60.084 60.341 65.116 67.956 66.891 63.956 60.011 61.284 61.214 60.309 60.986 60.226 60.121 60.034 60.091 63.166 65.029 61.729 62.814 59.706 60.054 60.056 59.511 62.491 66.549 67.819 67.384 64.874 61.626 59.776 59.784 59.176 59.079 59.749 59.364 58.516 58.404 58.399 58.366 59.014 58.389 58.381 58.464 59.174 58.781 58.139 59.059 65.066 66.424 61.259 59.644 57.721 57.616 57.684 57.734 57.956 58.206 58.256 58.326 58.611 59.581 59.876 65.411 71.521 71.859 71.409 70.864 63.544 61.714 65.801 65.134 62.911 61.356 61.814 61.736 61.756 62.461 65.086 69.341 69.729 69.909 69.819 68.544 63.491 63.476 63.691 63.946 65.294 68.781 64.521 64.811 64.886 64.984 65.284 66.121 67.619 66.494 66.604 66.651 66.804 70.416 80.366 81.456 81.516 80.384 68.404 68.376 70.994 75.216 75.894 74.029 71.324 76.321 71.226 73.996 69.429 69.204 74.341 78.076 80.241 80.951 79.359 74.976 70.169 70.316 69.776 69.624 69.686 69.614 69.601 69.669
68.224 70.447 69.324 64.799 65.272 66.412 64.717 64.024 64.022 63.937 63.854 63.764 63.749 63.712 63.714 63.779 63.799 63.729 63.844 63.909 64.189 68.592 68.174 68.647 68.577 69.009 69.919 69.709 67.769 62.792 62.671 62.479 61.896 61.709 62.519 61.429 60.426 64.179 64.889 62.846 61.969 59.704 59.239 58.954 58.546 58.561 58.524 60.091 63.306 63.414 64.814 65.816 64.554 61.661 67.239 65.186 68.729 63.784 63.839 63.386 62.556 62.489 60.179 59.049 59.119 59.726 59.286 58.766 58.721 59.759 60.659 61.266 59.661 58.519 58.511 60.669 63.046 65.316 61.539 58.294 58.294 58.154 58.906 58.606 58.286 59.499 62.909 59.096 61.676 63.224 61.426 57.771 57.779 57.636 57.729 57.784 58.201 59.379 57.914 60.074 62.846 62.839 62.799 62.781 62.756 62.756 62.706 62.699 62.689 62.694 62.654 62.599 62.604 62.431 62.391 62.414 62.391 62.379 62.391 60.861 56.376 56.469 56.194 56.086 55.949 55.864 55.769 55.799 55.826 55.856 55.751 55.759 55.831 55.814 55.851 55.884 55.651 55.486 55.734 57.051 55.481 61.459 61.704 56.716 59.431 61.811 62.994 63.674 63.849 63.629 63.269 57.796 60.194 62.826 62.784 62.339 62.086 62.326 59.876 56.946 55.951 55.689 56.331 56.009 56.229 55.429 55.341 55.161 55.099 55.064 57.736 54.884 54.786 54.739 54.736 54.724 54.744 54.786 54.741 54.716 54.729 54.969 54.606 55.524 56.956 55.011 57.191 55.234 55.159 54.486 54.476 54.506 54.499 54.364 54.319 54.426 56.039 58.174 60.959 62.066 62.071 61.206 57.516 56.771 56.094 56.896 57.449 58.721 61.274 61.756 56.484 59.264 59.749 58.754 59.291 56.559 55.816 55.626 54.924 55.294 55.966 56.291 57.659 57.899 56.106 55.349 55.746 55.444 56.134 59.929 56.441 59.499 62.826 61.689 57.379 57.629 58.281 57.569 56.661 56.271 57.401 59.494 56.834 57.401 59.071 63.874 64.444 63.971 61.446 58.406 57.599 58.684 58.286 57.456 58.136 57.349 57.359 57.441 57.741 58.616 58.381 58.319 61.726 63.531 60.611 58.361 58.481 58.531 58.819 59.059 59.804 60.111 62.634 60.101 59.846 59.656 59.474 59.674 62.971 61.666 62.274 61.954 60.676 60.201 60.211 60.189 60.194 60.226 61.154 60.216 59.979 59.979 59.786 63.901 66.684 68.014 68.126 66.491 62.676 60.651 61.389 60.819 60.104 60.266 60.076 60.006 60.969 61.049 66.671 61.514 61.584 60.149 59.784 59.539 59.691 59.679 64.601 66.431 65.349 60.474 59.431 59.336 59.761 59.674 59.691 58.596 58.514 58.449 58.404 58.361 58.331 58.284 58.656 59.136 58.941 58.554 58.141 60.419 61.616 61.944 62.564 62.464 60.559 58.826 57.714 57.834 57.874 58.719 58.249 58.461 58.389 58.711 59.571 59.659 62.254 69.891 69.636 67.874 67.804 63.446 62.846 65.969 65.504 64.409 62.804 62.544 61.799 61.629 62.544 62.499 69.001 70.304 71.154 70.166 68.701 63.941 63.466 64.011 64.216 64.891 64.319 64.621 64.819 64.931 65.009 67.429 70.829 67.531 66.504 66.586 66.701 66.794 73.299 80.561 81.546 81.271 78.631 70.146 68.446 71.329 70.984 72.319 76.534 71.569 71.546 70.621 72.089 69.924 69.941 78.029 79.224 80.334 80.444 75.999 72.129 70.759 70.489 69.726 69.641 69.636 69.599 69.601 69.654
69.034 69.662 67.889 66.742 66.944 66.697 65.772 63.924 63.884 63.877 63.787 63.752 63.717 63.727 63.719 63.734 63.704 63.654 63.679 64.449 66.822 68.192 68.427 67.599 68.409 68.607 69.349 70.114 69.404 65.914 62.579 62.621 63.064 64.111 61.816 60.699 63.504 65.064 62.811 61.799 61.036 61.256 59.729 59.296 58.626 58.454 58.461 58.416 60.279 62.481 63.961 66.449 65.929 62.464 64.179 67.421 64.341 65.326 64.436 65.699 63.119 61.884 60.264 63.301 59.436 58.974 58.646 58.754 61.106 61.121 61.149 61.134 60.596 58.544 58.366 58.406 62.839 64.051 61.071 58.574 58.304 57.639 58.506 58.959 57.936 61.704 61.674 64.021 60.021 58.781 58.496 57.741 58.469 57.676 57.979 57.536 57.956 58.514 57.484 60.746 62.929 62.939 62.944 62.926 62.926 62.939 62.939 62.939 62.931 62.921 62.939 62.939 62.909 61.794 61.814 61.829 61.866 61.896 61.914 60.714 56.371 56.904 56.194 56.004 55.899 55.839 55.724 55.686 55.771 55.801 55.674 55.684 55.714 55.736 55.741 55.499 57.784 59.516 57.344 57.131 55.856 58.961 61.949 58.614 58.864 62.966 63.826 64.321 64.069 63.429 62.539 60.044 57.331 61.481 61.584 60.606 58.326 57.941 55.576 55.251 55.261 55.356 55.999 55.901 56.164 55.254 55.099 54.969 54.926 56.021 56.366 54.701 54.656 54.676 54.729 54.689 54.661 54.624 54.586 54.544 56.096 55.949 56.751 55.946 56.651 56.986 58.064 55.389 55.211 54.616 54.401 54.496 54.451 54.506 55.169 54.304 54.411 54.984 60.089 61.641 62.411 61.534 58.536 56.054 56.284 55.209 54.961 56.274 58.029 57.509 58.084 57.451 57.539 58.129 55.811 56.099 58.089 57.259 57.926 55.784 55.326 55.519 56.916 55.954 55.681 55.389 55.241 55.231 56.481 61.869 62.929 61.406 60.944 57.624 58.596 57.841 56.499 56.071 56.146 56.196 56.211 56.356 57.164 56.649 59.659 63.511 64.774 65.174 63.761 61.379 58.274 56.894 58.461 58.041 57.456 58.219 57.691 57.326 57.429 57.701 57.776 57.771 58.599 59.369 58.761 58.836 58.514 58.806 58.609 60.764 60.494 59.699 61.984 62.281 59.766 59.326 59.396 59.421 59.594 59.649 60.146 60.431 61.171 60.201 60.199 60.239 60.129 61.351 60.576 59.874 59.879 59.956 60.184 60.574 64.524 67.331 68.611 67.656 66.034 61.831 59.934 60.831 60.161 60.306 60.524 59.916 59.914 60.546 60.994 60.029 60.666 60.379 59.551 59.574 59.494 59.401 61.011 62.361 59.914 59.301 59.316 59.404 59.584 58.894 59.211 58.474 58.479 58.419 58.334 58.921 63.971 59.736 58.559 58.361 58.231 59.069 59.189 62.766 62.809 61.981 60.946 60.606 58.616 58.421 60.141 57.721 58.169 58.316 58.266 58.969 58.954 58.611 59.276 59.809 60.684 62.116 63.486 63.149 61.819 61.509 64.684 65.324 66.174 63.264 63.914 63.354 62.231 61.546 62.534 62.156 67.206 70.159 71.276 70.271 68.834 64.396 63.261 63.589 64.701 66.156 64.359 64.714 64.891 65.016 65.049 70.466 70.979 68.481 66.531 66.566 66.579 66.641 76.549 80.774 81.716 81.054 76.354 68.511 68.489 69.166 70.521 70.679 71.376 75.946 74.429 70.841 70.621 68.744 68.954 77.771 79.436 80.486 80.246 76.779 71.536 70.919 70.291 69.669 69.629 69.654 69.674 69.609 69.679
66.812 70.197 70.922 66.402 66.637 66.667 66.744 64.564 63.967 63.777 63.757 63.729 63.712 63.702 63.824 63.849 63.702 63.829 64.449 66.574 68.189 67.309 67.242 65.802 66.177 68.649 68.737 69.634 69.477 68.497 62.764 63.621 63.864 62.084 61.459 65.019 64.729 62.074 60.621 60.711 60.939 60.711 61.356 59.594 59.414 58.471 58.384 58.331 58.311 61.036 61.354 63.429 66.436 65.241 64.719 61.141 61.464 63.899 60.629 62.739 64.704 62.796 64.006 63.764 59.346 58.586 60.269 58.581 60.789 61.171 61.226 61.254 61.101 59.201 58.336 58.159 59.034 59.276 58.429 58.991 59.419 61.491 62.801 62.536 58.141 61.121 60.786 63.896 59.886 57.634 57.496 58.189 58.276 58.766 59.591 58.636 58.876 59.009 57.724 62.051 62.899 62.906 62.929 62.911 62.919 62.936 62.921 62.929 62.936 62.934 62.944 62.934 62.806 60.919 60.904 60.924 60.934 60.971 61.016 61.171 57.154 56.794 56.126 55.984 55.899 55.786 55.676 55.639 55.701 55.711 55.636 55.594 55.649 55.646 55.711 57.021 59.764 61.759 59.696 58.664 59.369 60.859 61.594 59.831 56.381 62.929 63.179 62.901 62.364 62.461 61.399 60.154 56.381 57.219 56.371 55.724 56.801 57.941 56.499 55.544 55.136 55.091 56.301 56.516 55.801 54.924 56.461 55.769 54.706 55.254 56.199 54.656 54.704 54.661 54.671 54.624 54.499 54.494 54.556 54.669 56.826 58.614 57.964 55.386 56.949 55.571 57.596 59.256 59.321 58.586 54.541 54.386 54.429 54.429 54.719 54.809 54.259 54.391 56.894 59.271 61.129 59.371 55.589 54.519 54.566 54.591 54.636 54.661 56.904 57.381 60.701 59.209 60.199 55.191 54.876 56.106 58.751 60.326 59.186 55.499 54.934 55.561 57.064 55.059 55.061 55.104 55.174 55.314 57.914 58.689 63.696 63.334 63.264 61.861 61.689 56.551 55.914 55.984 56.074 56.029 56.159 56.261 58.196 56.271 56.956 60.629 63.696 65.066 65.639 63.854 60.534 56.629 56.869 58.671 57.941 57.549 57.971 57.319 57.341 57.426 57.524 57.794 59.876 63.196 58.934 58.346 58.691 58.559 59.054 60.311 61.864 60.001 61.179 58.914 59.006 59.289 59.294 59.554 59.726 59.604 60.186 60.316 60.664 60.391 61.249 62.221 61.296 60.966 59.814 59.844 59.984 60.329 60.034 60.134 61.414 65.734 67.841 69.371 67.231 65.219 60.561 60.151 60.964 59.991 59.896 59.921 59.794 59.736 59.679 59.679 61.556 61.469 60.319 59.446 59.514 60.009 59.584 59.281 59.249 59.291 59.569 59.476 59.111 58.359 58.269 58.349 58.309 58.471 59.311 60.851 63.811 60.721 58.151 58.126 58.059 58.214 60.436 62.014 58.809 62.456 64.721 59.411 58.354 58.121 60.019 57.741 58.144 57.791 57.981 58.124 58.239 58.684 58.851 62.896 63.719 62.316 62.129 61.744 61.449 60.411 63.461 66.396 65.699 62.951 63.709 62.141 61.941 62.449 61.959 62.529 68.609 70.026 71.186 70.349 68.949 64.796 63.274 63.556 64.411 65.546 66.164 66.316 66.266 65.884 65.961 70.396 70.269 67.519 66.569 69.406 77.024 75.384 77.101 81.449 80.564 79.866 76.264 68.549 68.529 68.559 68.616 69.444 69.921 74.096 73.826 72.674 73.336 69.574 68.384 74.254 79.526 80.821 80.339 75.581 71.326 70.221 70.279 69.674 69.649 69.694 69.671 69.654 69.731
69.079 68.834 67.552 66.392 67.172 66.627 66.667 66.977 64.207 63.757 63.729 63.729 63.699 63.772 64.429 64.597 63.882 64.347 64.689 63.592 66.152 64.147 64.152 65.697 65.744 66.284 68.492 68.482 67.724 64.977 65.429 63.031 61.406 61.251 62.164 64.974 62.464 60.821 61.054 60.919 60.704 60.796 61.126 62.501 61.139 58.614 58.286 58.276 58.259 58.549 61.391 61.601 64.099 66.599 63.454 63.364 61.299 61.494 61.904 61.689 63.446 63.809 63.909 59.506 61.446 61.661 63.006 59.631 59.779 61.106 61.139 60.691 59.119 58.369 58.171 58.066 58.756 59.784 60.119 62.479 63.831 63.149 63.099 63.134 58.619 57.674 60.111 63.219 61.441 58.379 58.174 59.281 60.361 60.739 61.076 60.974 60.836 59.796 57.311 61.804 61.836 61.894 61.861 61.929 61.944 61.921 62.134 62.121 62.101 62.039 62.099 62.231 61.389 60.341 60.154 59.981 59.859 59.956 60.124 59.646 56.639 56.236 56.054 55.939 55.841 55.699 55.596 55.559 55.659 55.656 55.536 55.554 55.599 55.579 55.639 56.166 60.231 61.919 61.679 62.666 63.124 63.981 63.034 61.569 55.991 61.034 61.564 62.569 61.206 59.751 58.041 57.079 58.116 56.066 55.146 56.171 56.424 59.434 58.409 56.374 54.989 54.926 55.111 54.901 54.796 54.981 58.444 58.369 54.651 54.659 54.631 54.596 54.611 54.524 54.509 54.509 54.804 54.646 55.389 54.961 55.934 54.994 56.394 57.349 59.136 60.924 61.694 62.799 62.844 62.786 56.764 54.391 54.356 54.389 54.449 54.516 54.506 54.236 55.126 55.801 56.231 54.559 54.654 54.609 54.609 54.779 54.896 54.911 55.309 57.154 57.179 55.909 54.761 54.641 54.626 54.696 56.821 57.024 55.889 55.479 54.946 55.604 55.701 54.906 55.001 55.126 55.186 55.319 58.654 58.176 61.206 61.716 64.716 62.079 60.556 56.919 55.844 56.236 56.591 56.676 56.384 56.046 56.094 56.144 56.174 57.111 61.089 63.739 65.504 64.829 63.424 60.776 56.721 57.784 58.661 57.724 57.376 58.099 57.446 57.294 57.436 57.819 60.909 59.314 58.481 58.096 58.181 59.526 61.534 62.954 62.759 61.661 60.454 58.696 58.786 59.119 59.706 59.659 59.724 59.614 59.714 60.324 60.384 61.119 62.161 61.784 61.749 61.616 59.761 60.136 60.386 59.864 59.894 59.864 59.884 63.389 66.666 68.201 68.321 66.751 63.679 59.681 61.144 60.486 59.899 60.931 59.884 59.669 60.021 60.309 61.704 64.316 62.879 62.966 59.866 59.871 59.276 59.466 59.061 59.041 58.599 58.314 59.761 59.399 58.154 58.429 58.824 58.844 64.641 64.101 62.314 64.464 58.211 58.151 58.291 58.256 59.074 59.064 60.184 59.946 60.894 59.416 57.769 57.299 60.099 58.141 58.041 57.786 57.944 58.074 58.199 58.749 59.401 66.041 67.531 67.426 67.316 67.206 66.939 65.859 61.826 64.431 62.534 64.776 61.994 61.504 61.886 63.156 62.319 62.151 67.346 69.901 71.096 70.476 69.076 63.626 63.209 63.891 64.321 68.244 73.136 73.256 72.729 69.649 65.411 66.836 67.454 66.926 66.581 69.129 80.224 81.306 81.576 80.454 76.469 70.166 70.219 68.661 68.561 68.591 68.626 68.714 68.734 69.654 71.231 73.686 74.161 71.961 69.809 77.274 79.989 81.326 81.364 75.859 70.104 70.824 69.934 69.684 69.701 69.754 69.696 69.681 69.799
66.807 66.072 65.779 64.209 64.529 66.244 66.642 66.679 66.762 63.689 64.912 65.879 63.654 64.692 63.774 65.729 64.657 65.334 65.217 63.374 62.987 62.522 62.489 64.934 65.702 65.787 66.672 66.094 65.592 66.309 67.691 64.916 61.384 61.319 61.689 61.556 61.016 60.894 60.801 60.651 60.516 61.119 61.674 61.839 61.814 59.414 58.694 58.264 58.196 58.234 58.231 58.521 59.996 62.106 61.406 62.546 61.911 59.076 59.881 61.264 60.579 62.279 63.064 59.984 62.044 65.406 65.581 65.061 58.946 59.681 59.129 58.176 58.216 58.171 58.069 58.104 58.759 58.734 58.606 63.494 64.111 63.281 63.114 63.144 61.496 60.434 62.601 63.641 60.146 60.634 60.626 61.059 61.319 61.269 61.124 61.101 61.271 59.441 57.786 60.581 61.074 61.071 61.101 61.104 61.154 61.149 61.196 61.221 61.241 61.256 61.266 61.196 59.599 60.221 60.051 59.764 58.731 58.756 58.736 58.021 56.271 56.149 56.029 55.896 55.761 55.629 55.486 55.474 55.559 55.554 55.506 55.506 55.539 55.516 55.764 56.091 57.554 62.259 62.979 63.916 64.559 64.406 63.576 62.059 58.111 57.161 57.286 57.436 57.419 56.974 55.509 56.826 57.366 56.334 55.061 55.699 55.014 58.659 57.746 55.461 54.841 54.766 54.716 54.676 54.646 54.884 54.594 54.644 54.609 54.589 54.679 54.829 54.451 54.476 54.614 55.464 55.186 54.934 55.219 55.104 55.294 54.876 58.771 62.726 62.901 62.956 62.864 62.786 62.864 62.806 60.261 54.781 54.324 54.309 54.346 54.449 55.026 54.221 54.291 54.819 54.574 54.771 54.894 54.624 54.634 54.679 54.679 54.669 54.824 55.534 55.026 55.029 54.596 55.256 54.519 54.529 54.894 55.836 55.149 55.074 54.756 56.534 58.399 54.964 55.041 55.066 56.704 58.571 59.116 62.179 57.844 62.724 64.901 60.906 60.154 56.509 56.566 56.411 56.716 56.131 55.946 56.019 56.091 56.164 57.269 57.416 57.984 61.254 63.884 65.199 64.751 63.754 60.451 57.734 57.271 57.599 57.441 57.706 57.669 57.279 57.261 57.379 58.949 58.509 57.999 58.009 59.866 58.536 61.676 62.196 65.211 62.694 60.904 57.774 58.814 59.726 59.661 59.614 59.604 59.581 59.696 59.546 60.191 62.414 65.101 61.456 63.629 62.281 60.701 60.046 60.056 59.864 59.679 60.339 61.096 59.799 64.609 67.064 68.286 67.466 65.961 61.384 60.446 60.994 61.871 59.821 60.589 59.584 59.549 60.969 62.339 62.096 64.244 65.869 59.336 59.471 59.236 58.879 58.369 58.161 61.239 65.514 65.209 62.961 58.674 58.869 59.076 58.779 59.481 58.369 62.536 62.046 61.666 59.986 58.086 58.114 58.266 58.034 58.046 57.526 57.369 57.989 60.001 59.626 58.844 57.461 58.004 57.751 57.851 57.994 58.131 58.824 59.684 65.586 67.636 67.794 68.474 68.429 67.544 65.251 61.091 60.929 62.344 61.579 61.429 61.539 63.994 62.756 62.306 62.126 66.044 69.761 70.959 70.586 69.214 63.474 63.234 64.146 64.191 69.641 73.414 73.686 72.809 72.124 67.259 66.316 66.609 66.546 66.591 67.441 80.404 81.506 81.369 80.284 73.571 68.716 68.701 68.596 68.611 68.609 68.679 68.726 68.794 69.309 69.874 72.219 72.871 71.419 69.906 71.661 74.744 78.821 77.294 72.554 70.384 70.111 69.951 69.684 69.719 69.754 69.664 69.694 69.874
64.302 64.349 63.612 63.712 63.869 64.584 66.342 66.632 66.707 66.487 66.644 65.347 64.142 66.572 65.717 65.412 63.697 63.862 63.139 63.664 63.724 62.572 62.562 63.427 65.717 64.824 63.492 65.227 66.287 67.717 67.649 67.776 62.829 62.521 62.181 61.746 61.116 60.994 60.866 60.796 61.546 61.841 61.211 62.626 62.754 62.411 58.579 58.854 58.196 58.179 58.169 58.134 58.086 62.111 59.844 58.959 65.171 61.954 60.691 61.809 61.191 58.294 61.369 58.646 62.506 65.539 66.009 65.429 62.281 59.446 58.379 58.129 58.194 58.389 59.884 59.891 58.671 58.901 57.911 62.581 64.041 63.639 63.174 63.099 62.706 60.481 59.441 60.766 58.304 59.849 61.296 61.086 60.716 59.896 59.389 59.204 59.731 59.056 57.666 59.336 59.194 60.449 60.379 60.421 60.436 60.476 60.446 60.369 60.469 60.476 60.549 60.819 59.554 59.721 59.436 59.121 58.629 58.596 58.579 57.799 56.186 56.134 56.291 55.846 55.751 55.564 55.921 55.674 55.486 55.461 55.349 55.404 55.444 55.396 56.304 56.319 55.491 60.514 62.921 63.939 63.749 63.276 62.769 62.091 59.444 55.489 55.486 55.366 56.844 56.529 55.319 56.011 55.974 56.691 55.021 55.154 55.416 55.481 55.109 54.799 54.709 54.561 54.464 54.451 54.514 54.574 54.546 54.536 54.466 54.636 55.296 54.739 54.536 54.521 56.154 55.151 55.099 54.701 55.304 54.871 55.674 58.936 62.209 62.766 62.886 62.931 62.906 62.766 62.851 62.761 62.746 56.061 54.329 54.196 54.274 54.271 54.351 54.164 54.084 54.424 55.036 55.144 54.799 54.631 54.669 54.679 54.676 54.684 54.734 54.856 55.076 54.501 54.829 55.766 56.141 54.436 54.481 54.571 54.579 54.596 54.691 57.181 56.666 55.326 55.859 56.694 56.854 60.081 63.756 59.374 58.784 59.176 60.566 59.876 57.284 55.936 55.994 55.819 56.421 57.569 56.316 55.964 56.106 56.331 58.679 58.114 56.791 57.939 62.229 64.099 65.291 64.596 63.076 58.329 56.701 57.036 58.396 57.559 58.191 58.159 57.274 57.251 57.399 58.399 58.361 59.396 59.466 58.479 59.756 60.951 65.024 61.789 62.134 62.316 58.084 59.619 59.396 59.486 59.599 59.624 59.226 59.281 59.359 59.736 62.799 64.126 65.339 61.634 61.231 60.199 60.264 59.876 60.084 60.026 59.741 59.869 60.084 66.081 67.026 67.016 62.916 59.671 59.994 60.244 62.574 63.556 62.619 59.424 59.439 60.264 59.804 61.516 61.121 63.084 60.589 59.139 58.881 59.024 58.916 58.756 64.624 66.066 66.301 64.876 59.361 58.196 58.129 58.254 58.646 58.536 58.611 61.826 60.689 61.494 58.016 58.079 58.211 58.154 57.866 57.514 59.186 57.881 59.171 57.981 57.564 57.454 57.829 58.056 58.184 58.971 59.854 59.346 59.076 63.086 65.346 67.569 68.924 68.641 67.386 63.524 60.566 60.921 61.411 61.371 61.441 61.591 62.569 61.709 62.296 62.169 67.051 69.606 69.824 69.671 69.154 65.181 63.304 64.291 65.286 70.799 73.834 73.954 73.451 73.191 73.079 69.824 66.391 66.584 66.591 70.759 80.591 81.581 81.146 80.074 79.806 71.921 68.759 68.639 68.634 68.656 68.699 68.749 68.766 68.834 68.886 71.506 72.544 72.129 73.726 72.894 71.886 70.084 70.776 69.954 71.931 73.166 70.401 69.754 69.776 69.771 69.714 69.756 69.944
64.349 64.097 63.967 63.722 63.789 63.857 65.352 66.622 66.664 66.732 64.494 64.812 66.109 66.972 65.004 63.889 62.919 62.837 62.814 64.214 63.279 62.774 62.617 63.724 65.649 64.809 64.997 64.084 64.424 69.207 67.669 67.701 67.624 63.474 62.876 62.136 62.124 62.011 60.946 62.139 61.249 61.556 60.644 62.949 63.519 63.651 62.064 58.201 58.129 58.154 58.159 58.119 58.064 58.031 59.061 61.624 66.329 61.296 58.481 58.694 58.246 58.236 58.219 58.221 62.614 65.289 65.971 65.836 65.099 59.841 58.229 59.439 63.644 62.621 61.096 60.661 59.156 59.624 58.679 59.861 63.701 64.016 63.241 62.991 61.709 60.034 58.454 57.484 57.826 58.509 60.186 59.216 58.291 57.441 57.256 57.264 57.259 57.164 57.669 57.811 58.074 60.074 59.889 61.386 59.459 59.356 58.401 56.311 56.961 58.431 58.031 56.961 56.971 58.146 58.529 58.531 58.536 58.541 58.681 61.024 55.926 55.989 56.064 55.769 55.681 56.034 56.054 55.726 55.391 55.349 55.309 55.311 55.416 55.299 56.494 55.664 55.589 59.426 62.186 62.571 62.349 61.709 62.319 60.311 57.674 55.289 55.684 55.174 56.451 57.156 55.444 55.276 54.946 55.714 54.931 54.854 54.879 55.159 54.731 54.596 54.516 54.494 54.486 54.504 54.519 54.471 54.824 55.024 54.401 54.474 54.586 54.709 54.526 54.439 55.611 56.221 56.251 57.126 59.866 59.066 57.016 62.751 62.749 62.814 62.824 62.884 62.981 62.859 62.831 62.816 62.731 59.831 54.751 54.311 54.181 54.239 54.236 54.134 53.994 54.091 54.991 54.956 54.684 54.651 54.674 54.696 54.859 54.719 55.331 55.486 54.411 55.834 57.386 56.079 56.009 54.446 54.466 54.481 54.541 54.674 54.751 54.809 59.174 56.594 55.564 56.406 54.954 61.646 65.061 63.894 59.421 59.101 58.966 58.351 56.611 56.859 61.236 60.201 56.094 57.076 56.191 56.309 56.161 56.126 56.189 56.306 57.384 57.481 58.106 62.389 64.561 65.421 64.369 62.874 58.281 56.869 58.961 58.799 61.324 57.611 57.399 57.246 57.271 57.546 59.061 61.604 61.666 61.926 58.171 60.544 59.471 63.564 65.384 64.899 62.461 58.131 58.506 58.579 59.164 59.264 59.126 59.174 59.351 62.634 62.704 61.519 61.566 61.834 61.984 61.214 60.561 60.216 59.634 59.569 59.609 59.639 59.756 61.649 64.176 61.466 59.606 59.406 59.391 61.489 64.081 65.989 65.489 62.866 59.519 59.319 59.269 59.919 60.899 60.886 59.436 59.509 59.076 58.641 58.306 58.199 62.931 65.959 66.856 65.561 61.021 58.431 58.359 58.401 58.639 58.591 58.001 60.139 62.709 57.929 58.104 57.716 57.641 57.621 57.721 57.586 57.821 57.754 58.521 57.494 57.301 57.361 57.714 57.721 57.861 58.239 58.814 58.859 59.094 59.356 63.646 68.301 69.119 68.766 67.409 61.849 60.429 60.786 61.394 61.406 61.559 61.696 62.156 62.659 62.201 62.771 67.626 67.881 66.714 66.084 65.754 64.501 64.444 64.079 64.551 70.219 74.724 74.941 74.944 74.886 74.549 71.569 66.454 66.579 66.576 78.066 80.811 81.716 80.961 79.849 83.236 80.899 76.191 70.296 70.126 70.744 68.736 68.789 68.804 68.809 68.844 69.839 71.779 69.669 76.811 82.449 82.401 80.244 74.316 69.899 70.466 70.814 69.814 69.754 69.771 69.776 69.711 69.801 70.116
