ncols 439
nrows 32
xllcorner    528056
yllcorner    185006
cellsize     2
NODATA_value -9999
55.692 55.32 55.332 55.385 55.365 55.565 55.617 55.317 54.072 52.365 52.805 52.75 50.98 52.645 51.96 52.477 50.23 47.605 44.535 44.345 42.665 42.615 42.585 42.522 42.48 42.452 42.447 42.475 42.46 42.42 42.382 42.292 42.98 42.645 46.32 45.207 44.51 42.905 41.902 42.052 45.477 45.452 42.447 42.81 44.117 47.73 51.307 52.685 53.612 54.977 54.142 53.54 53.465 53.695 53.525 53.53 53.587 53.662 53.34 52.26 51.12 50.99 48.407 43.617 42.882 42.155 40.952 40.917 40.992 41.005 40.987 40.955 41.07 41.292 41.262 41.285 41.267 41.217 41.95 42.73 43.975 43.175 42.835 42.675 43.28 48.395 48.01 42.777 41.16 41.515 43.59 42.262 39.31 39.28 39.262 39.24 39.212 39.23 39.232 39.165 39.195 39.167 39.127 39.105 39.127 42.927 47.812 49.03 49.575 48.735 48.542 48.777 45.517 42.467 41.777 42.082 42.99 42.082 41.48 42.347 43.335 45.11 45.787 46.935 48.08 46.67 45.852 43.817 38.502 38.38 38.44 38.532 38.502 38.39 38.345 38.5 38.637 42.14 47.242 47.195 47.235 46.957 42.147 38.407 38.357 38.635 40.157 39.485 39.265 38.077 37.957 38.025 38.012 37.96 37.957 37.985 37.942 38.1 38.84 38.082 37.837 37.837 37.867 37.765 37.712 37.857 38.155 39.037 39.327 39.365 39.307 39.302 38.552 37.897 39.487 39.107 39.71 47.73 48.47 48.445 48.452 48.497 46.115 37.172 37.175 37.117 37.182 37.16 37.782 40.2 39.255 39.07 36.252 36.23 36.21 36.177 36.155 36.54 36.072 37.232 36.325 37.247 42.762 43.452 43.802 43.27 42.075 37.35 37.015 36.235 36.085 38.782 39.642 39.657 41.265 42.872 42.975 42.9 43.035 43.74 48.482 49.71 50.515 50.777 50.032 49.645 52.85 53.822 54.302 54.837 55.65 55.58 54.98 47.005 39.527 36.135 35.322 35.212 35.252 35.222 35.2 35.147 35.23 37.145 37.072 41.245 41.387 41.4 41.35 37.03 36.987 37.172 37.162 36.235 34.685 34.722 34.74 36.197 41.32 41.325 41.295 41.282 41.242 41.215 41.18 41.13 41.107 41.07 41.045 40.995 40.965 40.945 40.93 40.9 40.982 41.065 40.84 40.805 40.765 40.735 40.685 40.665 40.625 40.607 40.567 40.545 40.515 40.48 40.43 40.41 40.387 40.355 40.312 40.31 40.275 40.247 40.21 40.187 40.157 40.137 40.112 40.06 40.042 39.982 38.71 38.6 38.157 36.777 36.812 35.305 35.185 34.955 34.752 35.097 35.202 35.56 36.422 36.205 34.745 34.285 34.245 34.017 34.027 34.502 34.83 33.737 33.672 33.307 33.387 33.6 33.695 33.725 33.645 40.25 47.97 49.085 49.13 49.12 48.495 49.107 46.407 48.717 44.237 47.125 46.025 43.665 43.475 39.012 36.837 35.125 33.765 33.817 33.907 33.942 33.967 33.982 33.935 33.96 33.915 33.9 33.87 33.882 33.895 33.92 33.947 34.025 34.085 35.87 34.865 34.642 35.57 34.57 34.85 34.377 36.057 37.957 39.342 41.32 41.37 39.235 38.9 39.992 43.64 43.672 43.665 43.635 43.61 43.602 43.605 43.595 40.765 37.837 37.852 37.875 37.852 37.865 37.96 40.225 41.635 41.532 41.43 40.24 38.352 39.027 38.917 38.605 38.337 38.39 38.117 37.24 36.937 36.967 37.167 35.222 35.337 35.392 35.26 35.24 35.247 35.22 35.252 35.275 35.302 35.33 35.45 35.522 35.592 35.63 35.685 37.052 36.692 37.817 36.515 37.807 39.087 40.032 39.897 39.877 39.875
55.827 55.315 55.292 55.215 54.415 53.837 53.082 52.845 51.485 48.482 46.002 44.345 43.377 44.192 44.397 42.927 42.812 42.75 42.672 42.592 42.542 42.61 42.557 42.525 42.465 42.422 42.395 42.385 42.425 42.382 42.36 42.305 42.477 42.38 43.302 43.26 44.287 42.035 41.945 41.922 42.165 42.127 43.285 47.205 51.502 52.875 53.54 53.495 53.337 54.945 55.445 53.542 53.495 53.495 53.532 53.607 53 51.78 51.552 51.412 49.235 43.997 42.8 42.48 41.917 41.495 41.03 40.932 40.88 40.89 41.137 41.177 41.4 41.492 41.172 41.24 41.307 41.17 41.57 42.655 42.9 42.422 42.42 44.442 47.26 48.552 49.05 48.485 41.162 42.902 43.585 42.085 39.31 39.28 39.257 39.257 39.242 39.242 39.237 39.22 39.192 39.165 39.115 39.115 39.085 45.512 48.96 48.617 49.13 49.557 47.617 42.67 42.615 42.487 42.365 42.66 44.05 42.705 42.27 42.942 42.955 45.442 48.18 48.47 48.48 48.257 46.977 41.095 38.645 38.44 38.622 38.57 38.437 38.487 38.69 38.392 38.512 39.1 47.032 47.995 47.217 47.167 46.315 39.375 38.422 38.807 39.732 39.435 38.672 40.162 40.09 40.167 40.14 39.975 39.937 39.957 39.082 40.657 47.98 47.777 45.302 42.212 46.117 47.295 47.71 48.665 49.075 48.32 48.347 48.217 48.077 47.612 47.182 47.865 47.92 46.81 37.985 40.765 41.257 45.717 48.515 48.507 44.99 37.275 37.275 37.23 37.237 37.215 37.115 37.042 38.137 38.635 37.237 36.135 36.177 36.142 36.102 36.845 36.285 38.045 37.59 36.512 40.805 43.582 42.995 42.842 43.432 39.432 35.672 37.152 38.23 38.522 39.267 39.52 39.642 41.947 42.89 42.965 42.87 42.082 46.772 48.997 49.792 50.617 50.795 51.985 53.812 54.317 54.975 55.737 55.535 54.852 54.272 52.142 42.56 38.995 36.107 35.285 35.187 35.202 35.177 35.137 35.157 35.332 35.562 41.08 41.33 41.407 41.327 38.092 36.29 36.44 36.527 34.967 34.707 34.952 35.482 35.64 41.105 41.087 41.077 41.032 41.017 40.99 41.002 40.925 40.875 40.842 40.815 40.81 40.747 40.755 40.715 40.695 40.667 40.71 40.617 40.582 40.565 40.53 40.482 40.442 40.41 40.385 40.362 40.33 40.482 40.37 40.24 40.217 40.187 40.145 40.122 40.085 40.07 39.992 39.867 38.877 38.74 37.07 36.91 37.067 35.752 34.992 34.77 34.692 34.782 35.467 36.245 36.592 36.912 37.88 38.365 39.095 39.825 40.147 40.105 39.567 34.525 34.24 35.295 36.75 37.662 40.02 41.44 33.712 33.652 33.3 33.435 33.637 33.717 33.735 33.685 37.275 48.21 49.307 50.207 49.705 49.152 49.157 49.132 49.142 49.092 49.102 49.065 48.162 47.482 46.587 46.897 41.83 33.712 33.745 33.775 33.865 33.9 33.995 33.955 33.935 33.93 33.877 33.9 33.912 33.917 33.935 33.965 33.957 34.02 34.515 34.197 34.16 35.222 34.565 35.075 34.315 34.357 34.31 34.237 34.327 36.78 38.645 39.725 39.502 43.605 43.622 43.64 43.617 43.625 43.627 43.637 43.61 40.115 38.497 40.257 42.367 38.542 37.832 38.192 40.845 42.035 41.512 41.752 39.04 36.66 36.64 37.31 38.25 38.325 38.427 37.977 36.19 35.432 35.747 36.002 35.325 35.775 36.717 35.51 35.212 35.222 35.212 35.487 35.302 35.27 36.02 35.52 35.477 35.56 35.61 35.662 37.982 35.982 38.087 35.987 36.76 39.805 40.225 40.585 39.975 39.97
54.855 54.68 53.872 50.052 47.767 47.562 45.607 44.035 43.892 43.297 43.122 43.04 42.985 42.922 42.912 43.14 43.525 43.22 42.647 42.587 42.572 42.625 42.6 42.537 42.45 42.392 42.36 42.327 42.377 42.317 42.307 42.262 42.207 42.125 42.082 42.077 42.007 42.027 42.362 43.045 43.517 45.4 51.145 53.597 53.577 53.485 53.675 53.487 53.265 53.767 54.54 53.782 53.532 53.577 53.305 52.205 51.152 50.142 49.262 45.662 43.127 43.822 42.222 41.552 41.26 41.187 41.365 41.24 41.065 40.927 41.462 41.645 41.447 41.227 41.147 41.225 41.275 41.62 42.07 42.645 42.817 42.68 42.92 46.32 48.585 48.63 49.042 43.395 40.745 43.635 44.722 44.22 41.557 39.252 39.245 39.247 39.255 39.252 39.237 39.172 39.142 39.137 39.082 39.042 39.057 40.755 47.685 48.912 48.627 48.797 43.192 42.19 42.602 42.642 42.475 42.322 43.505 42.675 42.725 43.04 42.942 43.427 48.27 48.58 49.14 49.46 49.58 48.475 41.54 38.575 38.952 39.212 38.42 38.395 38.84 38.62 38.412 38.875 43.587 47.26 47.227 47.19 47.285 42.22 38.86 38.792 39.37 38.91 38.955 40.152 40.137 40.142 40.122 40.122 40.132 40.135 39.397 41.382 49.067 49.025 46.577 46.21 48.695 48.44 48.187 49.017 46.535 47.4 49.09 49.11 49.082 48.887 49.045 44.162 49.025 46.607 39.362 39.707 38.262 45.41 48.85 48.852 45.62 37.527 37.32 37.282 37.36 37.295 37.15 37.06 40.407 40.017 38.322 36.255 36.095 36.14 36.09 36.077 36.3 35.99 37.552 36.765 37.122 41.747 42.957 43.555 44.082 42.382 38.497 40.657 39.105 38.722 38.557 39.485 39.562 39.872 42.12 42.915 42.962 42.88 43.245 47.507 49.107 49.937 52.462 54.012 54.46 55.117 55.81 55.435 54.74 54.13 50.85 44.395 40.64 39.947 38.662 35.267 35.165 35.17 35.157 35.147 35.187 35.197 35.255 40.38 41.317 41.372 41.265 39.915 35.075 35.015 34.767 34.717 34.717 34.99 35.507 35.107 40.62 41.022 40.345 40.895 40.802 40.762 40.745 40.71 40.92 40.65 40.605 40.58 40.562 40.537 40.49 40.457 40.44 40.42 40.392 40.372 40.34 40.33 40.27 40.29 40.202 40.28 40.137 40.1 40.15 40.08 40.01 39.29 39.66 38.672 37.632 37.372 35.517 35.517 34.842 34.707 34.672 35.035 35.117 35.577 36.462 37.527 38.675 38.655 39.537 39.667 39.835 40.115 40.105 40.087 40.072 40.022 40.057 40.042 40.052 40.792 42.275 43.197 45.337 46.977 44.957 47.572 47.56 33.755 33.812 33.372 33.452 33.657 33.735 33.76 33.715 36.912 49.097 49.23 49.775 49.545 49.19 49.18 49.155 49.17 49.142 49.087 49.087 48.59 47.267 46.71 41.88 35.99 33.675 33.675 33.73 33.81 33.887 33.875 33.897 33.892 33.86 34.092 34.715 33.9 33.917 33.975 33.98 33.975 33.98 34.757 34.84 34.6 34.582 34.157 34.152 34.205 34.227 34.245 34.212 34.212 34.232 34.257 35.2 41.832 43.502 43.59 43.59 43.622 43.625 43.62 43.612 43.237 38.5 41.795 44.412 44.9 42.452 40.905 40.567 44.115 41.987 41.185 41.572 36.855 35.93 35.592 35.6 37.245 38.257 38.337 37.367 35.525 35.5 35.827 35.947 36.352 35.797 35.452 35.37 35.197 35.217 35.2 35.85 36.587 35.67 36.602 38.882 38.19 37.615 36.145 35.712 37.075 35.837 37.39 37.982 38.795 39.79 40.052 40.337 39.98 39.705
52.3 46.58 44.702 43.645 43.422 43.387 43.34 43.282 43.367 43.25 43.307 43.21 43.767 43.952 43.807 43.892 43.517 43.482 42.697 42.65 42.58 42.605 42.572 42.495 42.427 42.347 42.317 42.33 42.29 42.28 42.262 42.242 42.197 42.13 42.055 42.002 41.972 42.29 43.857 47.162 49.99 53.497 53.83 53.975 53.565 53.492 53.875 53.777 53.442 53.542 53.582 53.612 53.247 51.797 51.16 52.012 49.307 45.76 42.89 42.5 42.53 41.71 41 40.67 41.022 41.242 41.365 41.507 41.372 41.31 41.14 41.085 41.2 41.205 41.172 41.205 41.332 42.122 42.265 42.04 42.957 45.095 44.417 43.272 48.74 48.867 49.042 48.01 42.962 44.482 44.392 43.6 40.167 39.227 39.222 39.257 39.227 39.245 39.19 39.175 39.167 39.095 39.032 39.025 38.962 39.005 41.265 47.807 47.865 44.985 44.835 42.532 42.537 42.652 42.567 42.39 42.102 41.967 42.102 42.912 42.965 43.102 45.417 49.51 49.532 49.605 49.69 49.452 44.285 38.527 38.527 38.9 38.395 38.427 38.427 38.337 38.342 38.885 39.192 44.572 47.23 47.207 47.197 45.962 40.357 38.9 38.712 38.772 39.465 39.702 39.927 40.022 39.672 39.64 39.642 39.645 38.882 41.055 49.075 49.007 48.92 45.83 48.857 49.037 48.952 48.997 49.017 49.047 49.075 48.527 49.075 48.222 48.27 49.022 48.987 49.057 44.555 45.802 45.992 47.492 48.915 48.935 43.865 37.525 37.3 37.282 37.337 37.262 37.172 37.112 36.952 36.687 36.295 36.175 36.527 36.2 36.06 36.082 35.997 36.08 36.165 37.545 37.375 37.955 43.747 43.492 42.995 43.152 42.232 41.767 40.827 38.067 37.517 38.492 39.735 39.685 39.922 42.79 42.92 42.92 42.68 44.525 48.46 52.045 54.255 54.572 55.222 55.81 55.327 54.6 51.175 48.767 42.4 39.522 40.087 39.317 35.89 35.312 35.19 35.107 35.132 35.167 35.242 35.505 35.247 39.027 41.345 41.37 41.277 39.032 35.08 35.317 34.75 34.712 34.69 35.007 35.27 34.99 39.962 40.652 40.772 40.73 40.585 40.555 40.517 40.467 40.55 40.432 40.4 40.365 40.347 40.315 40.29 40.242 40.22 40.222 40.18 40.155 40.105 40.065 40.022 40.02 39.485 39.547 38.225 37.47 37.375 36.282 35.615 34.695 34.682 34.677 35.287 35.197 35.877 37.477 38.387 39.022 39.497 39.145 39.96 40.077 40.082 40.082 40.065 40.072 40.047 40.072 40.052 40.052 40.03 40.025 40 40 40.012 40.017 40.02 40.682 46.865 47.55 47.725 47.735 46.487 47.542 47.607 34.747 33.722 33.615 33.435 33.642 33.705 33.735 33.73 34.802 48.837 49.087 49.105 49.147 49.162 49.122 49.12 49.12 49.087 49.105 49.055 45.907 41.852 35.012 33.597 33.575 33.565 33.645 33.727 33.767 33.815 34.022 33.935 33.852 34.595 41.79 43.95 36.262 34.025 33.982 33.96 33.962 33.967 34.01 34.09 34.22 34.555 34.202 34.08 34.44 34.392 34.272 34.202 34.2 34.25 34.247 34.292 34.477 35.257 41.675 43.567 43.567 43.555 43.12 43.607 42.02 37.99 41.952 44.167 44.32 43.647 42.125 44.45 45.372 43.395 41.612 41.415 38.74 36.24 35.552 35.542 37.655 37.822 37.857 36.575 35.645 36.272 36.612 35.792 35.535 35.285 35.395 35.205 35.2 35.182 35.227 36.277 36.322 35.237 36.812 38.432 38.42 38.467 38.732 37.72 37 36.38 36.232 39.95 42.442 45.087 44.67 41.235 40.167 37.675
43.665 43.592 43.525 43.472 43.487 43.582 43.495 43.685 43.58 44.175 43.71 43.86 43.552 43.172 43.135 42.902 42.882 42.79 42.687 42.625 42.535 42.522 42.567 42.487 42.407 42.32 42.257 42.21 42.197 42.205 42.21 42.197 42.145 42.09 42.06 41.94 41.947 41.992 44.637 51.53 53.592 53.555 54.9 55.61 53.24 53.457 53.545 53.557 53.547 53.592 53.272 51.95 51.317 50.902 49.885 46.735 43.755 42.842 43.015 42.027 41.117 40.735 40.495 40.465 40.44 40.422 40.65 41.21 41.32 41.23 41.272 41.345 41.3 41.3 41.27 41.54 41.962 42.162 42.622 41.935 44.43 45.35 45.737 48.05 51.107 50.06 49.322 49.527 45.405 40.875 40.687 39.772 39.15 39.195 39.255 39.257 39.227 39.18 39.157 39.177 39.15 39.035 38.982 38.952 38.897 38.935 39.062 42.852 45.205 45.107 45.195 44.145 42.667 42.637 42.645 42.052 41.862 41.35 39.72 42.305 43.547 39.375 44.385 49.552 49.68 49.502 49.632 49.625 47.972 41.455 38.477 38.372 38.355 38.382 38.397 38.32 38.275 38.507 38.73 43.662 47.267 47.195 47.195 47.262 43.207 38.46 38.822 38.62 38.9 38.277 37.93 37.907 37.885 38.365 38.102 38.245 37.957 39.575 49.085 49.017 48.972 43.63 42.35 49.032 48.96 49.037 49.037 49.052 49.072 49.09 49.077 49.045 49.025 49.015 49.012 49.015 49.042 49.037 49.017 49.007 48.992 49.002 44.492 37.927 37.457 37.265 37.237 37.222 37.205 37.192 36.912 36.425 36.282 36.205 36.455 36.922 36.05 36.075 36.042 36.535 36.39 37.582 37.737 37.247 38.31 42.545 43.262 41.502 39.65 41.32 39.727 35.947 37.407 37.955 39.412 39.53 41.297 42.672 42.797 42.72 42.665 46.51 52.227 53.952 54.75 55.382 55.767 55.17 54.562 52.43 47.932 41.077 40.442 40.042 38.297 35.797 35.357 35.337 36.065 35.735 35.097 35.097 35.105 35.247 35.187 40.292 41.322 41.367 41.282 39.757 35.127 35.167 34.98 34.71 34.717 34.942 35.387 35.187 39.465 40.462 40.452 40.427 40.36 40.325 40.297 40.275 40.237 40.207 40.195 40.26 40.11 40.11 39.865 40.025 39.89 39.382 38.217 38.167 37.207 36.82 35.777 35.945 35.357 34.875 35.18 35.12 35.45 37.22 36.975 38.165 39.015 39.135 39.89 40.132 40.097 40.085 40.095 40.067 40.075 40.047 40.017 40.067 40.042 40.017 40.042 40.04 40.045 40.055 40.03 40.005 40.03 40.03 39.997 39.977 39.977 39.99 39.965 39.967 46.567 47.545 45.075 47.84 47.595 47.572 47.565 42.47 33.722 33.482 33.407 33.6 33.702 33.735 33.707 34.167 47.862 49.06 49.075 49.12 49.145 49.095 49.032 49.085 49.095 49.06 44.652 35.635 33.512 33.505 33.497 33.545 33.572 33.645 33.735 33.822 34.08 34.682 34.87 38.1 45.987 48.167 47.842 46.885 34.245 34.197 34.14 34.09 34.07 34.092 34.06 34.09 34.075 34.072 34.1 34.73 36.067 35.92 34.47 34.112 34.145 34.2 34.277 34.27 34.33 38.962 41.412 42.525 42.9 36.742 36.692 37.562 36.43 43.307 43.767 43.862 42.575 43.37 44.222 44.125 44.112 43.52 43.937 40.392 35.905 35.655 36.115 38.145 38.392 36.165 35.27 35.207 36.752 36.78 36.017 35.595 35.292 36.09 35.997 35.27 35.15 35.53 35.787 35.565 36.7 40.635 40.79 38.38 38.412 38.442 40.26 40.227 38.36 38.472 45.83 46.575 46.907 46.922 46.98 45.07 36.245
43.582 43.985 43.942 43.915 44.267 44.022 44.405 43.917 44.03 43.455 43.472 43.187 43.095 43.025 42.97 42.89 42.902 42.765 42.655 42.617 42.54 42.45 42.465 42.375 42.3 42.265 42.197 42.157 42.132 42.127 42.132 42.175 42.155 42.105 41.997 41.902 41.912 41.905 42.245 49.402 53.582 53.535 53.71 55.257 54.425 53.535 53.537 53.577 53.222 51.985 51.007 51.017 50.332 46.73 43.247 43.895 43.207 42.857 42.045 40.912 40.815 41.04 40.4 40.582 40.982 40.435 40.292 40.385 41.087 41.31 41.312 41.302 41.387 41.32 43.3 42.567 42.055 43.457 43.82 42.41 43.1 46.947 50.265 51.337 51.365 51.285 49.982 49.835 43.787 39.997 39.26 39.142 39.09 39.152 39.25 39.21 39.185 39.335 39.162 39.16 39.082 39.067 38.935 38.91 38.86 38.865 38.865 39.872 42.74 45.027 45.09 44.97 43.842 45.565 42.997 41.922 41.892 40.407 38.777 40.765 43.69 39.602 43.637 49.605 49.627 49.6 49.525 49.555 49.31 45.02 39.01 38.415 38.32 38.39 38.405 38.365 38.37 38.27 38.352 38.955 45.79 47.227 47.212 47.195 46.317 41.612 38.832 38.745 38.557 38.665 38.167 37.967 37.96 37.947 37.945 37.97 37.97 41.232 49.097 49.04 48.98 38.367 40.125 49.085 49.01 49.15 49.055 49.072 49.105 49.16 49.09 49.075 49.035 49.057 49.032 49.067 49.057 49.062 49.04 49.035 49.035 49.032 47.352 38.002 37.677 37.245 37.23 37.237 37.242 37.21 37.052 36.682 36.53 36.45 36.2 36.215 36 36.017 35.987 35.942 36.415 36.095 36.455 36.32 36.28 40.97 38.592 39.817 42.427 41.805 37.772 36.642 36.412 38.285 38.545 39.565 40.027 42.087 42.712 42.88 45.87 51.592 52.84 54.777 55.505 55.71 55.067 54.42 54.092 45.362 40.802 40.367 39.99 38.23 36.19 35.412 35.387 36.817 43.64 40.66 35.112 35.082 35.085 35.057 35.042 39.822 41.295 41.32 41.272 41.087 35.85 35.382 34.785 34.737 34.692 34.82 35.502 35.34 37.637 40.225 40.227 40.19 40.145 40.115 40.072 40.04 39.992 39.95 39.665 39.46 38.697 37.502 36.485 35.302 35.16 34.732 34.792 35.007 36.32 36.242 36.59 38.057 38.682 39.037 39.595 40.16 40.102 40.072 40.075 40.11 40.065 40.047 40.062 40.055 40.067 40.055 40.05 40.02 40.012 39.995 40.02 40.037 40.025 39.972 39.995 39.992 40.012 39.995 39.98 39.937 39.927 39.917 39.95 39.932 39.95 39.915 39.922 39.912 45.145 47.527 47.61 47.807 47.602 47.615 47.527 44.952 33.712 33.487 33.34 33.605 33.71 33.73 33.702 33.597 44.597 48.965 49.102 49.1 49.115 49.092 49.067 49.085 45.4 39.687 33.427 33.42 33.402 33.44 33.495 33.562 33.605 33.64 33.907 34.435 34.535 40.427 43.032 49.257 48.522 48.465 47.877 41.955 36.697 35.147 34.39 34.227 34.227 34.175 34.13 34.137 34.062 34.117 34.097 34.14 34.157 34.177 34.092 34.092 34.057 34.052 34.162 34.212 34.177 34.357 34.412 34.36 35.212 34.357 34.367 34.442 34.462 35.205 38.367 41.95 41.045 43.652 44.187 44.16 44.132 44.122 44.015 38.722 35.4 39.337 40.887 40.307 39.167 35.687 35.16 35.34 37.392 36.36 35.312 35.485 36.065 36.062 35.137 35.122 35.142 35.122 35.35 35.245 39.425 45.19 45.327 44.99 43 41.007 42.717 44.485 38.717 40.255 46.732 46.772 46.785 46.675 46.702 42.015 36.09
44.27 44.312 43.905 44.05 43.552 43.755 43.422 43.367 43.312 43.25 43.16 43.122 43.09 43.047 42.94 42.862 42.812 42.767 42.622 42.53 42.432 42.35 42.352 42.312 42.302 42.22 42.172 42.122 42.075 42.07 42.102 42.077 42.102 42.077 41.965 42.347 42.237 41.857 41.985 44.817 53.425 53.53 53.5 53.81 53.61 53.622 53.077 51.887 51.67 51.102 50.625 46.78 43.975 43.165 42.765 42.46 42.397 41.007 40.762 40.66 41.067 40.742 40.435 40.375 40.285 40.197 40.1 40.175 40.395 41.207 41.122 40.987 42.345 44.952 45.837 43.925 42.047 43.107 45.112 44.565 43.687 49.892 51.357 51.425 48.497 51.23 49.615 44.39 39.532 39.297 39.107 39.15 39.192 39.172 39.142 39.182 39.19 39.187 39.142 39.145 39.08 39.015 38.932 38.835 38.82 38.76 38.775 38.742 41.662 43.947 45.142 45.377 49.33 50.63 45.612 41.977 41.887 41.782 39.27 39.467 43.672 40.66 39.4 49.065 49.59 49.637 49.545 49.582 49.64 48.572 42.622 38.515 38.332 38.31 38.355 38.335 38.747 38.49 38.327 38.955 41.342 47.247 47.225 47.212 47.072 42.717 38.417 38.485 38.555 38.63 38.317 38.067 37.942 37.955 37.937 37.987 38.005 38.345 48.86 49.057 48.232 38.197 37.732 46.362 44.665 46.175 45.152 45.12 46.035 46.08 45.945 46.6 46.605 46.302 46.465 46.562 45.97 46.55 45.555 46.117 46.775 46.55 44.152 38.67 37.41 37.24 37.21 37.212 37.245 37.24 37.18 36.972 36.837 36.797 37.255 36.182 35.985 35.975 35.97 35.922 35.895 35.775 35.835 36.04 35.987 35.865 39.247 42.977 42.7 42.94 43.46 37.537 37.67 38.885 38.557 39.4 39.487 39.995 43.092 47.545 52.252 54.315 54.87 55.625 55.705 54.917 54.342 53.577 45.05 40.725 40.292 39.915 38.032 36.805 36.767 36.107 38.83 45.367 46.225 44.927 38.23 35.05 35.042 35.03 35.02 38.517 41.397 41.31 41.225 41.647 36.972 35.117 35.002 34.747 34.725 34.722 35.452 35.92 35.66 40 39.635 39.55 38.712 38.39 37.485 37.625 38.352 38.105 37.015 37.052 36.24 35.4 35.807 37.795 37.695 37.22 38.537 39.152 40.107 40.155 40.112 40.107 40.09 40.067 40.057 40.035 40.03 40.027 40.04 40.06 40.015 40.01 40.015 40.022 40.03 40.002 40.015 39.967 39.942 39.972 39.997 39.96 39.985 39.945 39.92 39.937 39.95 39.925 39.945 39.925 39.907 39.892 39.895 39.905 39.892 39.877 39.822 39.875 45.01 44.702 43.485 47.845 47.497 47.647 47.495 46.672 34.49 33.527 33.317 33.58 33.71 33.752 33.752 33.622 40.655 48.577 49.075 49.112 49.067 49.085 46.915 39.247 33.37 33.357 33.302 33.327 33.427 33.48 33.542 33.597 34.21 33.61 34.152 37.22 44.312 47.125 47.832 48.462 48.452 48.425 46.11 40.36 38.687 38.375 38.745 36.785 34.917 34.6 34.652 34.627 34.182 34.172 34.19 34.105 34.1 34.08 34.09 34.077 34.11 34.067 34.092 34.062 34.095 34.167 34.232 34.29 34.302 34.32 34.337 34.365 34.382 34.41 34.442 34.462 35.82 36.52 41.01 42.972 44.16 44.167 43.422 35.3 36.277 43.08 42.557 42.95 42.592 41.542 38.147 35.645 37.187 37.492 36.565 35.18 35.125 35.105 35.102 35.097 35.257 35.64 35.277 35.172 39.942 45.59 46.395 46.185 45.725 45.052 44.442 43.19 38.37 40.905 46.44 47.06 46.745 46.575 46.422 41.9 35.882
44.107 43.922 43.672 43.612 43.565 43.487 43.45 43.377 43.287 43.252 43.15 43.09 43.02 43 42.885 42.847 43.207 43.31 42.482 42.45 42.335 42.277 42.325 42.297 42.957 43.317 46.172 43.397 42.057 41.98 41.985 41.962 41.977 41.965 41.927 41.922 42.802 42.01 41.81 42.115 51.022 53.555 53.54 53.575 53.387 52.675 51.042 50.995 49.982 45.927 43.775 42.915 41.377 42.895 42.162 41.065 44.017 41.205 40.662 40.637 40.575 40.52 40.44 40.332 40.26 40.165 40.075 40.045 40.102 40.72 41.06 42.86 45.357 45.795 45.63 43.95 42.53 46.345 48.215 49.997 51.005 51.367 51.345 51.367 51.297 49.287 43.655 39.342 39.372 39.937 39.162 39.172 39.167 39.135 39.12 39.24 39.17 39.762 45.28 44.03 39.117 38.995 38.892 38.835 38.772 38.702 38.69 38.67 39.187 42.485 45.027 48.947 50.542 50.607 50.675 42.33 41.897 41.915 40.657 40.74 42.175 39.477 38.522 41.047 49.59 49.635 49.597 49.507 49.635 49.577 46.337 39.282 38.407 38.282 38.357 38.335 38.312 38.567 38.37 38.447 38.695 45.747 48.255 47.205 47.177 46.632 40.315 38.51 38.735 38.597 38.937 38.392 37.99 37.952 37.952 37.985 37.992 40.095 49.077 49.03 48.105 40.462 38.815 38.487 37.782 37.695 37.67 37.66 37.65 37.622 37.662 37.67 37.655 37.667 37.64 37.6 37.58 37.572 37.602 37.685 37.875 37.95 37.857 37.965 37.272 37.282 37.24 37.245 37.222 37.242 37.23 37.137 36.967 36.825 37.322 37.207 36.052 36.132 36.07 35.932 35.867 35.797 35.752 35.81 35.967 35.992 37.557 41.92 43.045 43.375 43.1 42.217 40.785 40.937 40.102 39.945 40.15 41.622 46.295 53.655 54.392 54.98 55.715 55.507 54.805 54.137 53.065 43.63 40.66 40.25 39.815 37.11 38.617 37.36 36.23 39.852 44.032 44.4 46.197 46.167 46.1 37.522 34.982 34.985 35.007 36.69 40.762 41.3 41.26 41.515 36.16 34.815 35.072 34.795 34.717 34.71 34.752 34.892 35.742 35.125 34.972 35.097 35.26 35.565 35.747 35.16 38.055 37.962 39.34 40.23 40.565 39.55 40.585 40.707 39.547 38.06 38.91 39.58 40.292 40.09 40.08 40.072 40.045 40.035 40.017 40.017 40.017 40.01 40.007 40.01 40.017 39.99 40.005 40.015 39.99 39.967 39.975 39.935 39.912 39.907 39.927 39.93 39.92 39.902 39.89 39.915 39.907 39.925 39.927 39.88 39.855 39.437 38.142 38.377 37.732 36.225 34.792 34.865 36.23 34.6 35.445 46.887 47.56 47.6 47.53 46.775 35.395 33.795 33.357 33.56 33.732 33.782 33.787 33.642 37.845 47.755 49.087 48.782 45.465 43.427 35.77 33.33 33.28 33.282 33.337 33.42 33.475 33.542 33.687 34.915 35.09 33.957 43.42 48.422 48.097 48.452 48.407 48.475 48.482 48.212 44.217 39.01 39.76 41.465 43.582 41.567 41.177 38.415 38.187 36.735 36.547 35.362 34.26 34.26 34.237 34.165 34.095 34.08 34.037 34.075 34.097 34.095 34.13 34.152 34.127 34.132 34.145 34.217 34.285 34.362 34.317 34.362 34.387 34.425 34.877 34.697 34.742 34.812 38.13 40.205 39.697 37.11 38.72 42.98 42.55 43.225 42.477 42.782 37.915 36.227 36.942 38.6 38.742 35.397 35.155 35.145 35.12 35.132 35.145 35.415 35.57 37.26 43.332 45.902 46.997 46.915 45.895 44.852 44.365 38.925 36.437 36.475 44.817 48.065 47.87 47.712 47.455 38.617 35.767
43.812 43.755 43.707 43.6 43.535 43.485 43.397 43.342 43.215 43.237 43.622 43.482 42.947 43.335 43.52 43.43 44.325 42.627 42.572 42.52 42.482 42.425 46.032 49.637 50.38 49.215 52.757 45.352 41.085 41.97 41.902 41.85 41.922 41.875 41.86 41.77 41.76 42.242 41.782 41.792 45.287 53.595 53.41 52.14 51.097 51 50.255 46.285 44.65 43.47 40.947 41.307 40.907 41.09 41.06 41.047 40.832 40.747 40.705 40.692 40.542 40.5 40.432 40.317 40.207 40.162 40.09 40.082 40.145 40.61 44.735 45.772 45.772 44.775 43.442 42.82 42.565 45.612 48.795 51.265 51.255 51.332 51.377 51.255 48.632 42.53 39.765 39.23 39.792 39.555 39.215 39.17 39.132 39.165 39.22 39.197 39.4 43.677 49.017 49.44 43.242 39.862 39.13 38.835 38.707 38.662 38.65 38.607 38.572 39.997 42.53 48.16 50.337 50.592 50.637 48.415 41.942 42.092 41.927 41.412 41.11 38.947 38.52 38.845 48.98 49.637 49.652 49.482 49.535 49.557 48.867 42.482 38.397 38.347 38.597 38.335 38.315 38.802 38.797 38.302 38.562 41.672 47.31 47.19 47.185 47.175 45.187 39.525 39.022 38.657 38.815 38.625 38.005 37.98 37.937 37.957 37.982 42.467 49.062 49.017 49.252 47.395 47.422 42.09 37.67 37.645 37.63 37.605 37.562 37.542 37.537 37.572 37.535 37.5 37.475 37.465 37.452 37.447 37.445 37.442 37.417 37.405 37.36 37.317 37.302 37.28 37.255 37.265 37.265 37.285 37.387 37.177 37.032 36.945 36.77 37.07 36.107 36.292 37.015 35.9 35.855 35.815 35.717 35.702 35.82 36.585 38.235 38.13 43.485 42.79 42.702 43.205 42.03 42.302 41.992 40.177 40.085 41.85 40.895 53.522 55.167 55.755 55.435 54.7 54.01 49.5 42.785 40.61 40.145 39.682 37.025 38.74 39.087 39.255 40.465 45.647 43.845 45.362 46.38 47.227 46.177 43.03 36.532 34.93 34.967 36.06 41.222 41.242 41.25 41.427 35.392 34.877 35.735 35.467 34.785 34.727 34.752 35.01 35.335 35.365 35.52 35.602 35.555 36.5 36.282 34.617 39.705 38.857 40.715 40.587 40.602 40.155 40.32 40.182 40.172 40.135 40.1 40.017 40.245 40.037 40.047 40.025 39.987 39.987 39.987 39.965 39.96 39.98 39.962 39.965 39.97 39.937 39.935 39.942 39.942 39.947 39.912 39.905 39.912 39.882 39.875 39.912 39.905 39.525 39.772 38.54 37.012 37.767 36.377 35.162 36.195 34.59 34.112 34.097 34.105 34.127 34.137 34.067 34.492 35.49 33.92 44.06 47.74 47.585 47.562 46.685 33.735 33.565 33.285 33.505 33.752 33.787 33.747 33.667 33.632 41.087 40.325 33.672 34.725 33.277 33.222 33.215 33.27 33.307 33.362 33.41 33.525 34.57 34.125 33.695 33.615 35.015 43.15 48.305 48.442 48.462 48.44 48.49 48.462 47.842 44.057 42.877 45.575 45.69 45.125 45.135 45.062 44.19 44.112 43.255 41.207 38.152 37.262 35.12 34.782 34.825 34.19 34.14 34.132 34.14 34.055 34.07 34.12 34.147 34.15 34.175 34.135 34.137 34.132 34.21 34.217 34.342 34.437 34.487 34.477 34.512 34.64 34.745 34.77 34.805 34.8 34.877 36.76 41 42.69 43.135 42.477 41.41 37.615 35.83 37.757 38.625 38.792 35.142 35.14 35.145 35.157 35.117 35.14 35.16 35.11 37.207 45.15 46.26 47.205 46.63 45.555 44.532 44.345 38.442 36.55 37.215 45.317 48.695 48.962 48.395 45.407 36.782 35.717
43.79 43.747 43.672 43.59 43.492 43.42 43.352 43.632 44.512 45.395 43.815 43.51 42.97 42.942 42.857 42.787 43.012 42.917 43.175 43.707 43.22 42.412 44.425 51.457 52.57 52.457 52.31 52.24 43.662 42.117 41.85 41.777 41.827 41.845 41.85 41.792 41.705 42.475 41.842 41.727 42.105 49.655 51.25 50.942 50.67 47.06 43.442 43.24 43.222 42.557 40.9 40.932 40.972 41.012 40.98 40.955 40.897 40.842 40.725 40.73 40.695 40.752 43.05 40.37 40.235 40.075 40.042 40.042 40.357 39.987 43.6 45.817 44.33 42.852 44.377 45.5 42.957 46.637 48.66 50.437 51.322 51.267 51.255 47.752 42.682 39.617 39.212 39.182 39.205 39.202 39.18 39.142 39.197 39.222 39.222 40.02 44.635 48.9 49.302 48.915 49.52 43.582 41.15 38.747 38.692 38.635 38.615 38.515 38.457 38.5 38.59 43.305 48.817 50.537 50.615 50.53 44.217 41.31 41.107 41.127 41.215 40.517 39.657 38.505 42.685 49.59 49.57 49.547 47.642 48.265 42.505 39.767 38.902 38.405 39.142 38.51 38.275 38.355 38.922 38.212 38.382 38.632 44.905 47.215 47.29 46.66 48.815 42.852 38.48 38.587 38.73 38.64 38.007 37.965 37.947 37.957 37.96 42.135 49.077 49.025 48.995 48.995 49.032 40.555 37.647 38.152 37.83 37.792 37.757 37.757 37.887 40.625 41.825 38.195 37.867 37.927 39.155 37.74 37.755 37.46 37.367 39.462 38.335 37.38 37.342 37.37 37.345 37.312 37.34 37.31 37.28 37.185 37.107 36.99 36.81 36.592 36.167 36.01 37.317 36.437 35.87 35.79 35.755 35.655 35.665 36.68 37.812 36.975 40.032 42.735 42.145 41.962 42.442 42.37 42.33 41.532 41.235 42.475 41.522 41.777 54.797 55.32 54.575 54.222 49.605 41.027 40.52 40.122 39.595 37.11 38.562 39.12 39.112 42.067 46.252 46.1 44.42 46.14 47.477 48.7 46.48 45.947 42.265 36.002 34.902 34.955 41.44 41.24 41.245 41.38 36.785 35.127 35.38 35.682 34.95 34.732 34.72 34.75 35.505 35.945 34.895 36.375 35.147 36.47 36.727 34.93 38.79 40.555 40.55 40.525 40.547 40.537 40.292 40.06 39.972 39.507 40.492 39.34 39.655 40.03 39.995 39.982 39.942 39.93 39.915 39.905 39.932 39.932 39.935 39.922 39.927 39.935 39.902 39.915 39.882 39.9 39.615 39.455 39.095 37.455 38.217 35.5 35.797 34.622 34.772 35.597 34.312 34.12 34.1 34.742 35.552 34.237 34.067 34.097 34.122 34.147 34.152 34.587 34.6 35.447 34.015 43.95 47.592 47.532 47.527 47.587 33.725 33.772 33.285 33.467 33.722 33.725 33.682 33.635 33.557 33.725 34.04 33.405 33.182 33.165 33.207 33.292 33.307 33.32 33.327 33.345 33.64 33.637 33.432 34.717 38.075 39.832 40.435 43.282 47.377 48.55 48.452 48.462 48.477 46.735 43.585 45.37 48.602 48.92 48.635 48.497 47.102 46.107 48.58 46.975 46.485 43.042 41.875 40.797 38.535 37.317 35.942 34.175 34.27 34.297 34.182 34.135 34.205 34.195 34.175 34.187 34.162 34.195 34.217 34.215 34.2 34.437 34.987 34.827 34.345 34.43 34.492 34.6 34.7 34.742 34.695 34.777 35.175 34.722 36.637 38.677 40.56 40.185 37.737 35.607 38.235 38.685 38.422 35.187 35.202 35.172 35.175 35.272 35.31 35.19 35.12 41.462 45.51 46.56 47.282 46.305 45.232 44.39 43.592 37.762 34.54 41.425 47.555 49.087 49.295 48.257 43.35 35.677 35.657
43.755 44.042 43.912 44.297 44.475 43.37 43.317 43.305 43.24 44.212 43.12 43.155 43.195 43.547 43.65 43.475 43.607 42.91 43.342 43.132 42.69 42.385 42.98 47.15 52.26 52.355 52.745 53.242 48.307 41.537 41.842 41.74 41.732 41.755 41.79 41.797 41.722 41.772 42.08 41.692 41.687 44.34 50.32 47.652 43.935 43.362 42.537 42.36 42.285 41.627 40.997 41.002 41.022 41.022 41.032 40.937 40.885 40.822 40.792 40.987 44.782 49.617 51.507 43.147 40.16 40.062 39.98 39.947 40.12 39.84 40.565 45.372 43.862 45.797 48.822 48.885 44.017 47.375 48.635 48.965 51.062 50.862 45.477 41.317 39.405 39.47 39.21 39.242 39.21 39.177 39.147 39.187 39.217 39.295 40.187 46.93 48.84 49.125 49.835 49.177 48.942 45.837 41.512 39.717 38.627 39.032 38.657 38.502 38.382 38.362 38.425 39.06 47.607 50.067 49.99 49.39 48.722 41.207 41.117 41.22 39.965 39.072 39.29 38.695 38.637 46.672 49.582 48.572 43.81 41.52 45.115 45.172 38.655 38.57 38.42 38.632 38.255 38.23 38.385 38.612 38.252 38.395 40.495 44.59 39.025 40.062 41.442 38.547 38.675 38.602 38.232 38.177 38.007 37.945 37.932 37.947 37.98 44.14 49.087 49.03 49.017 49.02 49.052 40.587 37.622 38.142 37.957 38.002 38.002 37.977 38.047 43.792 47.12 39.61 38.505 38.24 38.642 40.527 43.02 39.992 37.785 39.537 38.945 37.405 37.422 37.417 37.405 37.372 37.345 37.22 37.24 37.18 37.085 36.935 36.835 36.627 38.992 40.222 40.62 39.61 36.11 35.78 35.745 35.677 35.62 35.657 36.592 37.04 37.027 41.822 41.76 42.422 42.375 42.282 42.417 42.817 42.487 42.735 41.385 39.99 43.72 54.522 53.847 48.6 40.875 40.447 40.065 39.1 37.125 38.822 39.095 39.24 42.697 45.952 46.225 46.195 46.142 46.112 46.317 46.455 46.117 46.127 49.857 41.69 35.182 34.99 41.52 41.207 41.24 41.262 38.145 35.177 35.182 35.627 35.41 34.767 34.73 34.792 35.552 35.717 35.157 36.242 34.742 35.465 36.58 34.702 37.255 40.507 40.54 40.48 40.5 40.737 40.54 39.577 39.605 39.397 40.597 39.38 39.527 39.922 39.917 39.937 39.912 39.917 39.917 39.892 39.897 39.89 39.902 39.882 38.75 38.627 38.07 36.21 36.32 35.87 35.247 34.745 34.267 34.042 34.05 34.092 34.567 34.085 35.002 35.345 34.075 34.107 34.08 34.45 34.322 34.04 34.08 34.077 34.125 34.325 35.077 35.39 34.65 33.987 34.455 42.442 47.925 48.845 49.762 42.922 34.077 33.34 33.12 33.355 33.592 33.612 33.615 33.64 33.797 33.525 33.137 33.102 33.122 33.185 33.235 33.277 33.277 33.255 33.242 33.342 33.587 33.975 36.275 38.365 40.052 40.735 41.43 42.135 43.15 46.175 48.527 48.462 48.512 45.767 42.227 47.455 49.187 52.537 51.932 51.402 50.02 48.965 48.96 48.602 47.427 46.007 45.145 44.972 44.872 43.522 38.93 36.622 37.027 34.402 34.332 34.277 34.395 34.395 34.392 34.3 34.267 34.202 34.21 34.25 34.222 34.322 34.507 34.677 34.27 34.275 34.322 34.4 34.505 34.565 34.607 34.737 35.085 35.14 35.13 35.632 35.227 36.105 35.925 36.625 38.435 38.767 36.617 35.24 35.23 35.205 35.22 35.46 36.08 35.557 36.032 44.257 45.837 46.945 47.067 45.985 44.89 44.337 40.787 36.82 36.475 40.277 48.31 49.437 49.035 47.88 39.527 35.602 35.6
43.9 43.957 43.702 43.64 44.195 43.552 43.41 43.425 43.475 43.38 43.352 43.292 43.522 43.887 43.592 45.147 46.802 49.742 50.53 52.037 42.887 42.382 42.43 41.727 50.567 53.205 52.955 52.515 52.542 41.98 41.9 41.73 42.23 41.687 41.73 41.722 41.645 41.652 42.337 41.795 41.645 41.97 43.712 42.945 42.695 42.355 41.6 41.332 41.155 41.087 41.052 41.047 41 41.002 40.977 40.97 41.292 41.125 40.877 47.74 52.367 52.27 52.24 48.08 41.25 40.062 39.905 39.935 39.88 40.452 39.847 40.982 44.617 48.665 48.78 48.725 48.607 48.767 49.087 48.492 49.345 46.182 40.535 41.265 39.995 39.762 39.212 39.255 39.185 39.157 39.212 39.247 39.277 41.4 45.327 51.102 49.56 48.827 49.285 49.86 48.055 44.24 43.94 41.03 39.47 38.805 39.122 38.485 38.4 38.247 38.295 38.72 42.907 46.897 49.457 49.547 49.545 47.667 42.815 40.34 37.19 37.322 38.165 45.64 43.955 42.187 43.117 39.21 45.09 46.96 47.235 46.772 41.23 38.732 38.352 39.115 38.54 38.217 38.21 38.915 38.175 38.302 38.287 38.41 38.352 38.47 38.647 38.747 38.54 38.237 38.182 38.092 38.057 38.042 37.977 37.922 37.947 43.457 49.09 49.04 49.027 49.025 49.047 40.452 37.647 37.967 38.032 38.032 38.007 37.995 37.975 38.502 43.497 37.537 38.02 38.545 42.022 41.052 42.177 40.382 37.375 37.42 39.667 37.43 37.425 37.397 37.372 37.352 37.24 37.07 36.945 36.94 36.792 36.662 36.607 36.492 37.96 37.975 39.352 37.767 38.062 35.755 35.72 35.695 35.615 35.602 35.84 36.857 35.892 36.51 42.227 42.367 42.327 42.337 42.457 42.522 42.925 42.905 42.867 39.93 40.095 46.012 47.862 40.777 40.387 39.962 38.635 36.977 39.105 39.127 39.14 42.812 46.207 46.212 46.182 46.145 46.142 46.075 46.107 46.142 46.525 51.025 56.44 52.165 39.152 34.96 40.21 41.175 41.237 41.185 36.202 34.852 34.897 34.967 35.81 35.327 34.935 34.792 35.17 35.637 35.095 36.11 35.545 35.067 35.052 34.715 36.555 40.295 40.797 40.455 40.45 39.79 40.455 40.055 39.742 40.022 39.972 39.967 40.015 39.99 39.875 39.882 38.492 37.34 37.375 36.157 36.29 34.795 35.462 34.945 34.35 34.925 34.42 34.355 35.362 35.542 34.777 34.057 34.04 34.06 34.047 34.075 34.085 34.04 34.02 34.03 34.065 34.087 34.082 34.08 34.065 34.055 34.417 35.45 36.96 37.917 38.817 40.76 41.875 41.03 42.545 43.182 50.402 52.082 51.927 37.945 33.33 33.462 33.48 33.285 33.535 33.55 33.77 33.56 33.137 33.062 33.062 33.105 33.177 33.165 33.207 33.73 33.692 33.2 33.365 33.607 35.777 38.33 39.96 40.46 41.035 41.735 42.437 43.135 43.737 43.377 44.697 45.602 47.11 43.907 42.395 47.355 50.85 52.317 54.372 53.487 53.077 52.187 52.122 51.195 49.42 48.565 48.475 47.525 46.155 44.982 44.895 40.88 36.855 34.402 34.39 34.49 34.975 36.425 37.002 34.795 34.447 34.462 34.395 34.347 34.295 34.26 34.347 34.32 34.332 34.342 34.325 34.367 34.38 34.402 34.445 34.805 35.57 35.67 35.052 36.467 35.335 34.847 34.872 35.495 35.595 37.27 36.307 35.512 35.207 35.217 35.252 35.447 35.24 35.417 36.865 45 46.165 47.115 46.767 45.615 44.6 44.385 40.58 37.372 39.82 44.687 48.667 49.545 48.68 45.16 35.62 35.56 35.555
43.765 43.69 43.695 43.762 43.9 43.822 43.747 43.717 43.475 44.035 45.03 46.145 48.492 49.947 51.517 52.875 52.175 52.817 52.277 52.57 46.425 44.917 43.132 42.932 48.317 52.65 52.255 52.307 52.702 49.88 42.955 41.727 42.347 42.015 41.65 41.672 41.65 41.57 41.562 41.792 41.57 41.605 42.1 42.177 41.905 41.565 41.265 41.597 41.67 41.107 41.07 41.02 40.982 40.94 41.572 41.18 41.607 42.192 45.627 49.902 50.537 52.282 52.27 50.217 45.945 41.415 39.92 39.84 39.865 40.287 40.167 39.825 43 47.247 48.742 48.745 48.75 48.775 49.05 48.707 46.982 41.577 39.305 39.22 39.475 39.242 39.237 39.212 39.19 39.255 39.275 39.345 40.68 47.41 51.375 51.63 51.387 49.577 48.847 46.195 45.5 45.057 45.185 43.105 40.725 38.512 38.537 38.462 38.345 38.217 38.185 38.215 38.247 45.215 48.43 49.66 49.575 43.992 37.545 36.957 36.845 39.83 38.715 39.077 43.495 38.82 39.822 39.35 42.657 47.217 47.21 47.202 45.07 38.74 38.595 38.587 38.635 38.232 38.215 38.43 38.28 38.19 38.262 38.715 38.822 38.722 38.325 38.562 41.012 40.757 38.12 38.035 38.112 38.355 38.227 37.94 37.935 43.285 49.092 49.052 49.027 49.04 49.085 41.732 37.625 37.985 37.98 38.022 37.985 37.98 38.692 43.59 41.797 37.482 37.402 42.73 39.955 41.595 43.462 42.8 41.195 37.4 37.422 37.39 37.38 37.395 37.35 37.3 37.157 36.965 36.692 36.62 36.597 36.485 36.417 36.345 37.102 41.91 39.947 39.452 37.612 37.175 35.85 35.682 35.65 35.63 35.625 35.577 36.037 36.337 37.892 42.425 42.35 42.35 42.345 42.322 42.627 42.375 41.21 40.59 40.69 41.017 40.707 40.305 39.945 37.752 36.977 39.087 39.105 39.822 44.375 46.227 46.2 46.175 46.15 46.145 46.132 46.132 46.165 47.032 52.58 56.815 57.047 50.615 49.625 36.91 38.937 41.172 41.225 41.15 39.022 35.392 34.822 34.822 35.36 35.842 35.387 34.885 34.812 34.865 34.907 35.002 34.632 34.6 34.972 34.765 35.717 40.415 40.445 40.402 40.412 40.425 39.932 39.97 39.97 39.92 39.942 39.045 38.277 36.55 34.837 34.712 34.372 34.967 35.817 34.607 34.815 35.64 34.485 34.74 35.472 35.905 36.16 34.97 34.125 34.06 34.06 34.017 34.035 34.022 34.04 34.055 34.067 34.047 34 34.07 34.475 34.52 35.68 39.2 41.32 43.475 43.015 44.505 45.91 47.89 47.79 47.81 47.777 45.13 42.685 43.617 50.26 52.097 51.595 41.86 33.097 33.247 33.082 33.257 33.475 33.642 33.187 33.037 33.022 33.075 33.107 33.137 33.17 33.142 33.275 34.055 33.512 33.485 33.465 37.12 39.577 39.937 40.655 41.322 42.02 42.727 43.462 43.822 43.372 42.675 41.82 40.58 43.08 42.77 44.15 48.452 51.56 52.86 55.172 55.157 55.165 54.577 53.492 53.67 52.807 51.982 50.927 50.505 48.572 46.522 44.23 40.532 35.772 34.465 34.387 34.797 35.772 37.265 40.442 40.685 38.737 37.575 36.202 34.527 34.515 34.47 34.43 34.345 34.337 34.342 34.427 34.442 34.377 34.422 34.435 34.415 34.437 34.505 35.4 36.967 37.127 34.972 34.98 34.987 34.84 34.94 35.045 35.102 35.46 35.702 35.342 36.285 36.965 35.475 40.635 45.4 46.53 47.26 46.342 45.26 44.452 44.51 42.617 42.397 43.832 47 49.035 49.375 48.287 41.985 35.585 35.525 35.55
43.792 43.93 44.022 43.71 44.12 44.912 46.825 48.13 49.312 52.887 53.465 52.597 53.385 52.78 52.642 52.667 52.107 52.895 52.482 52.297 49.275 45.067 42.93 42.53 45.967 51.412 52.61 53.14 53.082 52.625 43.537 41.185 41.652 42.527 41.645 41.557 41.597 41.575 41.532 41.452 41.47 41.5 41.477 41.47 41.355 41.232 41.395 41.812 41.225 41.102 41.052 41.007 41.277 46.077 44.407 40.965 44.892 48.667 52.012 50.6 52.265 52.167 48.987 45.735 45.77 44.022 39.95 39.822 39.822 39.832 39.97 39.775 40.275 48.477 48.757 48.765 48.772 48.772 48.812 45.815 40.255 39.307 39.255 39.242 39.282 39.267 39.235 39.187 39.265 39.282 39.33 42.202 48.615 49.71 51.14 50.972 51.632 51.255 46.705 43.8 43.895 45.052 45.407 46.54 40.977 38.68 38.637 40.03 38.292 38.207 38.09 38.112 38.132 41.49 47.012 45.06 38.502 36.812 36.772 36.81 36.827 45.785 44.827 43.852 38.567 38.562 38.537 39.292 40.282 47.325 47.25 47.662 47.775 41.525 38.677 38.412 38.592 38.385 38.23 38.12 38.097 38.1 39.392 39.817 43.347 38.327 39.56 40.427 42.427 43.022 41.385 38.08 38.05 38.347 38.162 37.922 37.925 42.63 49.117 49.107 49.062 49.08 49.097 42.047 37.655 37.947 38.007 38.035 38.097 38.225 38.847 47.362 47.032 37.562 37.385 39.52 40.237 43.665 46.17 45.91 37.375 37.395 37.402 37.362 37.32 37.342 37.337 37.325 37.197 36.945 36.732 36.702 36.795 36.762 36.712 36.64 36.397 37.59 36.83 41.972 35.935 36.827 36.295 35.72 35.68 35.602 35.542 35.487 35.462 36.247 38.007 37.88 42.4 42.375 42.375 42.352 41.805 41.52 41.472 40.832 40.985 40.687 40.26 39.805 37.455 37.917 39.087 39.112 40.862 45.035 46.225 46.217 46.145 46.145 46.115 43.645 44.405 46.122 46.195 48.73 56.007 57.255 56.007 52.407 54.707 41.392 39.362 41.162 41.212 41.157 38.375 35.262 34.927 34.782 34.8 35.33 35.482 34.792 34.847 34.87 34.867 34.53 34.347 34.29 34.202 35.297 35.075 40.37 40.362 40.385 40.377 40.425 40.692 40.157 38.142 39.897 39.955 39.57 35.937 34.072 34.01 34.032 34.255 34.237 34.51 34.177 34.325 36.467 36.687 34.78 34 34.175 34.142 34.1 34.105 34.057 34.032 34.012 33.997 33.995 34.97 36.977 36.067 37.755 38.74 39.455 41.932 39.5 41.6 47.835 47.81 47.572 47.535 47.79 46.232 46.125 46.695 46.987 47.64 47.57 45.045 43.637 48.777 49.335 48.687 47.135 35.045 33.312 33.14 33.74 33.087 33.247 33.035 33.012 33.04 33.12 33.11 33.092 33.122 33.127 33.645 33.377 33.535 35.54 39.007 40.155 40.317 40.925 41.63 42.307 43.015 43.715 43.71 43.05 42.365 40.93 39.542 39.342 38.92 38.937 45.062 48.757 51.877 54.087 55.175 55.165 55.182 55.195 55.135 55.265 55.082 54.432 52.512 51.962 47.937 45.175 42.792 38.747 34.495 34.44 34.45 36.492 37.785 38.46 38.085 37.492 39.062 39.667 40.557 40.295 37.71 36.052 34.81 34.545 34.52 34.397 34.362 34.447 34.427 34.435 34.447 34.445 34.487 34.482 35.787 35.382 34.667 34.587 34.657 34.755 34.797 34.852 34.9 34.97 35.035 35.005 35.322 35.96 36.225 36.437 43.057 45.742 46.85 47.127 46.005 44.94 44.33 45.562 45.635 45.792 46.792 48.207 49.365 49.11 47.947 40.055 35.542 35.535 35.522
44.342 46.272 48.545 48.455 50.88 53.715 52.52 51.68 53.38 52.827 53.497 51.03 53.112 53.062 52.635 52.992 52.2 52.56 52.72 51.805 48.27 42.172 41.995 41.985 42.112 47.632 53.395 52.69 52.377 52.282 52.425 42.487 41.632 42.112 42.815 41.51 41.535 41.51 41.525 41.435 41.387 41.43 41.41 41.28 41.207 41.17 41.15 41.132 41.065 41.065 41.767 40.967 40.932 43.4 45.175 42.175 47.555 51.207 52.275 51.45 52.35 52.355 48.957 45.7 45.735 45.76 42.335 39.807 39.732 39.755 39.807 39.912 39.715 45.58 48.742 48.76 48.745 48.575 45.372 39.38 39.525 39.412 39.217 39.26 39.28 39.192 39.207 39.312 39.322 40.307 42.645 48.037 49.165 48.895 50.08 51.772 50.365 45.135 42.262 41.302 43.56 45.625 48.542 48.467 42.865 39.735 38.595 39.8 39.51 38.22 38.077 38.01 38.035 38.25 39.667 36.832 36.89 36.965 36.815 36.832 36.807 46.215 46.032 38.26 38.962 38.517 38.7 40.367 39.142 42.062 47.262 48.202 48.53 45.145 38.63 38.37 38.387 38.732 38.167 38.122 38.29 38.49 41.26 40.627 44.61 44.357 45.24 41.847 40.01 43.865 39.172 38.002 38.095 38.32 38.19 37.912 37.897 42.457 49.185 49.107 49.112 49.135 49.125 43.467 37.65 37.64 37.637 37.62 37.655 37.657 37.657 40.232 39.66 37.485 37.377 37.367 39.38 41.197 43.095 39.67 37.342 37.355 38.872 40.667 40.325 39.765 39.18 39.037 39.682 38.532 39.4 38.127 39.88 40.035 37.962 36.75 36.39 36.537 36.585 38.182 36.172 35.842 35.862 35.84 35.695 35.642 35.577 35.44 35.447 35.595 37.385 35.815 38.862 42.35 42.392 41.965 40.885 40.975 41.56 41.377 40.792 40.402 39.832 37.095 37.142 39.095 39.137 40.552 44.36 46.05 46.182 46.155 46.127 46.125 42.102 39.242 38.27 44.862 48.112 53.68 56.582 56.652 55.57 53.6 54.322 39.29 38.86 41.192 41.207 41.12 39.512 34.807 34.677 34.692 34.735 34.875 34.752 34.795 34.805 34.817 34.885 34.742 34.332 34.287 34.252 34.525 34.782 40.455 40.822 40.342 40.317 40.372 40.582 40.04 39.962 39.862 39.84 39.815 38.477 34.137 34.045 34.022 33.982 34 34.04 34.072 34.082 34.092 34.055 34.035 34.06 34.06 34.095 34.085 34.255 34.07 34.05 34.01 34.022 33.997 37.385 42.787 40.98 41.485 42.017 42.755 42.527 39.97 40.297 47.78 44.685 44.96 47.612 47.612 47.362 47.387 47.427 44.642 45.25 47.535 47.562 45.82 47.527 47.537 47.642 47.51 37.327 33.365 33.392 32.98 33.567 33.86 33.122 33.067 33.115 33.095 33.562 33.265 33.13 34.032 37.12 36.97 37.6 39.332 39.765 40.467 41.19 41.89 42.62 43.32 43.845 43.512 42.78 42.047 41.372 39.842 39.327 38.607 38.067 41.7 47.912 48.577 51.727 54.525 55.215 55.235 55.202 55.232 55.202 55.18 55.177 55.2 52.767 51.862 48.977 46.262 42.907 37.185 34.44 34.422 34.497 38.842 40.085 43.44 42.83 41.527 40.697 39.507 37.84 39.115 40.705 40.68 35.615 34.912 34.617 34.502 34.497 34.585 34.562 34.515 34.507 34.427 34.465 34.462 34.482 34.802 34.707 34.572 34.577 34.635 34.67 34.737 34.78 34.817 34.897 34.885 34.892 34.94 34.98 35.02 37.14 40.692 46.037 46.835 45.662 44.592 44.345 42.992 44.037 48.08 48.507 48.655 49.497 48.965 47.73 40.71 37.317 35.477 35.462
47.307 53.432 53.267 53.84 53.142 54.347 52.212 53.277 53.487 52.77 53.605 52.507 52.777 53.447 52.602 51.852 49.557 48.49 45.617 42.855 43.762 42.26 42.117 42.08 42.705 44.305 48.87 52.297 52.457 52.982 53.1 48.147 40.917 41.585 42.272 41.417 41.48 41.522 41.48 41.455 41.42 41.345 41.277 41.215 41.235 41.162 41.115 41.067 41.085 42.9 43.317 41.367 41.012 41.682 42.25 41.91 41.59 52.335 52.33 52.352 52.357 52.327 52.36 46.06 45.702 45.777 44.2 39.977 39.74 39.695 39.717 39.65 39.61 39.66 48.432 48.777 48.885 43.305 39.392 39.405 40.067 39.337 39.287 39.262 39.302 39.217 39.292 39.315 39.325 42.485 48.67 51.002 50.542 49.135 48.925 50.18 44.577 42.365 42.82 42.275 46.757 48.592 48.117 48.06 48.052 40.282 38.627 38.502 39.042 38.175 38.077 37.935 37.93 37.842 37.325 36.842 36.815 36.867 36.77 36.862 36.882 37.12 36.882 37.052 37.515 38.435 39.525 38.862 42.37 40.655 46.682 47.19 47.277 47.362 39.46 38.532 38.302 38.217 38.317 38.142 38.132 38.44 40.997 41.25 43.917 44.732 42.532 44.17 44.167 42.207 38.205 37.887 37.96 38.28 38.125 37.905 37.877 41.447 49.16 49.08 49.065 49.085 49.107 40.077 37.65 37.882 38.345 37.817 37.61 37.612 37.617 37.505 37.45 37.405 37.35 37.322 37.28 37.26 38.832 37.222 37.365 37.345 40.835 45.855 45.842 45.807 45.757 44.302 45.54 45.122 45.082 44.937 45.26 45.26 41.11 36.78 36.452 36.622 36.67 36.45 36.87 36.235 35.922 36.73 35.95 35.637 35.64 35.53 35.445 35.485 35.86 36.085 35.652 40.712 41.59 41.632 41.255 40.745 41.055 41.607 41.27 40.78 38.377 38.21 38.967 39.117 39.88 43.53 45.345 42.857 46.187 46.137 46.1 42.377 38.285 37.25 39.775 45.71 50.405 54.81 54.712 55.17 54.647 54.765 55.007 41.705 39.47 41.17 41.212 41.092 38.057 34.765 34.687 34.622 34.7 34.72 34.78 34.77 34.757 34.752 35.395 35.005 34.447 34.305 34.232 34.187 34.34 39.42 40.37 40.272 40.247 40.265 40.28 40.005 38.942 39.795 39.717 39.72 39.745 39 37.91 34.037 34.025 34.062 34.09 34.077 34.115 34.467 34.097 34.107 34.165 34.627 35.112 34.292 35.012 34.192 34.032 34.022 34.042 34.027 36.822 42.412 42.732 42.75 42.765 42.767 41.545 39.627 39.805 41.3 46.25 44.785 45.037 47.505 47.53 47.575 47.555 47.517 47.502 47.562 47.572 47.57 47.502 46.997 43.847 42.33 34.912 33.025 33.207 33.687 33.017 32.972 33.015 33.085 33.055 33.365 33.952 33.432 35.745 37.512 38.61 38.817 39.465 40.052 40.745 41.452 42.15 42.885 43.587 43.822 43.215 42.49 41.805 41.107 40.395 39.825 39.007 38.937 41.432 43.995 45.702 48.507 50.19 51.952 51.82 52.87 54.737 55.217 55.222 55.225 55.207 55.22 52.027 51.62 48.13 46.87 43.38 36.45 34.48 34.407 34.865 38.607 40.552 44.872 44.652 44.167 44.302 43.572 42.11 40.165 38.517 37.455 34.747 34.657 34.607 34.59 34.687 34.652 34.635 34.767 34.75 34.695 34.505 34.525 34.49 34.592 34.602 34.602 34.592 34.597 34.582 34.572 34.615 34.695 34.757 34.952 34.91 34.92 34.965 35.237 35.257 36.22 39.425 40.95 41.655 42.232 43.252 41.752 44.567 48.185 49.23 49.495 49.565 49.072 48.41 47.99 45.635 36.687 35.575
44.055 51.702 53.187 54.195 53.14 53.987 53.267 52.882 53.675 52.645 52.732 51.592 47.945 46.155 43.265 42.817 43.642 45.927 44.517 42.6 43.105 42.057 42.217 42.31 42.587 41.617 41.957 51.517 53.132 52.855 52.37 52.487 40.885 41.5 41.437 41.337 41.402 41.442 41.412 41.375 41.33 41.252 41.205 41.192 41.117 41.08 42.14 41.285 43.685 41.862 46.15 42.357 40.992 41.34 41.587 41 41.612 47.54 52.335 52.312 52.325 52.082 48.512 46.107 45.79 43.265 40.142 40.402 39.725 39.625 39.675 39.65 39.567 39.625 42.607 48.912 42.637 39.412 39.325 39.282 39.415 39.322 39.275 39.287 39.35 39.617 41.157 39.505 42.012 48.61 51.14 51.025 51.01 50.75 48.275 44.045 41.825 42.972 41.415 39.172 40.987 48.007 48.437 48.912 49.072 43.622 39.032 38.295 38.127 38.07 38.06 37.962 37.835 37.86 37.537 37.137 36.875 36.747 36.785 36.852 36.907 36.95 36.882 36.787 37.08 39.357 39.735 40.65 40.93 40.352 44.63 47.2 47.222 47.235 45.795 38.612 38.262 38.275 38.955 38.15 38.08 38.947 39.605 44.36 41.462 42.647 45.422 43.212 42.472 40.702 37.897 37.885 37.947 37.94 37.907 37.885 37.887 41.605 49.127 49.052 49.052 49.092 49.097 40.13 37.647 37.73 37.757 37.65 37.572 37.535 37.525 37.402 37.335 37.317 37.292 37.257 37.215 37.21 37.2 37.207 37.325 37.332 40.667 45.822 45.777 45.762 45.72 44.62 45.707 45.542 45.045 44.935 45.185 45.212 42.597 36.775 36.485 36.67 36.767 36.562 36.32 36.455 36.002 36.08 36.022 35.637 35.612 35.58 35.49 35.397 35.422 35.405 35.435 36.55 38.935 41.202 41.582 41.187 40.675 41.167 41.607 41.215 40.28 38.04 38.545 39.147 38.335 42.875 40.472 39.272 42.477 46.13 42.117 38.28 37.507 39.142 43.762 50.345 54.61 54.652 54.647 54.64 54.67 54.67 54.805 46.057 39.957 41.147 41.222 41.102 39.227 34.8 34.72 34.695 34.625 34.68 34.702 34.84 34.802 35.135 35.365 35.075 34.4 34.285 34.22 34.2 34.65 40.307 41.795 41.812 42.467 42.305 39.282 38.725 39.53 38.502 37.922 37.065 39.607 39.585 38.032 34.105 34.1 34.087 34.217 35.127 34.88 35.64 34.08 34.062 34.502 35.82 36.595 34.257 35.21 34.35 34.052 34.04 34.025 34.017 34.612 42.48 42.735 42.757 42.825 42.902 42.802 40.342 38.98 39.552 45.197 47.247 47.56 47.452 47.037 46.757 46.062 46.057 45.705 44.405 43.24 40.245 38.745 39.23 37.787 34.77 33.012 33.067 33.392 33.122 32.972 32.987 33.02 32.99 32.967 33.052 34.35 37.517 38.575 38.677 38.777 38.872 39.36 39.842 41.305 42.47 43.177 43.727 43.605 42.9 42.192 41.482 40.8 40.112 39.99 39.997 39.277 38.657 39.097 40.91 44.2 46.485 49.027 51.747 51.755 51.762 54.232 55.21 55.23 55.245 55.23 54.287 51.775 49.597 47.865 45.982 41.745 35.305 34.45 34.452 37.035 38.66 41.122 43.567 44.152 44.717 44.885 44.782 44.355 44.705 43.207 40.862 37.577 35.195 34.632 34.607 35.442 36.162 35.602 35.552 34.91 35.412 35.952 34.742 34.657 34.647 34.607 34.585 34.567 34.602 34.627 34.65 34.657 34.687 34.67 34.675 34.722 34.802 34.872 35.017 35.072 37.622 39.995 39.185 35.792 35.532 35.687 35.14 42.192 47.44 48.192 48.632 48.995 49.342 49.505 48.872 45.037 35.467 35.857
43.792 53.765 53.077 53.977 53.287 52.59 49.732 49.29 47.012 43.947 43.545 47.605 45.365 43.755 43.665 42.727 43.107 43.22 43.752 43.507 45.555 45.665 41.99 42.395 42.647 41.777 42.885 46.242 52.445 52.24 52.37 52.805 50.797 42.395 41.445 41.327 41.63 41.33 41.36 41.317 41.325 41.265 41.16 41.122 41.105 41.175 42.185 44.692 41.355 43.462 43.02 47.877 48.65 41.772 40.937 41.005 41.035 43.842 52.22 50.53 47.302 45.247 44.362 44.987 45.577 43.532 41.935 42.467 40.497 39.615 39.595 39.645 39.57 39.572 39.657 40.105 39.412 39.29 39.297 39.317 39.327 39.337 39.302 39.35 39.772 42.937 43.912 45.32 46.757 48.757 49.727 50.975 50.962 48.37 45.157 42.252 41.45 40.95 39.81 41.825 43.182 47.24 49.117 48.49 47.94 46.232 40.842 38.307 38.127 38.012 38.005 37.967 37.825 37.795 37.632 37.152 36.837 36.915 37.185 36.865 36.792 36.825 36.847 36.805 36.875 38.242 40.797 40.747 39.485 38.465 39.685 46.567 47.34 46.96 42.045 38.365 38.36 38.207 38.285 38.225 38.065 38.007 42.697 40.565 42.777 43.522 43.862 46.967 43.155 40.93 38.31 37.852 37.907 37.927 37.902 37.872 37.845 40.9 49.085 49.05 49.03 49.06 49.055 41.022 37.685 37.632 37.605 37.56 37.537 37.502 38.387 37.365 37.32 37.277 37.27 37.217 37.235 37.972 38.005 37.24 37.27 37.297 40.667 45.792 45.775 45.747 45.692 45.677 45.662 45.507 45.107 45.075 45.18 45.207 42.097 36.717 36.53 36.72 36.842 36.68 36.495 36.285 36.137 35.785 35.62 35.7 35.577 35.552 35.492 35.977 36.777 35.38 35.96 36.02 35.612 39.852 41.275 41.6 41.105 40.742 41.232 41.58 43.517 43.97 39.62 38.385 38.58 38.847 38.647 38.605 39.922 40.532 39.252 38.477 40.057 42.97 50.637 54.772 54.687 54.66 54.667 47.857 52.407 54.315 52.222 42.867 41.192 41.15 41.197 41.08 40.65 35.832 35.005 34.78 34.68 34.55 34.627 34.675 35.257 35.652 35.605 35.185 34.357 34.315 36.155 36.2 36.9 40.752 42.747 42.747 42.782 42.422 38.047 36.562 39.555 38.595 37.41 37.96 39.017 39.592 38.847 34.107 34.07 34.06 34.18 36.612 34.45 36.742 34.037 34.052 34.285 34.94 36.357 34.847 34.407 34.33 34.28 34.877 34.037 34.057 34.467 42.732 42.767 43.242 42.73 42.78 42.807 40.832 39.58 39.335 40.705 41.897 43.252 41.887 39.772 39.677 40.655 39.517 39.487 39.46 39.015 34.52 33.437 33.942 32.985 32.745 33.377 33.005 32.885 32.927 32.935 32.932 32.945 32.965 33.052 36.532 38.79 38.647 38.735 38.85 38.947 39.057 39.147 39.13 40.14 43.125 43.847 43.34 42.602 41.9 41.21 40.51 39.885 40.69 40.98 40.477 39.832 39.212 38.62 38.877 43.72 45.425 48.215 49.442 51.31 51.547 53.852 54.855 55.23 55.207 55.222 52.572 51.58 48.467 46.085 43.307 38.75 34.52 34.477 34.467 36.905 38.12 38.662 38.712 40.87 42.102 43 43.922 44.512 44.982 44.952 39.642 37.647 34.605 35.925 34.642 35.885 37.682 36.097 36.405 37.29 37.835 34.93 34.935 35.005 35.042 35.2 34.92 34.802 34.632 34.62 34.662 34.662 34.662 34.68 34.695 34.712 34.7 34.707 34.78 34.822 35.632 37.045 35.692 35.705 35.712 34.977 35.012 36.335 37.94 40.677 42.65 46.742 48.09 48.52 48.482 42.46 35.29 35.867
43.69 51.147 51.272 47.997 49.64 44.26 43.602 45.375 45.187 43.29 43.175 45.667 45.39 42.957 43.077 42.755 43.457 43.072 43.295 43.835 45.092 44.632 42.157 42.02 42.477 42.03 42.03 42.082 49.605 52.81 53.152 52.93 51.48 43.937 41.052 41.365 41.597 41.4 41.325 41.315 41.262 41.247 41.182 41.42 41.642 41.15 41.64 42.065 44.927 48.62 50.247 49.56 49.372 43.165 40.972 40.947 43.632 45.35 46.79 44.035 43.865 44.345 45.082 45.912 45.45 45.077 42.807 47.89 48.062 39.65 39.527 39.575 39.512 39.442 39.41 39.465 39.33 39.33 39.332 39.365 39.345 39.325 39.292 39.277 39.73 42.27 42.475 43.632 47.892 48.772 48.91 50.257 49.495 45.645 44.162 42.297 42.065 39.197 41.805 43.605 41.182 41.21 48.057 47.92 48.287 48.765 43.465 38.567 38.415 37.985 37.94 37.942 38.38 38.95 37.937 37.18 36.962 36.85 36.86 36.902 37.18 36.797 36.817 36.807 37.002 37.205 38.35 39.635 39.855 39.235 38.447 41.81 42.767 38.405 38.445 39.47 38.787 38.262 38.172 38.8 38.032 38.005 39.922 43.927 42.257 42.365 44.157 41.07 42.032 40.407 37.907 38.085 37.965 37.93 38.047 38.012 37.81 39.725 49.085 49.067 49.017 49.017 49.085 41.557 37.707 37.635 37.605 39.67 39.485 40.007 40.895 39.85 37.292 37.237 37.227 37.187 37.157 37.152 37.145 37.16 37.252 37.297 39.657 45.82 45.787 45.755 45.72 45.705 45.692 39.435 37.522 44.77 45.202 45.237 40.97 36.632 36.552 36.695 36.852 36.775 36.617 36.422 36.527 36.09 35.657 36.107 36.012 35.552 35.515 35.455 36.917 36.857 35.3 35.295 35.447 35.905 40.345 41.382 41.685 41.012 40.985 44.395 46.11 46.447 44.1 38.73 38.615 38.687 39.175 39.142 39.132 39.197 39.307 40.877 45.357 52.955 54.747 54.697 54.705 54.705 53.642 41.922 36.6 44.51 44.485 40.572 40.715 41.097 41.185 41.085 41.382 35.03 35.057 34.67 34.67 34.567 34.482 34.585 34.67 35.315 34.815 35.35 34.382 34.31 35.222 34.877 35.747 39.205 42.755 42.74 42.762 42.525 39.722 38.852 39.575 39.555 39.337 39.427 39.605 39.557 39.347 34.132 34.065 34.03 34.067 36.02 34.31 35.872 34.05 34.157 34.775 35.227 34.59 34.482 34.05 34.065 34.417 36.302 34.14 34.025 34.05 41.747 42.71 42.84 42.82 42.767 42.775 41.267 38.632 39.142 39.58 39.532 39.652 39.525 39.457 39.457 39.46 39.49 39.47 39.44 35.327 32.76 32.722 32.677 32.69 32.735 32.797 32.87 32.89 32.912 32.865 32.865 32.95 33.052 33.14 35.282 38.747 38.815 38.917 39.025 39.11 39.195 39.12 38.862 38.875 40.975 43.027 42.342 41.63 40.877 40.215 39.637 39.932 40.745 41.272 41.042 40.382 39.77 39.175 38.605 41.295 45.062 45.24 48.46 47.972 50.382 52.105 51.71 52.02 52.867 54.455 51.727 50.642 47.76 45.41 40.792 36.442 34.467 34.472 34.47 38.987 41.62 40.655 39.35 35.93 34.885 37.01 39 42.49 43.21 43.05 38.7 36.665 35.857 35.855 35.422 36.587 36.982 34.917 34.942 35.577 35.09 35.042 35.065 35.19 35.075 35.085 35.02 35.32 35.73 35.612 34.827 34.742 34.75 34.725 34.675 34.727 34.742 34.772 34.722 34.737 34.752 34.782 34.865 34.92 34.957 34.992 35.26 37.38 36.852 36.097 35.972 35.762 38.322 42.71 46.012 40.232 35.277 37.017
43.575 46.227 47.125 43.397 47.932 45.065 43.61 43.665 43.595 43.225 43.102 43.497 42.845 42.842 42.83 42.852 43.692 43.352 42.53 42.537 42.357 43.405 43.082 42.405 41.905 42.46 44.025 41.227 45.257 52.572 52.682 52.42 52.452 48.912 41.385 41.34 41.247 41.197 41.252 41.215 41.202 41.162 41.112 41.837 41.887 41.04 43.847 47.162 49.14 49.982 49.967 49.065 47.265 42.555 41.06 42.282 45.687 45.9 45.722 44.137 43.962 44.875 46.607 46.617 46.407 46.137 50.502 52.357 52.122 43.157 39.56 39.452 39.44 39.382 39.317 39.352 39.352 39.387 39.39 39.385 39.367 39.302 39.285 39.247 39.255 40.495 42.61 42.632 43.385 48.295 48.757 47.532 45.792 43.512 42.07 42.08 41.985 40.245 39.335 39.137 40.05 42.525 46.622 48.827 48.867 48.43 46.6 40.195 41.042 38.002 37.87 37.872 37.875 39.395 38.252 38.027 37.202 36.875 36.835 37 37.037 36.837 36.9 36.997 36.937 37.185 38.417 38.727 38.492 38.49 38.472 38.46 38.725 41.227 39.655 39.627 40.625 39.295 38.147 38.43 38.12 37.96 38.422 37.805 39.05 37.902 39.165 39.725 39.855 38.28 38.407 38.247 38.402 38.085 38.265 38.542 37.905 39.785 49.047 49.022 48.982 49.01 49.102 41.342 37.695 37.657 37.825 39.97 40.957 45.447 39.202 43.297 37.255 37.172 37.187 37.147 37.12 37.117 37.12 37.157 37.24 37.302 40.245 45.857 45.802 45.77 45.742 45.745 45.66 39.917 36.737 43.077 45.212 45.242 41.2 36.657 36.585 36.647 36.87 36.802 36.667 37.297 36.345 36.032 35.652 35.625 35.692 35.675 35.46 35.482 35.56 35.937 35.205 35.22 35.347 35.615 36.787 40.73 41.427 41.682 43.9 45.83 46.472 46.102 40.082 38.532 38.55 38.23 39.17 39.152 37.555 39.24 43.102 51.692 49.325 52.182 54.802 54.657 54.67 53.19 40.925 35.142 37.25 40.67 40.795 40.547 40.612 41.175 41.137 41.082 40.777 36.082 34.67 34.585 34.625 34.6 34.562 34.447 34.577 34.875 35.012 35.152 34.387 34.312 35.297 35.705 35.49 40.192 42.797 42.765 42.79 42.827 39.5 37.927 39.52 38.705 37.745 36.752 39.66 38.945 38.302 34.68 34.05 34.002 34.485 35.452 34.97 34.1 34.035 34.262 35.28 35.725 34.232 34.062 34.072 34.057 34.057 35.695 34.25 34.05 34.012 41.935 42.71 42.677 42.947 42.78 42.79 41.095 38.875 38.822 39.457 39.492 39.532 39.535 39.48 39.475 39.49 39.5 39.522 35.412 32.832 32.692 32.615 32.677 32.745 32.792 32.847 32.865 32.84 32.83 32.882 32.945 33.035 33.062 33.057 33.295 36.952 38.99 39.092 39.19 39.17 39.045 38.937 38.845 38.662 39.24 41.072 41.332 40.64 39.907 39.317 39.06 39.567 40.172 40.775 41.31 40.952 40.327 39.707 39.132 38.587 42.08 45.275 44.767 46.42 47.722 50.305 51.782 51.72 51.73 51.707 51.687 49.51 45.615 43.977 39.662 34.785 34.415 34.46 34.452 40.287 43.305 43.072 42.315 39.94 37.982 35.895 35.027 35.727 37.595 40.837 38.672 36.292 35.562 35.172 35.767 37.9 37.315 35.037 34.905 36.385 34.987 35.01 35.08 35.067 35.135 35.155 35.052 35.097 36.925 36.537 35.265 35.127 35.285 34.915 34.8 34.757 34.752 34.76 34.79 34.767 34.837 34.802 34.765 34.815 34.902 34.935 35 35.192 35.337 35.417 35.34 35.582 35.695 35.512 35.447 35.325 35.205 35.53
43.505 44.855 48.092 43.535 45.075 43.83 43.855 43.262 43.205 43.457 44.022 44.677 43.375 43.39 43.28 43.432 42.525 42.75 42.522 42.392 42.85 42.535 46.205 42.587 43.545 44.59 44.537 43.467 43.81 47.245 52.405 52.682 53.007 45.642 41.365 41.27 41.18 41.12 41.132 41.13 41.15 41.082 40.965 40.915 41.825 40.892 46.16 50.08 50.005 49.97 49.772 45.272 42.467 43.41 42.465 43.01 44.845 45.837 45.857 45.657 44.35 44.647 46.27 46.615 47.307 50.552 52.357 52.39 52.395 50.72 40.135 39.42 39.352 39.322 39.285 39.327 39.352 39.35 39.37 39.402 39.342 39.297 39.217 39.18 39.107 40.307 42.232 42.737 41.915 45.332 48.197 45.442 45.007 43.457 42.087 42.087 42.125 41.725 38.922 40.29 43.54 43.885 43.615 48.175 48.027 47.81 48.145 45.515 39.655 38.015 37.87 37.81 37.792 38.212 37.67 38.307 37.315 37.07 36.8 37.02 36.867 36.92 37.032 37.195 37.272 37.182 37.527 39.157 38.535 38.535 38.627 38.972 39.13 39.952 38.682 40.64 40.915 40.692 38.577 37.977 38.395 37.877 37.865 37.797 37.685 37.767 37.92 38.385 37.942 37.992 40.785 41.18 41.21 42.622 42.525 42.88 38.4 39.11 46.11 46.837 48.955 49 49.062 42.022 37.675 37.64 37.587 39.872 39.332 42.497 41.697 43.412 38.855 37.172 37.155 37.125 37.09 37.08 37.1 37.135 37.245 37.272 37.945 40.82 40.005 40.982 39.287 40.382 39.925 37.287 36.637 43.305 45.235 45.237 41.562 36.65 36.605 36.702 36.737 36.725 36.652 36.637 36.98 36.027 35.697 35.672 35.6 36.147 35.805 35.452 35.417 35.325 35.245 35.187 35.53 36.847 36.225 37.152 41.017 45.027 46.545 46.54 46.44 46.442 42.465 38.602 36.927 37.582 38.35 39.057 39.125 39.447 52.49 53.37 50.355 49.25 51.205 53.947 54.835 41.43 35.39 37.79 40.475 41.525 42.117 41.295 40.697 41.322 41.105 41.067 41.287 37.985 36.305 34.617 34.572 34.58 34.562 34.497 34.44 34.562 34.947 34.66 34.4 34.362 34.892 35.712 36.475 37.6 42.83 42.79 42.817 42.815 40.742 37.442 39.415 39.605 38.977 39.465 39.367 39.032 38.277 35.767 34.05 34.002 35.437 36.835 36.725 35.612 34.677 34.052 34.922 34.917 34.15 34.057 34.077 34.07 34.072 34.082 34.082 34.032 34.027 40.55 42.73 42.822 42.725 42.737 42.765 41.927 39.675 39.67 39.457 39.47 39.522 39.502 39.462 39.51 39.507 39.507 39.135 32.785 32.705 32.63 32.687 32.732 32.8 32.8 32.795 32.81 32.825 33.015 33.162 33.025 33.002 33.002 32.985 32.967 33.577 38.56 39.212 39.122 39.01 38.887 38.767 38.655 38.54 38.775 39.832 40.29 39.64 39.09 38.16 38.375 39.037 39.637 40.207 40.832 41.262 40.91 40.275 39.692 39.072 38.572 39.615 41.412 44.835 46.455 49.377 51.627 51.717 51.7 51.787 49.18 48.595 47.102 38.125 35.75 34.365 34.372 34.445 35.77 41.817 43.372 43.357 43.297 39.745 39.5 39.357 37.012 35.012 34.865 37.397 38.102 35.112 34.52 34.812 36.125 37.747 36.77 37.605 35.752 36.357 34.982 34.992 35.057 35.09 35.105 35.07 35.107 35.08 35.012 35.517 36.282 36.737 36.132 35.687 34.997 35.1 35.162 34.89 34.835 34.805 34.822 34.805 34.85 34.9 34.972 35.002 34.96 34.967 34.995 35 35.07 35.13 35.347 35.465 35.272 35.095 35.172 35.385
43.437 44.155 46.137 44.287 43.877 43.66 43.527 44.1 44.065 44.757 43.472 44.177 43.85 43.357 43.53 43.462 42.54 42.657 42.655 42.26 43.412 48.402 51.145 48.3 44.552 44.532 44.507 44.06 41.622 42.44 51.542 47.845 41.492 41.397 41.34 41.257 41.165 41.06 41 41.02 41.057 41.02 40.94 40.895 40.782 40.757 41.487 48.722 47.295 49.117 49.292 48.172 41.162 43.697 42.865 43.265 44.53 45.965 45.427 44.682 44.215 44.142 45.375 47.94 50.707 51.877 52.332 52.375 52.365 52.107 40.705 39.412 39.312 39.27 39.315 39.35 39.37 39.392 39.43 39.427 39.332 39.245 39.162 39.11 39.055 38.965 39.867 41.26 42.82 42.282 41.6 44.772 45.362 45.127 43.837 42.097 42.122 41.845 40.09 39 42.525 41.542 41.262 44.672 48.177 48.635 48.752 47.807 39.85 38.557 37.862 38.46 38.055 37.695 37.562 37.557 37.655 37.097 36.955 36.935 37.155 37.535 36.967 37.057 37.222 37.04 37.287 37.75 38.715 39.487 38.752 38.645 38.722 40.562 39.09 39.275 40.66 40.065 38.855 38.61 38.4 38.365 37.805 37.72 37.642 37.645 37.867 38.137 37.897 38.692 48.25 49.117 49.082 49.045 49.025 49.055 38.497 37.755 37.715 41.33 48.865 48.875 48.91 40.547 37.67 37.62 38.285 39.237 42.255 44.787 44.35 46.802 40.06 37.182 37.14 37.06 37.02 37.015 37.125 37.12 37.127 37.17 37.142 37.122 37.11 37.107 37.097 37.077 37.51 39.767 39.99 44.725 45.215 45.245 41.18 36.707 36.625 36.552 36.595 36.612 36.627 36.617 36.542 36.237 35.925 35.78 35.67 35.617 35.722 35.38 35.387 35.38 35.272 35.167 35.44 35.877 35.79 36.305 43.422 46.447 46.492 46.522 46.502 46.502 46.712 41.51 37.04 37.837 37.77 37.88 38.165 38.15 49.942 49.962 49.385 49.117 49.217 49.682 43.025 35.057 38.562 41.047 41.557 42.177 42.487 41.997 40.782 41.227 41.135 41.08 41.19 40.965 40.465 35.747 34.53 34.552 34.58 34.51 34.412 34.467 34.53 34.54 34.435 34.347 34.665 35.335 35.407 36.727 42.227 42.802 42.822 42.795 41.057 39.195 39.577 39.615 38.562 39.395 38.705 39.027 37.977 35.917 34.195 34.055 35.15 36.5 36.535 36.57 35.09 34.07 34.077 34.075 34.052 34.045 34.107 34.097 34.13 34.152 34.13 34.042 34.022 39.272 42.785 42.795 42.765 42.815 42.802 42.762 39.655 39.375 39.495 39.485 39.545 39.517 39.475 39.495 39.415 38.445 33.23 32.73 32.667 32.722 32.765 32.815 32.83 32.807 32.795 32.91 33.005 33.042 32.962 32.967 32.952 32.955 32.942 32.887 32.84 36.69 39.13 38.96 38.827 38.715 38.585 38.792 34.757 32.832 37.687 39.435 39.062 38.915 38.137 37.805 38.485 39.08 39.635 40.265 40.912 41.295 40.845 40.27 39.63 39.02 38.502 39.257 43.767 46.367 47.705 50.427 52.037 52.175 50.755 48.675 48.482 46.795 41.412 35.61 34.317 34.345 34.362 35.82 43.052 43.385 43.38 42.042 39.41 39.422 38.827 35.625 35.38 35.502 35.435 36.037 34.82 34.69 35.197 36.662 37.832 38.242 37.825 36.262 35.622 34.98 35.015 35.017 35.022 35.017 35.035 35.08 35.035 35.052 35.012 36.605 38.54 38.267 37.642 36.832 37.33 36.31 35.117 35.055 35.065 34.95 34.89 34.862 34.907 34.987 35.047 35.025 35.057 35.035 35.022 35.025 34.98 35.042 35.167 35.007 35.035 35.075 35.107
43.925 43.535 44.095 43.892 43.737 44.537 47.227 47.857 49.46 47.132 43.357 43.02 42.912 43.287 42.787 42.752 42.98 42.487 43.975 46.787 49.992 52.105 51.182 51.085 45.562 44.475 44.477 43.71 42.387 41.247 41.62 41.475 41.375 41.325 41.372 41.305 41.122 40.997 40.94 40.945 40.992 40.95 40.922 40.825 40.742 40.675 40.702 44.972 49.842 50.707 50.36 50.147 45.91 43.357 44.362 45.45 45.455 45.02 43.185 43.212 44.015 43.842 46.505 51.252 51.69 51.697 52.02 52.365 51.922 45.475 39.455 39.395 39.322 39.33 39.36 39.367 39.38 39.41 39.412 39.347 39.28 39.207 39.107 39.03 39.105 39.635 39.64 39.732 42.575 42.002 41.962 42.017 44.697 45.355 45.365 42.492 40.627 39.017 38.765 39.065 40.017 41.425 39.182 40.375 48.462 48.64 47.755 47.47 45.59 38.362 37.805 38.462 38.697 37.657 37.557 37.442 37.647 37.32 37.052 37.26 37.372 37.36 36.812 36.915 36.95 36.887 37.107 37.342 38.435 38.672 38.522 38.59 38.5 38.552 40.75 38.29 39.007 38.912 41.902 38.185 37.915 37.917 37.73 37.69 37.595 37.585 39.27 39.522 37.832 39.377 47.857 49.087 49.052 49.025 49 48.995 43.975 43.112 42.357 43.315 48.897 48.877 45.762 38.055 37.647 37.6 37.572 40.045 41.347 43.377 44 42.692 38.95 37.877 37.097 36.977 36.955 37.74 37.847 37.515 37.142 37.142 37.13 37.105 37.115 37.097 37.09 37.09 37.78 45.297 45.205 45.192 45.177 45.23 42.895 36.702 36.632 36.56 36.59 36.622 36.622 36.62 36.715 36.582 36.367 36.135 35.972 35.637 35.675 36.242 35.37 35.357 35.355 35.182 35.08 35.11 37.562 37.99 40.225 44.942 46.44 46.47 46.5 47.225 48.365 48.617 44.575 38.05 37.797 37.785 37.787 37.832 43.762 48.525 49.115 49.132 49.272 43.835 35.317 37.987 40.885 41.642 42.27 42.512 41.925 41.272 40.69 41.295 41.085 41.142 41.042 40.717 40.762 41.457 35.267 34.517 34.472 34.51 34.437 34.342 34.385 34.52 34.48 34.38 34.627 36.015 36.28 35.827 41.62 42.832 42.812 42.807 41.347 38.847 38.935 39.605 36.62 37.5 37.192 39.332 37.995 36.982 34.185 34.065 34.745 36.48 36.527 36.557 35.615 34.107 34.077 34.037 34.047 34.08 34.13 34.122 34.142 34.132 34.117 34.075 34.042 37.412 42.782 42.77 42.772 42.82 42.792 42.517 39.532 39.622 39.49 39.477 39.525 39.517 39.485 39.51 36.592 33.105 33.22 33.597 32.77 32.775 32.792 32.772 32.762 32.742 32.852 32.94 32.915 32.9 32.895 32.89 32.917 32.912 32.857 32.82 32.785 32.822 37.82 38.795 38.67 38.547 35.747 33.125 32.517 32.932 33.022 37.012 37.92 38.74 38.842 38.057 37.757 38.505 39.077 39.7 40.317 40.952 41.282 40.822 40.18 39.567 38.977 38.512 41.585 46.05 46.302 48.112 48.832 49.507 47.612 46.585 45.837 43.705 39.7 35.562 34.242 34.295 34.37 37.815 43.267 43.437 43.39 40.787 39.432 39.442 37.685 34.922 35.147 35.607 35.297 34.717 34.55 34.88 35.28 37.5 37.14 35.805 36.297 36.295 35.075 34.927 35.002 34.982 35.02 35.015 35.017 35.037 35.017 35.032 35.74 37.41 38.577 38.52 38.547 39.235 40.887 40.167 39.095 37.187 34.945 34.965 35.065 34.945 34.965 34.97 35.05 35.027 35.035 35.035 35.042 35.037 34.967 34.912 34.907 34.907 34.912 34.975 34.975
45.74 43.92 43.697 43.677 43.872 43.805 48.067 47.14 48.652 47.197 42.995 42.815 42.755 42.757 43.902 44.195 44.06 45.332 49.685 51.96 51.155 51.467 52.117 51.097 49.465 43.365 41.757 41.752 41.715 41.64 41.535 41.46 41.407 41.295 41.32 41.737 41.49 40.985 40.88 40.875 40.885 40.865 40.84 40.782 40.697 40.605 40.605 42.132 49.907 50.185 50.322 50.68 49.422 45.04 45.457 45.39 45.477 45.42 43.235 43.162 43.94 48.537 51.617 51.685 51.707 51.72 51.682 51.77 44.335 39.472 39.365 39.377 39.317 39.332 39.342 39.332 39.34 39.407 39.432 39.34 39.21 39.225 39.08 38.987 39.13 40.027 39.112 39.872 42 42.245 41.492 41.43 42.682 44.53 41.9 38.825 38.42 38.462 38.64 40.825 38.507 39.535 40.075 38.767 44.04 47.447 47.702 48.132 48.337 41.305 37.977 37.702 38.002 37.69 37.597 37.462 37.445 37.642 37.235 37.277 37.277 36.992 36.922 37.005 36.937 36.857 36.96 37.327 37.807 38.372 38.292 39.645 38.785 38.427 39.02 39.852 38.965 39.535 43.08 40.57 38.297 38.117 38.562 37.64 37.587 37.54 38.702 39.502 38.91 40.295 48.817 49.085 49.045 49.012 49.015 49.002 49.07 49.062 49.06 49.04 48.995 49.08 48.447 41.257 37.847 37.597 37.577 37.555 37.585 43.302 41.435 39.7 37.825 37.727 37.03 36.93 36.955 37.502 37.765 37.23 37.155 37.13 37.115 37.117 37.112 37.12 37.107 37.102 37.12 44.022 45.205 45.187 45.182 45.225 41.895 36.73 36.637 36.57 36.592 36.615 36.63 36.627 36.652 36.602 36.485 36.3 36.142 38.307 39.677 39.575 35.6 35.385 35.322 35.26 35.13 35.075 35.825 39.362 36.5 36.467 43.95 46.465 47.235 48.467 48.572 48.655 48.627 42.187 37.565 37.755 37.797 37.757 37.767 38.74 43.107 48.372 44.91 39.95 40.01 41.082 41.73 42.352 42.482 41.84 41.192 40.7 40.582 41.085 41.105 41.072 41.002 41.035 40.982 41.242 39.85 34.64 34.425 34.467 34.46 34.392 34.345 34.375 34.48 34.425 34.345 34.595 36.915 35.535 41.022 42.8 42.787 42.82 41.995 39.412 39.475 39.635 39.615 39.575 39.542 39.265 38.02 35.297 34.077 34.085 34.73 36.47 36.437 36.485 35.647 34.122 34.067 34.045 34.022 34.057 34.115 34.127 34.125 34.152 34.137 34.062 34.08 36.437 42.767 42.802 42.747 42.785 42.76 42.717 40.06 39.817 39.442 39.48 39.527 39.525 39.54 36.385 32.81 32.685 33.137 32.735 32.802 32.775 32.762 32.745 32.777 32.722 32.725 32.87 32.852 32.84 32.84 32.825 32.875 32.825 32.79 32.745 32.74 32.707 33.87 38.37 38.057 33.757 32.5 32.51 32.51 32.515 32.437 32.472 36.792 37.99 38.792 38.802 37.987 37.82 38.502 39.145 39.762 40.365 40.977 41.247 40.745 40.12 39.52 38.927 38.505 41.912 44.745 44.81 45.97 47.982 45.935 44.145 42.105 38.815 38.322 38.15 34.605 34.255 35.722 43.095 43.412 43.425 42.955 39.55 39.412 39.307 36.995 35.495 34.787 34.532 34.627 34.552 34.682 34.94 38.202 38.62 35.782 35.645 35.397 36.09 34.885 34.937 34.91 34.93 34.96 34.982 35.012 34.985 35.002 35.002 35.042 37.18 37.172 38.43 38.547 40.13 41.125 40.785 40.417 37.597 35.09 35.045 35.002 34.987 34.995 35.052 35.06 35.007 34.967 34.96 34.98 34.975 34.922 34.887 34.885 34.917 34.917 34.907 34.842
45.96 44.23 43.385 43.547 43.642 43.782 44.847 47.92 49.822 46.892 42.887 43.137 42.897 42.735 43.545 46.93 50.06 52.205 51.397 51.872 51.6 51.127 51.927 50.357 44.4 42.23 41.847 41.732 41.612 41.552 41.55 41.49 41.425 41.677 41.635 41.507 41.055 40.952 40.845 40.755 40.757 40.76 40.777 40.715 40.622 40.54 40.517 40.527 46.11 50.722 50.982 50.86 50.33 46.165 45.312 45.46 45.73 45.772 44.23 44.937 49.237 51.355 51.697 51.722 50.855 51.62 50.655 43.067 39.485 39.332 39.315 39.355 39.357 39.312 39.307 39.342 39.387 39.41 39.427 39.347 39.187 39.112 39.047 39.052 38.855 39.782 39.595 39.305 42.047 42.565 42.645 42.85 42.605 41.53 38.877 38.475 38.432 39.267 40.952 41.412 41.307 39.765 39.56 41.78 45.475 47.9 48.37 48.147 47.625 45.565 38.387 38.155 37.577 37.555 37.512 37.442 37.345 37.592 37.575 37.2 36.84 36.847 36.977 36.88 36.827 36.862 36.845 37.14 38.057 38.855 38.417 38.342 38.102 38.095 38.397 38.59 38.732 38.742 39.71 39.3 38.01 37.757 38.365 37.57 37.54 37.525 39.08 38.852 38.897 40.042 49.145 49.102 49.042 49.022 49.03 49.037 49.045 49.045 49.037 49.022 49.022 49.022 48.507 43.35 37.887 37.615 37.587 37.565 37.502 37.447 37.38 38.355 37.202 37.135 37.025 36.96 36.957 37.16 37.372 37.117 37.147 37.145 37.137 37.11 37.115 37.11 37.102 37.092 38.022 45.047 45.222 45.212 45.217 45.247 41.74 36.73 36.657 36.572 36.615 36.632 36.62 36.615 36.617 36.602 36.577 36.42 36.285 40.592 42.845 40.59 40.367 35.867 35.255 35.272 35.222 35.097 35.07 35.137 35.262 35.245 37.292 45.94 48.28 48.425 48.487 48.57 48.64 48.61 41.93 37.785 37.772 37.767 37.77 37.782 37.802 38.735 39.197 41.252 40.685 41.202 42.072 42.33 41.777 41.125 40.805 40.57 40.565 41.015 41.04 41.075 41 40.907 40.975 41.045 41.217 39.192 34.66 34.447 34.435 34.4 34.322 34.242 34.362 34.455 34.447 34.937 36.955 35.887 39.942 42.797 42.782 42.81 42.002 39.557 39.58 39.535 39.6 39.61 39.572 39.125 35.117 34.065 34.082 34.075 34.182 36.595 37.442 35.4 34.862 34.125 34.08 34.037 34.025 34.052 34.102 34.147 34.13 34.14 34.122 34.072 34.035 34.985 42.732 42.785 42.725 42.722 42.752 42.777 40.627 39.475 39.427 39.492 39.552 39.617 36.127 32.827 32.7 32.685 32.75 32.775 32.755 32.705 32.69 32.702 32.67 32.805 33.495 32.712 32.822 32.775 32.785 32.797 32.785 32.822 32.742 32.732 32.677 32.622 32.672 32.995 33.397 32.495 32.52 32.492 32.452 32.397 32.365 32.322 32.595 37.227 38.08 38.875 38.715 37.912 37.83 38.617 39.225 39.82 40.435 41.035 41.227 40.692 40.1 39.49 38.887 38.472 39.902 42.33 44.697 45.272 40.087 40.34 39.02 38.582 38.57 38.537 34.34 34.23 36.57 43.185 43.525 43.402 42.002 39.427 39.45 39.327 37.062 34.887 34.682 35.457 35.245 35.077 35.53 35.172 38.895 37.895 35.427 34.937 36.572 35.517 34.882 34.917 34.9 34.912 34.895 34.91 34.942 34.995 34.955 34.947 35 35.02 34.94 35.025 36.557 38.295 40.727 40.767 39.262 36.372 36.242 35.925 35.492 35.042 35.042 35.055 35.08 35.26 36.03 35.47 36.247 35.712 34.922 34.915 34.895 34.907 34.92 34.95 34.905
46.82 45.06 43.337 43.425 43.54 43.582 43.622 43.867 45.495 45.257 43.065 42.88 42.815 44.177 49.535 52.16 51.412 52.022 51.817 51.507 52.042 50.625 46.535 43.907 42.052 41.87 41.747 41.672 41.66 41.65 41.617 41.667 41.675 41.982 42.307 41.13 41.015 40.9 40.835 40.675 40.655 40.685 40.715 40.68 40.592 40.537 40.43 40.45 42.002 49.985 50.332 50.017 50.14 48.372 44.772 43.57 45.367 45.637 45.67 50.647 51.43 51.525 51.745 51.702 51.58 49.73 41.18 39.555 39.392 39.365 39.357 39.33 39.317 39.29 39.35 39.442 39.402 39.412 40.075 41.507 40.23 39.037 39.265 40.935 38.812 39.017 40.027 38.675 40.307 42.722 43.682 43.997 42.537 38.397 38.427 39.797 40.952 41.715 43.587 43.71 41.882 39.79 42.67 43.585 44.905 46.032 47.562 47.327 47.52 48.065 42.202 38.555 37.712 37.83 37.902 37.412 37.315 37.295 37.797 37.562 36.905 36.747 36.832 36.825 36.962 36.83 38.075 38.82 38.692 38.47 38.555 38.56 38.767 38.09 38.085 38.192 38.265 38.08 38.31 37.97 38.285 37.677 37.547 37.482 37.48 37.467 37.407 37.387 37.52 39.087 48.27 48.487 49.105 49.097 49.105 49.097 49.1 49.115 49.087 49.085 49.077 49.102 49.122 42.697 37.83 37.625 37.557 37.555 37.517 37.465 37.412 37.37 37.282 37.205 36.932 36.865 37.017 37.032 37.1 37.14 37.162 37.155 37.155 37.177 37.175 37.147 37.122 37.097 36.947 44.265 45.237 45.225 45.227 45.267 42.185 36.717 36.632 36.567 36.597 36.615 36.63 36.612 36.67 36.607 36.615 36.5 36.382 37.38 40.915 37.895 35.432 35.537 35.26 35.27 35.212 35.135 35.052 35.015 34.992 35.09 35.945 40.252 46.087 48.352 48.43 48.505 48.585 48.65 48.532 41.815 37.79 37.805 38.5 37.34 37.767 37.777 37.767 37.815 39.93 40.735 41.235 41.61 41.092 40.76 41.312 41.557 40.577 41.092 41.06 41.085 40.99 41.332 40.887 41.005 41.08 41.162 39.412 34.757 34.402 34.392 34.337 34.26 34.23 34.392 34.42 35.447 36.077 36.932 38.99 42.797 42.827 42.82 42.867 40.532 39.542 39.54 39.592 39.25 37.935 34.477 34.082 34.105 34.095 34.062 34.052 36.92 37.992 35.502 34.31 34.9 35.727 35.712 34.045 34.04 34.117 34.112 34.087 34.077 34.065 34.047 34.02 34.58 42.62 42.71 42.695 42.782 42.78 42.79 41.067 39.515 39.362 36.317 36.567 34.785 32.825 32.775 32.765 32.76 32.762 32.725 32.695 32.92 32.665 32.63 32.64 32.612 33.47 33.002 32.69 32.715 32.712 32.73 32.732 32.732 32.712 32.652 32.585 32.562 32.585 32.532 32.47 32.45 32.42 32.402 32.362 32.34 32.3 32.25 32.265 33.435 37.38 38.15 38.935 38.697 37.87 37.817 38.662 39.265 39.847 40.442 41.022 41.185 40.642 40.05 39.442 38.827 38.17 39.645 43.06 39.527 35.342 38.317 38.637 38.565 38.527 38.29 34.217 34.855 40.815 43.49 43.387 43.39 40.74 39.455 39.5 37.905 35.165 34.567 34.865 35.882 36.012 36.022 35.665 36.532 38.945 38.302 38 36.825 38.2 35.447 35.145 34.915 34.927 34.927 34.897 34.922 34.935 34.947 34.932 34.965 34.942 34.95 34.942 34.96 35.837 40.027 39.872 38.51 36.817 36.12 35.737 37.095 36.505 35.765 35.06 35.025 35.18 37.792 40.16 39.082 38.035 36.082 35.145 35.06 35.012 34.947 34.932 34.892 34.89
47.025 46.05 43.752 43.365 43.485 43.54 43.575 43.537 44.522 44.555 43.825 43.797 48.182 51.142 51.49 52.1 51.825 51.577 52.2 51.295 46.92 42.66 42.372 42.007 42.055 42.265 41.802 41.772 41.732 41.637 41.722 42.057 43.135 45.457 49.36 42.24 40.972 40.962 40.897 40.675 40.572 40.607 40.632 40.612 40.577 40.47 40.38 40.36 40.755 46.75 50.165 50.522 50.9 50.42 44.98 43.272 43.9 44.215 45.435 49.412 51.407 51.442 51.51 51.607 49.002 40.715 39.675 39.987 39.457 39.35 39.317 39.305 39.272 39.362 39.405 39.4 39.44 41.207 46.092 44.042 41.945 39.08 39.767 40.852 39.115 38.64 38.687 38.597 38.525 42.327 46.072 45.947 44.655 39.472 40.83 42.687 45.457 42.517 42.897 43.165 42.077 41.1 41.29 42.555 43.397 42.475 45.157 48.067 47.965 47.825 46.105 38.435 37.655 37.55 37.935 37.36 37.315 37.207 37.44 37.725 37.245 36.77 36.865 36.82 37.102 37.652 38.115 38.05 38.01 38.217 38.08 38.142 38.197 37.942 37.897 37.892 37.767 37.68 37.665 37.68 37.575 37.757 39.205 37.932 37.41 37.37 37.342 37.317 37.365 37.555 39.672 38.745 39.852 39.517 40.127 39.352 39.592 39.835 39.257 39.302 39.79 39.352 40.815 39.79 37.67 37.555 37.52 37.537 37.492 37.425 37.382 37.352 37.332 37.025 36.82 36.775 36.797 36.93 37.035 37.082 37.122 37.132 37.132 37.145 37.152 37.125 37.097 37.042 37.38 43.89 45.282 45.247 45.267 45.29 41.185 36.717 36.67 36.565 36.585 36.95 37.44 36.705 36.672 36.59 36.6 36.552 36.432 36.345 36.17 36.002 35.727 35.377 35.257 35.182 35.165 35.185 35.082 35.05 34.962 35.022 35.495 36.785 39.162 46.867 48.37 48.425 48.505 48.587 48.657 48.15 40.932 40.137 46.07 41.367 37.797 37.76 37.79 37.787 38.077 39.275 41 40.982 40.802 41.387 42.01 42.452 41.252 40.665 41.055 41.022 40.98 40.805 40.83 40.98 41.06 41.072 41.31 38.112 34.42 34.355 34.352 34.312 34.267 34.24 34.377 34.417 35.815 37.185 38.15 42.78 42.862 42.885 42.817 42.275 40.027 39.587 39.102 35.465 34.287 34.135 34.377 34.137 34.085 34.087 34.33 36.932 37.965 35.737 34.17 34.54 34.387 34.052 34.012 34.025 34.067 34.08 34.025 34.045 34.062 33.997 33.987 34.175 40.865 42.77 42.71 42.742 42.762 42.807 41.48 36.342 33.605 33.225 32.982 32.862 32.75 32.837 32.847 32.762 32.727 32.752 33.087 33.852 32.897 32.595 32.6 32.595 32.677 32.62 32.582 32.787 32.677 32.682 32.657 32.677 32.632 32.56 32.555 32.527 32.475 32.452 32.412 32.382 32.335 32.31 32.32 32.305 32.272 32.262 32.265 32.255 34.307 37.685 38.207 38.927 38.645 37.802 37.87 38.697 39.277 39.892 40.482 41.07 41.187 40.622 39.992 39.395 38.792 38.495 37.327 35.282 37.405 38.415 38.525 38.55 38.532 37.645 34.095 35.61 42.312 43.31 43.362 43.385 40.085 39.425 39.465 37.255 34.852 34.542 34.785 36.387 39.325 39.282 37.925 38.88 38.592 38.047 38.212 38.4 38.582 37.477 35.615 34.942 34.905 34.862 34.935 34.96 35.007 34.927 34.887 34.93 34.925 34.937 34.942 34.957 39.035 41.045 41.09 41.08 40.112 35.73 35.207 37.345 36.045 35.685 34.97 35.105 35.83 36.27 43.687 45.55 45.122 43.745 41.105 37.437 35.945 35.192 35.315 35.012 34.96
47.147 46.602 44.39 43.367 43.457 43.485 43.435 43.462 42.96 43.445 44.222 50.32 51.44 52.462 51.687 51.6 52.207 51.612 49.18 44.012 42.427 42.117 42.142 42.16 42.9 42.392 41.832 41.785 42.055 42.415 41.925 46.182 50.312 51.12 51.155 49.797 41.28 41.017 41.185 40.867 40.657 40.775 40.502 40.525 40.515 40.47 40.347 40.247 40.255 41.85 50.02 50.617 50.245 49.987 47.747 43.262 43.132 42.475 49.452 50.62 51.397 51.402 51.385 47.96 40.91 39.452 39.482 39.735 39.36 39.395 39.935 39.25 39.322 39.407 39.402 39.407 40.527 47.442 49.647 45.95 42.712 39.125 39.467 40.297 40.927 38.637 38.477 38.477 38.43 41.72 46.067 45.717 45.425 43.287 45.835 46.472 46.51 42.73 38.492 38.475 38.325 40.31 41.367 40.127 39.11 37.877 40.557 47.992 47.052 46.817 47.037 42.107 37.665 37.36 37.657 37.695 37.26 37.222 37.16 37.215 37.915 37.542 40.485 39.55 38.237 37.862 37.722 37.597 37.75 38.237 37.942 38.167 37.955 37.962 37.452 38.24 38.62 38.402 38.352 37.695 37.422 39.43 40.49 41.347 37.815 37.365 37.347 37.297 37.157 37.302 37.37 37.512 37.57 37.557 37.525 37.547 37.575 37.552 37.57 37.61 37.625 37.7 37.645 37.65 37.567 37.52 37.445 37.417 37.415 37.4 37.345 37.315 37.265 36.907 36.665 36.65 36.727 36.82 36.927 36.997 37.06 37.077 37.1 37.122 37.132 37.127 37.07 37.017 38.18 44.73 45.312 45.295 45.305 45.332 43.695 36.745 36.675 36.575 36.597 37.085 38.452 38.225 38.937 36.615 36.622 36.525 36.422 36.327 36.217 36.075 35.917 35.655 35.305 35.182 35.155 35.115 35.112 35.105 34.975 34.977 35.077 36.18 35.172 39.345 46.91 48.36 48.435 48.525 48.607 48.645 48.342 47.782 48.42 48.185 42.775 36.887 37.745 38.832 44.117 44.867 47.745 42.797 40.76 41.45 42.25 42.077 41.427 40.99 41.065 41.022 40.95 41.227 40.77 41.042 41.015 41.205 40.98 40.785 37.347 34.352 34.322 34.335 34.285 34.227 34.26 34.34 35.225 35.69 36.132 43.077 42.955 42.802 42.81 42.827 42.215 38.94 36.167 34.53 34.162 35.082 36.287 34.402 34.102 34.147 34.7 36.372 37.95 36.39 34.237 34.527 35.25 35.52 34.06 34.035 34.035 34.082 34.065 34.067 34.025 34.015 33.975 35.13 42.282 44.08 43.157 42.77 42.715 42.73 40.285 33.32 33.097 33.002 32.882 32.795 32.767 32.807 32.852 32.817 32.757 32.845 33.322 33.827 35.122 32.62 32.55 32.557 32.567 32.537 32.48 32.597 32.735 32.632 32.637 32.665 32.592 32.532 32.507 32.467 32.437 32.422 32.367 32.335 32.355 32.302 32.292 32.275 32.217 32.252 32.732 32.947 32.6 32.707 37.617 38.237 38.872 38.325 37.517 37.945 38.73 39.307 39.935 40.55 41.1 41.122 40.512 39.932 39.345 38.765 37.885 36.457 37.895 38.527 38.522 38.577 38.577 36.937 34.082 36.3 42.88 43.365 43.395 43.1 39.497 39.417 39.31 37.52 34.715 34.57 35.242 38.535 39.35 39.417 39.515 39.565 38.662 38.375 38.347 38.377 37.602 38.482 38.442 37.67 37.345 36.262 35.107 35.027 34.977 34.965 34.957 34.967 34.955 34.887 34.895 34.912 39.682 41.06 41.045 41.027 38.547 35.2 34.985 35.11 35.727 35.227 34.972 35.165 35.447 38.302 45.722 46.562 47.302 45.987 45.655 45.422 43.48 41.295 39.06 36.142 35.137
47.227 46.505 44.355 43.37 43.4 45.255 44.37 42.975 43.217 44.085 45.21 52.202 51.58 51.712 52.72 50.47 48.777 45.707 42.807 42.327 42.147 42.325 42.792 42.165 42.045 41.91 42.072 41.727 41.682 42.39 44.725 50.832 51.24 51.01 50.775 50.395 43.895 41.282 41.557 41.785 40.675 41.367 40.437 40.455 40.5 40.412 40.312 40.237 40.185 40.41 46.807 50.042 50.12 50.355 50.647 45.312 40.367 39.955 47.85 51.072 51.395 51.237 45.65 39.79 39.51 39.372 39.342 39.325 39.657 41.542 41.365 39.295 39.38 39.38 39.402 41.855 47.755 49.392 50.067 48.435 42.305 41.105 38.792 39.147 41.292 38.662 38.457 38.74 38.632 39.17 39.46 43.245 46.265 46.22 46.187 46.432 45.54 44.692 39.75 38.037 38.002 38.017 38.94 37.87 37.822 37.91 37.712 45.49 46.875 47.31 47.67 46.305 38.862 37.902 37.285 38.017 37.222 37.152 37.095 37.182 38.15 43 42.995 42.972 40.455 37.642 39.305 44.155 44.277 45.122 44.88 45.012 44.88 44.992 44.412 44.96 45.577 45.437 45.352 44.137 37.39 39.822 40.22 41.847 38.827 37.715 37.302 37.275 37.225 37.205 37.252 37.28 37.35 37.36 37.302 37.292 37.275 37.262 37.252 37.232 37.165 37.187 37.145 37.16 37.027 37.082 37.097 37.107 37.112 37.075 36.945 37.032 36.997 36.837 36.53 36.55 36.602 36.725 36.815 36.902 36.96 36.99 37.062 37.09 37.105 37.11 37.042 37.017 36.907 44.645 45.302 45.28 45.31 45.32 44.052 36.732 36.677 36.58 36.607 40.897 38.78 39.742 41.037 36.595 36.612 36.547 36.447 36.355 36.247 36.147 35.987 35.835 35.612 35.265 35.1 35.115 35.137 35.062 35.02 34.987 35.447 36.8 36.825 35.13 40.537 47.605 48.385 48.457 48.532 48.625 48.625 48.562 48.477 48.417 47.122 36.945 38.187 40.17 48.152 48.712 51.142 50.567 44.512 40.905 41.582 41.355 40.732 40.607 41.165 40.97 40.947 40.99 40.982 41.192 41.102 40.972 40.75 40.787 40.77 37.53 34.385 34.447 34.315 34.245 34.692 34.74 34.317 34.257 35.527 42.535 42.77 42.785 42.77 42.84 42.822 39.855 34.105 34.057 34.792 35.99 34.635 34.107 34.087 34.24 34.802 35.61 37.132 35.997 34.325 34.565 35.347 35.507 34.472 34.052 34.055 34.067 34.05 34.042 34.03 34.02 35.987 42.707 45.655 45.35 44.72 42.78 42.755 42.7 42.575 33.417 32.947 32.885 32.75 32.757 32.812 32.752 32.727 32.792 33.115 33.275 32.932 33.292 35.44 34.607 32.505 32.495 32.53 32.495 32.965 32.49 33.402 32.622 32.622 32.595 32.535 32.517 32.45 32.4 32.372 32.352 32.327 32.285 32.29 32.262 32.47 32.852 33.107 32.82 34.762 39.68 35.66 32.115 33.695 37.675 38.16 37.675 37.172 37.477 38.077 38.75 39.37 39.995 40.567 40.812 40.31 39.782 39.262 38.72 37.735 36.007 36.095 38.427 38.567 38.567 38.71 35.565 34.007 37.49 43.175 43.382 43.392 41.577 39.455 39.447 38.59 35.43 34.547 34.737 35.71 39.07 39.39 39.395 39.485 39.377 38.57 38.34 38.335 38.397 36.677 37.452 37.142 38.067 39.237 39.665 39.02 38.415 36.827 35.837 35.19 35.045 35.047 34.967 34.927 35.562 40.545 41.132 41.075 41.037 35.52 34.98 35.177 35.155 35.437 35.227 34.992 35.012 35.457 42.16 46.162 46.445 47.145 46.82 46.61 46.312 46.01 46.09 45.78 44.425 41.915
48.057 47.742 44.645 43.802 44.585 43.212 43.315 43.65 45.4 49.282 51.785 51.997 52.205 51.505 50.71 45.685 42.825 42.315 42.242 42.37 42.805 42.287 42.065 42.017 41.917 42.267 42.557 41.942 41.775 41.865 42.05 45.422 50.785 50.84 51.277 51.722 46.995 41.217 41.837 41.37 40.487 40.797 40.55 40.397 40.387 40.332 40.3 40.195 40.117 40.132 42.31 49.737 51.012 50.825 50.072 48.367 40.292 41.052 48.535 51.065 50.762 44.795 39.595 39.475 39.342 39.357 39.335 39.647 41.915 41.74 39.58 39.357 39.66 39.862 44.047 49.83 49.945 49.11 49.59 49.965 45.625 41.627 38.747 39.03 41.41 39.677 38.417 38.555 39.065 38.245 38.827 40.497 45.487 46.46 46.48 46.387 46.31 46.227 42.142 38 38.23 38.31 37.99 37.945 38.34 39.425 40.857 44.652 47.647 47.607 47.142 46.855 42.162 38.297 37.22 37.275 37.525 37.145 37.06 37.257 41.565 46.23 41.647 39.117 39.117 38.642 41.17 45.822 45.807 45.795 45.737 45.742 45.742 45.735 45.745 45.737 45.73 45.727 45.707 45.625 37.37 37.65 40.54 40.02 37.765 37.525 37.23 37.27 37.217 37.155 37.132 37.125 37.135 37.135 37.04 37.015 36.977 36.955 36.925 36.902 36.87 36.86 36.845 36.83 37 36.797 36.722 36.752 36.662 36.747 36.785 36.945 36.882 36.552 36.46 36.43 36.482 36.595 36.702 36.767 36.812 36.91 36.982 37.012 37.047 37.062 37.02 36.962 37.037 44.057 45.277 45.27 45.245 45.28 41.582 36.712 36.675 36.557 39.067 41.042 42.547 39.742 41.18 38.905 36.63 36.552 36.417 36.32 36.25 36.142 36.037 35.892 35.75 35.462 35.205 35.085 35.077 35.075 35.052 35.002 34.912 35.027 36.805 35.58 37.3 44.215 47.55 48.397 48.467 48.537 48.637 48.64 48.562 48.477 44.467 38.407 37.827 42.705 49.612 51.297 51.335 51.26 49.487 42.95 40.907 40.72 40.625 40.675 41.032 41.017 40.972 40.867 40.74 41.032 41.07 40.567 40.915 41.452 41.092 40.82 35.59 35.035 34.87 34.292 34.357 35.21 34.35 34.272 35.515 42.74 42.78 42.817 42.815 42.795 42.857 42.825 38.94 34.042 34.205 34.047 34.077 34.08 34.105 34.085 34.65 34.92 34.347 34.27 34.487 34.862 35.372 34.877 34.542 34.02 34.037 34.047 34.042 34.01 34.69 38.135 44.367 45.607 45.6 45.655 45.3 43.487 42.697 42.71 39.857 33.04 32.907 32.837 32.817 32.832 32.79 32.762 32.73 33.177 33.442 32.882 32.84 32.86 33.997 35.072 32.982 32.42 32.465 32.48 32.857 32.822 32.992 32.687 32.545 32.552 32.465 32.41 32.377 32.355 32.322 32.405 32.345 32.652 32.722 32.88 32.857 33.425 32.735 34.8 40.43 40.492 40.355 34.992 32.14 33.975 37.405 37.19 37.65 38.247 37.672 38.05 38.83 39.405 40.005 40.212 39.737 39.212 38.69 38.047 36.557 36.327 36.06 36.12 37.832 38.367 35.437 33.842 33.907 40.435 41.645 43.33 43.372 40.052 39.465 39.517 37.41 34.477 34.542 34.597 35.975 39.42 39.405 39.455 39.505 38.905 38.362 38.332 38.307 38.397 38.452 38.16 38.05 38.097 39.315 39.652 39.615 39.64 39.695 39.202 39.142 38.472 38.72 35.822 34.977 38.787 41.36 42.372 41.207 40.155 34.952 34.955 35.22 35.192 35.192 35.035 35.04 34.992 36.07 41.99 44.882 45.335 46.832 46.89 46.825 46.612 46.685 47.442 46.512 46.115 45.862
48.855 49.925 45.805 45.897 43.702 43.602 44.797 50.64 51.617 52.227 52.337 51.597 52.262 47.842 42.912 42.63 42.385 42.392 42.41 42.54 42.41 42.165 42.095 41.905 41.84 42.055 42.21 41.587 41.432 41.192 41.23 42.192 50.587 51.957 51.795 51.547 51.05 43.142 40.98 40.687 40.457 40.312 40.685 40.287 40.292 40.31 40.252 40.132 40.072 40.057 40.997 47.745 50.082 49.742 49.692 50.01 46.465 49.165 51.025 50.037 42.192 39.917 39.432 39.342 39.367 39.332 39.317 41.585 41.83 39.482 39.407 39.752 41.032 46.402 50.692 51.515 51.38 49.802 49.05 48.855 45.92 43.295 40.45 38.6 40.082 40.207 38.35 38.25 38.295 38.13 38.242 38.877 43.335 46.467 46.24 45.66 46.207 45.125 43.892 39.697 38.127 37.89 37.835 37.952 40.26 41.307 42.72 42.667 45.767 46.82 46.855 47.342 47.465 39.307 37.592 37.16 39.012 37.52 37.005 37.955 41.12 43.495 40.717 40.497 41.01 37.795 40.025 45.817 45.8 45.747 45.735 45.715 45.705 45.757 45.735 45.782 45.792 45.68 45.707 45.78 37.385 37.482 38.497 40.432 37.335 37.265 37.155 37.19 37.23 37.237 37.185 37.1 37.022 37.01 36.985 36.952 36.912 36.86 36.822 36.827 36.865 38.047 38.09 37.392 38.472 38.39 37.11 37.575 36.997 37.387 37.102 37.03 37.075 36.595 36.46 36.44 36.407 36.462 36.502 36.557 36.655 36.767 36.877 36.912 36.97 36.992 36.937 36.875 37.515 44.895 45.232 45.227 45.24 45.272 43.647 36.642 36.617 36.572 37.357 39.142 41.112 38.465 40.662 37.277 36.627 36.492 36.367 36.3 36.187 36.11 36 35.877 35.702 35.397 35.217 35.152 35.032 35.037 35.075 35.022 34.97 34.89 35.012 37.755 36.665 38.53 44.455 48.117 48.402 48.462 48.54 48.627 48.635 43.377 36.37 37.317 42.865 48.63 50.885 51.227 51.105 51.262 51.305 49.335 42.677 40.837 40.802 40.755 41.115 40.977 40.96 40.897 41.002 40.897 40.492 41.032 41.577 42.007 41.702 41.017 39.867 34.857 34.732 34.367 34.257 34.172 34.085 34.225 34.267 41.045 42.792 42.802 42.797 42.79 42.807 42.882 41.982 36.017 34.15 34.027 34.027 34.085 34.102 34.075 34.337 34.657 34.745 34.427 34.38 34.172 34.077 34.03 34.007 34.022 34.012 34.042 34.07 35.73 42.4 45.58 45.595 45.595 45.58 45.575 45.91 45.892 42.945 40.357 33.495 32.895 32.785 32.807 32.832 32.797 32.797 32.822 33.177 32.992 32.882 32.767 32.775 32.74 32.832 34.945 34.695 32.492 32.397 32.4 32.385 32.417 32.912 32.557 32.53 32.43 32.36 32.33 32.31 32.417 33.082 33.195 32.587 33.32 33.605 33.02 32.815 32.602 34.182 39.235 40.517 40.502 40.6 39.015 32.17 32.365 34.962 37.577 38.232 38.922 38.397 37.575 38.12 38.847 39.445 39.662 39.167 38.587 37.857 38.405 37.342 36.17 35.995 33.705 33.95 34.755 33.717 33.805 33.87 34.572 39.507 40.67 41.465 39.422 39.422 39.31 37.127 34.567 34.532 34.902 38.2 39.482 39.407 39.467 39.42 38.777 38.33 38.347 38.33 38.355 38.4 38.497 38.48 38.255 39.555 39.645 39.662 39.687 39.652 39.685 39.682 40.03 41.177 40.882 38.502 40.29 41.975 42.42 41.052 37.467 35.155 35.037 35.14 35.22 35.242 35.075 35.032 35.072 36.637 41.302 39.462 38.145 40.302 44.94 45.682 45.577 46.032 47.03 46.57 46.697 46.722
50.41 50.232 46.74 45.905 48.81 50.545 51.272 52.245 52.052 51.662 52.64 51.865 50.302 45.29 42.585 42.44 42.687 43.177 42.517 42.235 42.192 42.675 42.037 41.99 41.96 41.892 42.93 41.457 41.28 41.22 41.335 41.407 46.652 51.062 50.867 51.115 51.73 47.527 40.765 40.577 40.685 40.342 41.07 40.557 40.195 40.172 40.162 40.105 40.042 40.025 40.585 44.717 49.737 50.032 50.582 51.897 52.24 51.977 48.592 40.672 39.532 39.43 39.352 39.337 39.28 39.29 39.212 39.247 39.927 39.347 39.397 40.295 46.227 49.907 51.64 51.557 51.555 51.41 48.997 43.995 43.242 43.482 42.372 38.51 40.185 39.572 38.302 38.232 38.09 38.02 38.065 38.665 39.185 45.46 46.237 46.29 46.225 46.15 46.03 43.507 37.85 37.82 37.915 38.242 39.205 41.485 43.042 40.83 40.927 47.005 47.817 47.49 47.037 42.122 38.032 37.362 38.632 37.652 36.91 37.132 37.21 39.99 39.722 40.615 40.662 37.312 39.595 45.815 45.775 45.74 45.717 45.682 45.69 42.602 41.472 42.992 43.482 45.525 45.56 40.767 37.09 37.205 38.237 38.365 37.317 37.29 37.162 37.095 37.102 37.152 37.187 37.18 37.09 37.027 36.985 36.922 36.857 36.835 36.832 36.817 36.825 37.062 36.982 36.877 36.917 36.73 36.645 36.652 36.612 36.59 36.565 36.555 36.532 36.52 36.485 36.462 36.392 36.377 36.375 36.425 36.442 36.582 36.73 36.795 36.877 36.915 36.877 36.857 36.812 44.007 45.222 45.2 45.205 45.237 44.157 36.617 36.58 36.58 36.727 39.105 39.56 39.99 36.56 36.55 36.605 36.455 36.42 36.287 36.205 35.912 35.722 35.685 35.5 35.372 35.26 35.2 35.095 35.02 35.012 35.025 34.982 34.86 36.007 35.16 36.427 35.055 36.825 45.412 48.105 48.407 48.485 48.572 48.637 47.665 37.992 44.677 49.242 51.035 51.472 51.657 51.135 51.265 51.367 50.567 44.55 40.762 40.585 40.727 41.195 40.965 40.957 40.91 41.11 40.612 41.095 41.667 42.142 42.617 42.342 41.625 40.917 39.682 35.145 34.955 34.33 34.187 34.147 34.092 34.172 35.462 42.462 42.81 42.807 42.857 42.815 42.782 42.882 42.65 35.8 34.037 34.59 34.532 34.06 34.087 34.057 34.12 34.38 34.23 34.09 34.115 34.067 34.267 34.072 34.002 34.275 34.117 37.597 44.277 45.647 45.652 45.607 45.545 45.55 45.57 45.73 44.03 39.77 33.437 32.935 32.825 32.845 32.865 32.82 32.802 34.5 37.02 33.265 32.82 32.76 32.73 32.74 32.732 32.717 33.675 35.502 33.5 32.347 32.34 32.322 32.297 32.212 32.297 32.435 32.357 32.31 32.265 32.242 32.882 33.2 32.717 32.437 33.705 35.31 33.277 32.337 33.86 40.412 40.457 40.492 40.582 40.94 41.422 35.102 32.175 32.187 34.87 37.672 38.467 39.015 38.32 37.81 38.29 38.885 39.13 38.632 38.117 37.215 37.86 36.227 36.16 36.057 35.45 33.552 34.31 33.937 33.72 33.8 33.995 34.812 35.86 39.81 39.41 39.435 39.305 36.152 34.877 34.515 35.582 39.212 39.39 39.502 39.45 38.945 38.402 38.317 38.267 38.255 38.222 38.41 38.262 38.285 38.357 39.635 39.645 39.617 39.662 39.647 39.665 39.662 40.325 41.102 41.11 41.122 41.125 42.167 42.212 41.092 36.21 35.122 35.04 35.587 35.92 35.31 35.075 35.037 35.13 37.225 40.567 38.935 37.137 37.075 41.04 41.907 42.24 41.542 43.825 45.532 45.942 46.167
