ncols 400
nrows 31
xllcorner    528042
yllcorner    189860
cellsize     2
NODATA_value -9999
94.318 93.963 94.068 94.133 94.171 93.858 93.353 93.586 94.076 94.088 94.138 94.326 94.411 94.423 94.451 94.498 94.538 94.553 94.553 94.448 94.441 94.478 94.501 94.531 94.543 94.593 94.713 95.018 95.448 95.941 96.201 96.196 95.811 95.378 95.056 94.983 95.013 95.003 95.038 95.041 95.038 95.116 95.108 95.073 95.111 95.151 95.148 95.151 95.163 95.196 95.258 95.168 94.828 94.816 95.131 95.193 95.223 95.206 95.248 95.288 95.333 95.391 95.471 95.533 95.928 95.851 97.898 99.323 99.316 98.308 97.801 97.603 98.331 96.931 96.981 97.088 97.178 97.311 97.523 98.201 99.048 98.793 98.418 97.443 97.826 97.561 97.548 97.633 98.116 98.286 97.956 99.151 101.093 101.031 100.348 100.361 102.846 102.136 104.016 98.453 97.526 97.588 98.023 98.603 98.498 98.031 97.968 100.421 102.221 101.238 98.918 98.266 97.966 97.808 97.713 98.676 98.701 100.016 105.276 105.811 107.508 99.223 95.908 95.963 96.023 96.053 96.303 96.613 97.286 97.161 99.298 103.708 100.898 101.778 100.241 95.826 98.411 99.253 99.306 98.653 103.461 102.468 98.123 100.676 95.721 95.581 95.588 95.608 95.591 95.616 95.581 95.571 95.523 95.513 95.483 95.508 95.501 95.463 95.483 95.471 95.443 95.446 95.413 95.416 95.451 95.378 95.573 95.501 96.058 96.278 96.031 95.938 96.033 96.086 96.161 96.906 96.578 99.236 98.583 97.253 98.048 100.451 104.306 107.518 104.411 101.103 99.398 100.481 100.568 98.708 97.748 101.316 100.406 99.176 99.543 97.878 97.713 97.546 97.388 97.448 99.878 100.746 101.718 100.936 97.426 97.608 97.841 97.938 98.106 98.181 98.228 98.241 98.231 98.221 98.231 98.248 98.251 98.263 98.261 98.288 98.211 98.098 97.978 97.936 97.928 97.883 97.901 97.916 97.928 97.916 97.913 97.881 97.891 97.868 97.863 97.861 97.858 97.843 97.841 97.811 97.836 97.846 97.931 98.206 99.178 99.906 101.136 100.828 99.091 98.993 98.991 99.298 99.283 99.286 99.293 99.306 99.328 99.428 99.546 100.258 100.336 100.403 100.528 100.463 100.438 100.466 100.426 100.403 100.391 100.381 100.396 100.391 100.503 100.858 101.311 101.028 101.118 101.283 100.986 101.586 101.424 101.004 100.926 101.139 101.529 103.071 100.854 101.071 102.829 106.004 107.904 103.876 104.081 105.749 107.374 107.919 105.516 105.784 108.714 109.614 107.814 101.534 100.531 98.599 98.521 98.576 98.651 98.681 98.624 98.644 99.441 105.724 107.056 105.889 102.761 101.431 99.691 104.706 104.396 101.646 100.519 101.114 102.201 108.074 106.256 102.721 101.456 100.404 100.404 101.121 110.004 112.004 114.849 114.716 114.746 112.811 111.961 110.999 104.531 100.711 99.794 100.169 103.951 102.886 103.766 103.661 99.116 98.984 98.896 98.796 98.741 98.696 98.659 98.654 98.584 98.524 98.399 98.406 99.694 102.961 106.791 107.341 108.249 108.574 107.951 100.414 98.479 98.451 99.401 101.784 99.314 98.609 98.611 98.549 100.214 98.859 98.001 98.054 98.161 99.394 98.631 98.124 98.196 99.174 99.276 101.849 104.159 102.394 97.719 98.141 96.941 96.591 96.541 96.169 95.476 96.596 98.664 98.709 104.539 105.906
94.106 94.128 94.086 93.926 -9999 -9999 -9999 93.292 94.036 94.221 94.218 94.423 94.498 94.503 94.511 94.576 94.601 94.623 94.658 94.538 94.506 94.556 94.606 94.583 94.743 95.198 95.586 96.058 96.248 96.071 95.768 95.393 95.046 95.013 95.051 95.028 95.086 95.056 95.053 95.081 95.138 95.163 95.161 95.121 95.151 95.183 95.216 95.206 95.223 95.256 95.301 95.303 95.076 94.891 94.938 95.113 95.276 95.236 95.256 95.308 95.381 95.393 95.448 95.516 95.596 95.666 97.461 97.236 99.146 98.371 98.306 103.558 104.141 98.496 97.826 97.656 98.256 97.463 98.598 97.738 97.813 97.843 97.416 97.411 97.501 98.186 98.873 98.733 98.526 98.776 99.618 99.976 100.103 100.483 100.581 101.888 104.831 105.128 104.438 98.266 99.658 100.561 98.853 98.036 98.258 98.061 98.051 100.061 100.736 100.606 98.268 97.941 98.088 97.491 96.991 96.666 102.991 107.681 108.933 109.083 108.488 103.376 96.643 97.086 96.293 96.088 96.963 96.913 96.176 96.253 101.651 103.833 99.726 101.478 99.883 97.498 103.578 102.566 99.453 96.461 101.448 103.071 100.996 100.761 100.626 95.643 95.621 95.633 95.646 95.613 95.593 95.571 95.568 95.526 95.516 95.548 95.531 95.506 95.493 95.501 95.491 95.471 95.486 95.458 95.463 95.436 95.391 96.106 96.918 96.526 96.038 96.143 96.533 96.491 96.448 96.538 96.783 98.708 99.396 102.261 103.408 104.043 102.733 107.681 104.216 100.618 103.456 103.071 102.338 99.586 102.456 100.648 102.238 102.038 100.576 99.001 99.373 98.053 97.568 98.011 99.426 100.956 101.538 101.378 98.226 97.938 98.056 97.941 98.088 98.178 98.218 98.233 98.233 98.243 98.258 98.256 98.273 98.296 98.323 98.281 98.283 98.213 98.086 97.943 97.933 97.933 97.936 97.928 97.938 97.933 97.923 97.916 97.918 97.913 97.883 97.881 97.866 97.873 97.831 97.833 97.891 98.353 99.171 100.181 101.186 102.298 102.668 103.008 100.043 99.158 99.088 99.488 99.636 99.356 99.353 99.538 99.558 99.921 100.161 100.498 100.661 100.611 100.521 100.471 100.436 100.406 100.416 100.361 100.388 100.401 100.436 100.828 101.376 101.108 100.848 100.901 100.773 101.568 101.023 101.036 101.011 101.989 101.341 101.641 101.646 102.759 101.426 105.569 107.901 107.811 108.049 107.919 108.086 107.894 108.211 108.891 106.241 102.814 107.876 109.419 108.024 106.096 101.401 99.041 98.629 98.621 98.744 98.804 98.819 98.761 99.181 105.011 106.796 105.254 104.706 103.486 100.966 100.521 100.491 100.476 101.239 104.906 109.371 111.821 111.311 102.454 100.406 100.424 100.431 101.554 108.679 111.774 113.071 114.669 114.344 112.664 111.781 106.424 100.416 99.849 99.726 99.809 102.576 102.429 101.901 99.284 99.074 99.031 98.939 98.859 99.251 99.591 98.744 98.694 98.694 98.639 98.554 98.456 98.469 99.319 104.901 106.884 107.911 108.076 108.119 104.796 98.544 98.456 98.404 100.511 101.914 99.251 98.636 98.629 98.556 98.894 99.414 98.241 98.319 98.584 98.441 98.144 98.131 99.294 100.499 102.764 102.274 101.846 97.724 96.754 96.671 96.624 96.581 96.406 95.474 95.826 98.126 98.704 99.841 105.894
94.228 94.031 -9999 -9999 -9999 -9999 -9999 93.146 93.761 94.311 94.293 94.438 94.578 94.573 94.608 94.648 94.666 94.701 94.726 94.718 94.603 94.678 94.823 95.248 95.801 96.228 96.403 96.216 95.598 95.251 95.091 95.078 95.076 95.088 95.103 95.111 95.133 95.133 95.166 95.171 95.188 95.193 95.231 95.236 95.221 95.283 95.286 95.291 95.306 95.306 95.356 95.391 95.333 95.128 95.018 95.096 95.231 95.301 95.276 95.323 95.388 95.398 95.503 95.548 95.606 96.436 98.113 97.231 96.301 100.173 101.766 102.933 100.448 101.588 100.331 97.843 97.213 97.601 98.411 97.961 97.311 97.396 97.728 97.728 97.991 99.331 99.418 100.443 100.553 100.476 100.518 100.538 100.753 102.003 103.141 104.001 104.748 104.453 104.831 101.651 100.728 100.843 99.198 98.118 98.651 98.156 98.148 98.108 98.823 98.148 98.303 98.188 98.093 97.661 97.758 98.248 103.313 108.011 109.361 108.676 109.078 106.631 99.123 98.566 96.558 96.326 96.191 95.936 95.896 96.081 99.821 101.616 103.591 102.116 98.096 106.446 103.831 101.566 101.568 96.603 99.641 101.733 102.111 100.231 101.251 96.071 95.773 95.761 95.638 95.631 95.631 95.606 95.598 95.568 95.573 95.578 95.548 95.551 95.526 95.566 95.508 95.506 95.446 95.466 95.456 95.463 95.461 96.078 97.121 97.096 96.291 98.208 96.353 96.531 96.853 98.966 98.728 101.703 97.113 101.688 101.081 98.186 99.808 100.766 100.176 100.086 102.968 100.783 100.453 99.321 104.036 102.043 100.441 100.611 100.878 102.633 102.316 99.803 99.956 99.216 102.656 100.708 99.501 99.653 98.293 98.283 98.081 97.966 98.111 98.193 98.233 98.231 98.256 98.268 98.266 98.266 98.266 98.286 98.341 98.343 98.348 98.288 98.128 97.976 97.936 97.961 97.968 97.943 97.961 97.941 97.933 97.921 97.911 97.916 97.896 97.888 97.888 97.896 97.936 98.098 98.456 98.878 100.681 102.391 102.758 103.003 102.896 102.638 100.631 99.241 99.218 99.788 101.058 99.483 99.918 99.973 100.413 100.343 100.628 100.556 100.521 100.491 100.421 100.411 100.393 100.416 100.448 100.436 100.673 101.726 101.463 101.218 101.126 100.836 100.736 100.766 100.863 101.411 101.346 101.269 101.431 101.706 102.109 104.606 103.516 101.894 102.224 104.404 108.271 107.641 107.491 108.869 109.251 108.031 107.666 108.991 107.981 104.981 107.741 108.041 104.841 102.534 100.644 100.286 98.824 98.739 98.804 98.899 98.926 98.849 98.849 99.634 104.611 104.761 104.351 102.904 101.014 100.491 100.486 100.674 104.569 110.919 111.789 111.774 111.859 101.709 100.419 100.419 103.241 109.364 111.806 111.786 111.819 112.824 112.354 111.849 104.976 101.634 100.564 99.701 99.504 99.359 100.261 103.486 99.681 99.226 99.154 99.059 98.974 99.586 101.146 101.294 100.229 98.766 98.726 98.714 98.631 98.544 98.476 98.501 100.241 106.144 107.019 107.034 106.139 102.034 100.476 98.889 98.346 99.234 100.259 100.761 99.234 98.679 98.629 98.534 98.896 99.039 98.744 99.101 98.139 98.109 98.489 100.409 100.049 102.439 98.981 97.821 97.746 97.359 96.686 96.666 96.596 96.464 96.644 97.051 96.109 98.779 98.679 101.861
-9999 -9999 -9999 -9999 -9999 -9999 93.216 93.589 94.088 94.351 94.361 94.348 94.621 94.661 94.688 94.728 94.776 94.801 94.821 94.833 94.736 94.921 95.581 96.216 96.426 96.071 95.631 95.233 95.071 95.076 95.123 95.161 95.133 95.143 95.168 95.188 95.211 95.228 95.248 95.263 95.263 95.276 95.253 95.306 95.306 95.328 95.353 95.348 95.371 95.378 95.416 95.418 95.451 95.336 95.163 95.198 95.181 95.338 95.313 95.336 95.406 95.468 95.481 95.541 95.681 95.856 95.833 96.258 97.023 97.178 100.396 99.868 98.658 99.351 100.631 97.671 97.773 97.666 98.263 98.468 97.628 98.843 99.518 99.368 100.333 100.498 100.543 100.528 100.668 101.988 103.076 103.948 105.231 104.486 104.431 104.448 104.466 104.436 104.608 101.456 99.586 98.023 97.453 98.096 98.283 98.423 98.161 98.181 98.271 98.258 98.116 98.231 98.013 98.046 97.963 97.566 99.891 108.478 109.286 108.688 110.093 107.806 100.863 99.221 96.853 97.151 96.151 95.986 95.911 95.898 95.811 97.111 99.923 99.146 102.421 100.851 103.348 99.366 97.551 96.738 98.763 99.701 100.971 99.733 100.243 95.661 95.648 95.858 95.658 95.693 95.638 95.643 95.648 95.623 95.613 95.598 95.573 95.561 95.556 95.506 95.551 95.541 95.521 95.538 95.496 95.501 95.491 96.768 97.821 98.816 97.478 99.963 99.076 100.273 97.618 100.846 100.536 98.218 100.386 101.451 98.771 104.538 99.073 102.353 100.666 99.843 100.241 103.413 98.378 98.091 98.403 99.203 98.011 98.998 100.338 101.223 99.376 100.381 100.188 100.541 102.711 100.241 99.161 98.486 97.923 98.138 98.106 97.983 98.131 98.206 98.268 98.271 98.283 98.276 98.268 98.298 98.288 98.293 98.318 98.331 98.371 98.363 98.246 98.051 97.958 97.978 97.973 97.973 97.951 97.951 97.946 97.941 97.931 97.928 97.913 97.936 97.958 97.991 98.203 98.468 98.763 98.941 99.621 102.673 102.801 102.418 102.268 102.643 101.483 99.366 100.801 101.063 99.601 99.563 100.273 101.253 101.251 100.588 100.496 100.426 100.501 100.743 100.743 100.488 100.478 100.551 100.858 101.413 101.443 101.148 100.823 101.123 101.278 103.171 100.796 100.856 100.926 101.661 101.456 101.866 103.699 102.974 107.329 109.654 107.756 104.306 106.936 107.861 108.711 107.954 104.526 108.384 109.599 108.514 107.906 108.561 108.706 105.611 102.301 102.256 100.381 100.836 101.521 99.819 98.909 98.771 98.809 98.951 99.036 99.001 99.004 98.959 101.041 102.056 100.319 101.194 101.401 100.719 100.459 100.874 109.036 111.811 111.961 111.806 111.816 106.321 100.794 103.696 110.559 111.791 111.804 111.809 111.826 111.809 110.549 104.449 100.826 101.161 108.404 102.789 99.594 99.324 99.416 99.446 99.391 99.281 99.149 99.089 100.421 101.411 99.666 100.919 100.551 99.121 98.821 98.901 98.726 98.674 98.739 98.829 99.051 102.884 105.399 105.021 104.956 102.216 101.646 101.119 98.581 98.404 98.384 99.551 100.806 99.001 98.824 99.026 98.464 99.666 98.614 98.161 98.131 98.386 100.104 100.741 99.011 102.296 101.191 97.901 97.701 97.431 96.866 96.681 96.636 97.149 98.339 96.696 95.866 96.984 96.271 96.644
-9999 -9999 -9999 -9999 -9999 93.431 93.858 94.296 94.338 94.348 94.381 94.438 94.606 94.746 94.788 94.826 94.848 94.866 94.886 94.906 94.931 94.988 95.833 95.901 95.461 95.198 95.146 95.131 95.133 95.153 95.178 95.211 95.211 95.216 95.238 95.246 95.263 95.256 95.318 95.336 95.346 95.346 95.358 95.351 95.436 95.418 95.413 95.418 95.446 95.461 95.483 95.501 95.488 95.488 95.276 95.188 95.223 95.463 95.381 95.376 95.388 95.466 95.466 95.536 95.623 95.813 95.911 96.021 96.988 96.391 97.333 97.096 96.873 99.133 100.443 99.631 100.211 99.658 99.308 100.681 100.626 100.508 100.548 100.546 100.543 100.546 100.543 100.526 102.116 103.461 104.578 105.366 105.373 104.591 104.641 104.691 104.811 104.921 104.726 100.623 97.386 97.393 97.433 98.001 98.358 99.743 98.303 98.223 98.238 98.963 98.138 98.228 98.373 98.023 98.211 98.348 99.046 104.976 108.806 109.683 109.216 108.543 105.913 98.663 96.581 96.056 95.998 96.428 97.311 98.068 98.191 99.081 100.058 101.088 101.243 102.081 102.058 98.718 98.173 97.226 96.756 98.016 98.523 100.273 98.791 95.948 95.648 95.641 95.621 95.741 95.658 95.648 95.671 95.653 95.636 95.636 98.303 96.656 96.361 96.658 99.343 96.601 95.561 95.601 95.588 95.561 95.598 98.466 100.251 99.823 102.036 101.113 103.041 99.746 100.898 99.658 99.271 99.161 99.271 100.541 98.448 98.113 97.786 101.356 99.481 99.476 101.868 100.808 98.063 98.403 99.013 100.038 98.511 99.793 99.751 103.153 102.246 100.683 99.526 102.956 101.726 101.403 102.541 98.603 97.863 97.841 97.908 97.991 98.153 98.231 98.271 98.286 98.268 98.286 98.291 98.288 98.286 98.303 98.311 98.318 98.373 98.406 98.336 98.173 98.003 97.986 98.001 97.998 97.981 97.973 97.958 97.976 97.966 97.953 97.956 98.018 98.153 98.348 98.606 98.773 98.971 98.993 99.563 103.406 102.116 101.148 100.901 102.081 101.288 101.098 101.753 100.473 99.576 99.826 101.063 101.436 100.661 100.526 100.503 100.478 100.478 100.703 101.398 100.628 101.173 101.611 101.353 101.368 100.868 100.878 100.883 101.141 101.648 102.698 101.696 100.936 101.416 101.843 101.791 101.921 107.006 108.209 108.384 110.214 110.011 109.051 109.036 108.209 109.509 108.706 105.049 106.804 109.264 109.234 107.741 106.994 104.744 101.724 100.364 100.104 101.806 101.119 99.464 99.136 99.014 98.914 98.926 98.986 99.091 99.126 99.106 99.126 99.094 99.271 99.344 100.729 101.364 101.061 100.464 100.436 102.671 111.699 111.946 111.796 112.916 114.286 109.536 111.396 111.774 111.796 111.804 111.889 111.834 108.389 101.869 100.289 100.116 101.901 105.361 103.816 99.459 99.429 99.481 99.471 99.374 99.316 99.224 100.654 102.609 100.334 100.176 102.516 104.376 98.991 98.874 99.769 98.926 98.776 98.721 99.021 98.564 99.901 101.364 100.846 100.676 99.959 99.844 100.491 100.474 98.601 98.369 98.376 99.836 98.986 99.959 101.851 99.824 98.781 98.339 98.306 98.566 98.371 98.184 98.726 99.031 101.296 99.361 98.851 98.991 97.711 97.471 96.879 97.499 97.981 97.394 96.996 96.061 95.856 95.924 96.369
-9999 -9999 -9999 93.471 93.773 94.246 94.376 94.386 94.418 94.428 94.568 94.703 94.808 94.818 94.871 94.891 94.911 94.946 94.943 94.993 95.018 95.056 95.126 95.133 95.116 95.161 95.186 95.193 95.203 95.211 95.223 95.276 95.288 95.298 95.311 95.328 95.333 95.341 95.356 95.383 95.403 95.406 95.411 95.426 95.453 95.481 95.476 95.491 95.501 95.541 95.533 95.546 95.558 95.558 95.493 95.228 95.266 95.921 96.301 95.403 95.401 95.491 95.518 95.541 95.648 95.746 95.918 96.001 96.156 96.338 96.473 96.633 96.766 97.063 97.738 99.518 97.881 100.041 100.568 100.536 100.516 101.471 104.203 105.253 104.376 100.726 100.548 100.581 102.286 103.521 104.626 105.311 105.188 105.066 104.986 104.976 104.941 104.916 104.886 103.478 99.011 97.873 98.133 99.798 98.248 99.438 98.976 98.228 98.156 98.383 98.231 98.336 99.146 99.296 100.021 100.353 97.631 105.506 108.576 109.336 108.626 109.023 105.001 100.353 96.913 96.248 97.696 98.958 98.626 97.258 97.183 96.543 98.121 99.898 99.753 101.136 99.191 96.673 96.966 98.586 96.506 97.331 98.013 100.491 96.533 96.211 95.673 95.746 95.848 95.776 95.703 95.691 95.743 95.736 95.688 99.576 99.408 102.216 100.716 103.258 99.511 99.221 96.896 99.073 95.781 95.851 96.823 98.756 100.351 102.213 99.896 99.033 99.211 101.036 102.151 102.083 99.041 101.033 99.801 99.341 97.541 97.603 97.908 100.966 101.448 100.603 99.041 99.336 98.096 98.141 98.968 98.418 98.036 98.031 100.583 101.458 101.513 100.803 100.451 99.476 102.016 102.193 100.101 99.788 98.371 98.258 98.058 98.101 98.163 98.251 98.323 98.331 98.298 98.278 98.313 98.306 98.311 98.331 98.331 98.353 98.383 98.398 98.381 98.233 98.056 98.001 98.016 98.011 98.003 97.998 98.008 97.996 98.011 98.056 98.316 98.531 98.666 98.741 98.793 98.896 99.001 99.768 99.216 101.326 100.381 101.691 100.146 100.808 101.573 100.736 99.698 99.776 100.101 100.401 100.548 100.728 100.516 100.503 100.473 100.511 100.476 100.676 102.168 101.301 101.396 103.961 100.916 100.796 100.873 100.956 101.106 103.488 104.808 104.706 102.248 101.213 102.653 102.283 101.756 102.064 106.054 108.509 108.311 109.661 109.789 110.184 109.841 108.161 108.924 109.366 107.671 105.001 108.371 107.214 103.549 103.284 101.474 100.981 100.229 99.769 99.614 99.786 100.031 99.284 99.201 99.169 99.119 99.116 99.169 99.184 99.256 99.256 99.241 99.279 99.399 99.616 101.019 100.549 100.501 100.436 100.686 107.206 111.816 111.791 114.129 114.661 113.764 111.799 111.799 111.794 111.784 111.869 107.301 101.396 100.111 100.086 100.056 100.804 102.826 101.161 99.591 99.546 99.516 99.499 99.344 99.341 99.381 101.246 102.756 102.286 103.281 107.369 108.159 103.759 99.024 99.056 99.316 98.839 98.839 98.726 98.636 98.811 99.866 99.111 98.946 99.871 98.866 99.014 100.714 99.591 98.996 98.389 99.011 99.441 101.446 101.021 100.319 98.486 98.619 99.851 99.329 98.166 98.124 98.324 101.414 100.136 98.179 98.139 99.839 99.421 99.274 98.291 97.901 97.304 97.241 97.209 96.831 96.126 96.244 96.346
93.096 93.406 93.866 94.298 94.393 94.426 94.436 94.478 94.686 95.138 95.671 95.803 95.231 94.868 94.901 94.948 94.991 95.023 95.026 95.066 95.116 95.141 95.171 95.166 95.173 95.241 95.221 95.241 95.261 95.266 95.276 95.303 95.346 95.343 95.383 95.403 95.411 95.426 95.436 95.433 95.468 95.473 95.461 95.488 95.521 95.546 95.531 95.561 95.578 95.603 95.598 95.603 95.598 95.621 95.463 95.343 95.333 95.423 96.511 96.021 95.453 95.543 95.608 95.616 95.678 95.781 95.896 95.991 96.126 96.298 96.461 96.606 96.748 96.881 97.948 99.033 98.438 99.811 100.581 100.536 100.533 104.136 107.826 107.731 106.298 101.221 100.658 101.021 101.138 105.321 105.286 105.136 105.023 104.983 104.966 105.106 104.911 104.868 104.881 105.061 100.988 98.218 98.048 99.041 98.266 98.321 99.046 98.263 98.273 98.623 98.973 98.661 100.023 99.151 98.391 97.723 97.501 101.141 107.516 109.198 108.598 109.446 105.836 98.063 96.256 97.746 98.556 98.293 97.108 95.951 95.836 95.796 96.641 98.698 98.873 97.051 96.181 96.151 96.021 95.963 95.893 97.076 97.213 100.163 97.913 96.246 95.866 95.728 95.748 95.798 95.808 95.926 95.781 95.831 98.581 98.213 102.846 99.528 106.113 102.328 104.246 104.151 102.096 97.651 97.386 96.851 98.593 101.403 103.268 104.568 102.941 104.996 100.661 101.826 102.231 103.301 100.976 103.703 100.573 101.108 97.808 97.903 97.993 102.003 101.521 98.396 98.753 98.243 98.163 98.273 98.441 98.403 98.591 98.553 100.766 102.743 100.231 99.993 101.648 102.366 100.716 100.446 101.301 102.076 99.923 98.676 99.308 99.286 98.313 98.391 98.401 98.378 98.298 98.303 98.308 98.296 98.313 98.323 98.336 98.348 98.373 98.401 98.391 98.321 98.108 98.038 98.036 98.018 98.021 98.008 98.048 98.176 98.451 98.658 98.806 98.833 98.856 98.873 98.886 98.978 99.263 100.361 103.566 100.648 102.378 108.201 102.286 100.233 99.813 99.803 100.128 100.316 100.553 100.566 101.203 100.883 100.471 100.521 100.613 101.566 101.426 101.403 101.031 100.738 100.998 101.516 101.496 101.208 100.986 101.061 101.578 104.521 105.233 109.201 106.966 104.413 108.476 108.761 106.833 107.779 108.094 109.361 109.226 107.489 109.429 110.149 110.061 109.471 108.649 109.526 108.001 102.799 103.216 101.831 101.199 103.389 102.324 100.214 99.904 99.731 99.654 100.344 99.954 99.566 99.474 99.371 99.331 99.259 99.219 99.274 99.321 99.446 99.394 99.384 99.451 99.574 100.024 100.786 101.326 100.956 100.469 102.586 109.769 111.799 112.241 114.454 113.134 111.789 111.859 111.794 111.641 107.871 101.254 100.136 100.064 100.404 99.879 99.741 100.564 99.891 99.649 99.694 100.581 99.874 99.456 99.764 99.516 99.866 101.999 105.414 107.096 108.876 109.359 108.681 103.169 98.969 98.969 99.391 98.864 98.809 98.759 100.141 102.784 102.794 98.906 99.441 99.934 99.004 100.529 101.234 99.804 99.269 100.694 104.234 106.506 103.626 101.814 98.744 100.936 101.876 98.839 98.224 98.669 100.054 98.256 98.154 98.151 98.136 98.319 100.616 99.909 98.239 97.431 97.346 97.304 97.254 97.211 97.711 98.361 97.164
93.863 94.306 94.433 94.441 94.468 94.548 94.778 95.261 95.893 96.421 96.661 96.518 95.701 95.036 95.003 95.031 95.036 95.103 95.111 95.138 95.201 95.186 95.221 95.238 95.278 95.291 95.291 95.316 95.331 95.363 95.358 95.368 95.411 95.403 95.448 95.471 95.468 95.488 95.486 95.508 95.526 95.528 95.533 95.543 95.591 95.636 95.596 95.631 95.613 95.618 95.633 95.633 95.653 95.658 95.441 95.523 95.523 96.086 95.851 95.726 96.233 96.133 95.731 95.878 95.731 95.813 95.871 95.956 96.138 96.343 96.516 96.656 96.738 96.911 97.063 97.843 99.578 99.668 100.238 100.541 100.523 100.571 107.476 107.876 107.126 103.631 104.276 102.738 101.186 104.848 105.261 105.166 104.998 104.991 104.946 104.911 104.916 104.891 104.873 104.613 101.626 98.768 97.411 97.476 98.061 98.426 99.588 98.331 98.318 98.361 98.726 98.318 98.408 97.788 97.741 97.766 97.713 98.388 104.598 106.986 107.568 102.403 98.876 98.271 96.171 96.176 96.376 96.198 96.076 96.023 95.923 95.898 95.933 97.068 97.101 96.331 96.436 96.443 96.468 96.408 100.086 99.283 97.796 104.876 98.131 100.051 97.968 96.203 98.831 95.878 95.896 95.991 96.111 96.188 96.503 100.113 102.966 108.056 103.091 101.296 101.936 100.443 102.503 103.741 103.553 100.541 98.533 100.581 103.128 101.883 104.088 103.081 104.316 105.436 101.423 101.711 102.621 104.123 104.513 102.493 99.726 98.856 99.078 99.561 98.361 98.288 98.856 99.851 98.378 98.641 98.573 98.701 98.748 101.281 101.433 102.831 102.103 101.698 102.303 100.658 102.851 102.513 103.933 100.533 99.958 99.096 99.123 99.261 99.911 99.251 98.593 98.488 98.383 98.323 98.323 98.316 98.331 98.333 98.353 98.366 98.363 98.401 98.423 98.373 98.193 98.068 98.051 98.043 98.126 98.276 98.591 98.841 98.951 98.931 101.058 99.878 99.738 102.286 100.131 100.636 101.768 106.191 103.103 104.033 103.331 100.328 99.633 99.726 100.146 100.401 100.493 100.511 100.626 100.591 100.913 100.643 100.456 100.508 101.143 102.211 102.526 101.058 100.858 100.851 101.181 100.868 100.906 101.821 101.786 101.443 101.741 102.331 108.341 110.591 110.621 110.321 110.631 110.168 109.221 109.276 109.181 109.644 110.166 108.606 106.479 109.261 109.981 108.724 106.434 105.019 102.199 101.141 102.211 101.089 100.744 100.356 100.491 100.734 100.029 99.941 99.924 99.884 99.834 99.834 99.926 99.634 99.499 99.431 99.356 99.359 99.341 99.454 99.514 99.521 99.466 99.581 99.696 100.251 100.834 101.194 100.684 100.406 102.399 110.949 111.809 112.359 111.801 111.781 111.936 111.886 103.671 101.401 101.124 100.241 100.044 100.169 100.001 100.296 99.794 99.761 99.711 100.036 100.686 99.979 100.626 101.864 99.781 100.796 104.969 109.009 110.134 109.756 109.544 109.504 109.271 100.449 98.996 99.449 99.049 98.899 98.846 105.656 105.524 107.621 101.474 99.914 99.246 98.874 99.961 101.656 101.449 100.236 103.661 107.009 107.799 107.844 101.414 99.354 100.294 98.606 98.386 99.679 100.234 102.536 99.171 98.181 98.164 98.179 98.511 99.771 99.509 98.334 97.946 97.404 97.346 98.391 99.129 98.411 97.086 96.254
94.446 94.471 94.491 94.661 94.913 95.426 96.028 96.613 96.876 96.948 96.928 96.756 96.323 95.546 95.113 95.111 95.136 95.166 95.181 95.206 95.241 95.286 95.286 95.301 95.353 95.321 95.376 95.393 95.396 95.446 95.441 95.438 95.486 95.513 95.521 95.546 95.556 95.556 95.581 95.576 95.563 95.596 95.588 95.611 95.638 95.681 95.763 95.696 95.716 95.708 95.703 95.706 95.711 95.596 95.531 96.106 95.711 97.283 96.468 96.193 96.973 96.766 96.048 96.771 95.926 95.968 96.003 96.091 96.346 96.713 96.926 96.921 96.921 97.001 97.088 97.188 97.268 98.483 100.436 100.571 100.396 101.681 105.723 105.318 107.728 107.638 107.653 104.158 100.538 103.901 105.266 105.243 105.003 104.993 104.956 104.928 104.928 104.923 104.903 104.916 103.381 99.638 97.411 97.756 98.023 98.406 98.606 98.386 98.348 98.243 98.468 98.303 98.476 98.101 98.193 98.366 98.238 97.406 97.893 101.923 104.113 107.218 108.298 105.918 96.186 96.171 97.213 97.953 96.206 96.171 96.558 96.591 96.421 96.411 96.558 96.646 96.666 96.711 96.791 100.428 102.983 101.296 100.991 101.213 104.578 102.256 102.743 100.743 104.363 99.161 96.423 96.588 96.786 96.751 97.203 101.448 107.011 104.008 103.656 101.911 101.871 100.978 101.551 102.243 100.338 98.986 98.291 97.968 100.558 103.126 101.143 102.416 99.926 98.271 97.781 98.018 98.343 101.493 101.241 100.418 100.651 98.543 98.388 100.841 99.311 102.718 98.978 98.676 99.131 100.266 99.898 98.971 100.526 101.336 99.688 103.833 101.758 103.303 101.558 99.196 103.201 103.161 105.476 102.516 99.251 100.361 98.998 99.126 99.211 99.886 98.761 98.591 98.528 98.366 98.343 98.346 98.346 98.348 98.368 98.348 98.358 98.398 98.378 98.401 98.281 98.123 98.138 98.348 98.683 98.923 99.056 99.076 99.433 101.223 102.071 102.158 101.591 104.623 102.146 102.926 101.308 102.838 100.118 100.711 99.773 99.676 100.046 100.356 100.533 100.591 100.606 100.633 100.588 100.603 101.458 100.843 100.441 101.221 102.736 101.568 101.331 102.168 100.898 101.561 101.056 101.068 101.518 101.968 101.541 101.958 101.756 102.766 108.238 110.206 109.968 109.026 110.333 109.953 109.376 109.609 108.584 108.944 110.154 109.676 106.444 108.201 107.234 104.764 101.634 101.266 101.134 101.011 101.031 100.686 100.514 100.594 101.059 100.584 100.249 100.206 100.149 100.071 99.994 100.431 100.791 99.891 99.716 99.686 99.586 99.556 99.481 99.469 99.556 99.619 99.624 99.619 99.761 99.929 100.821 100.991 100.741 100.414 100.529 106.436 111.551 111.779 111.779 111.779 111.809 106.059 101.996 100.914 101.146 100.799 99.994 99.896 100.219 99.884 99.919 99.834 99.729 99.674 99.814 101.524 103.799 102.894 101.096 101.859 108.189 110.996 110.916 110.051 109.661 109.351 108.269 104.891 99.091 99.006 99.791 99.069 98.951 103.699 104.776 103.896 101.646 99.416 100.226 101.166 100.971 101.836 102.239 102.261 106.711 107.966 107.914 107.756 104.911 101.299 101.061 99.184 99.549 99.371 99.319 102.359 99.401 98.204 98.201 98.214 98.796 100.186 98.701 99.349 98.641 97.579 97.704 99.904 98.384 97.711 97.134 96.934
94.516 94.701 95.111 95.586 96.108 96.578 96.958 97.071 97.006 96.836 96.808 96.706 96.488 95.663 95.176 95.171 95.208 95.241 95.276 95.296 95.281 95.343 95.336 95.386 95.423 95.423 95.431 95.466 95.486 95.508 95.501 95.521 95.548 95.588 95.606 95.616 95.631 95.621 95.648 95.648 95.638 95.663 95.688 95.703 95.718 95.736 95.743 95.756 95.761 95.753 95.773 95.796 95.773 95.636 95.661 96.383 97.983 98.878 97.236 96.953 96.723 96.341 95.946 95.911 95.993 96.191 96.621 97.148 97.166 97.233 97.226 97.266 97.158 97.211 97.141 97.181 97.228 97.443 99.063 99.068 97.978 97.496 102.838 107.691 107.651 107.638 107.616 105.463 100.578 102.638 105.273 105.238 105.021 104.991 104.961 104.948 104.938 104.893 104.898 104.863 104.661 98.196 97.406 97.458 97.933 98.456 98.308 98.361 98.406 98.378 98.653 99.021 98.391 98.423 98.336 97.581 97.573 98.388 100.556 107.213 109.723 109.173 109.866 108.271 100.996 97.603 96.381 99.421 97.736 97.148 97.126 96.773 96.738 96.931 96.888 96.783 96.956 97.253 97.621 101.103 100.026 101.633 100.278 102.993 105.756 103.036 100.276 97.123 106.281 100.521 97.298 97.588 98.548 98.948 102.066 101.101 104.701 104.713 103.546 100.603 102.058 103.198 103.848 99.781 101.533 98.973 97.601 98.816 97.943 99.851 101.546 98.428 100.896 97.471 98.033 97.833 97.786 101.083 98.051 101.553 102.576 101.771 98.711 100.891 100.746 102.838 99.643 100.463 99.231 100.211 101.576 101.031 103.468 103.386 102.408 106.466 103.576 102.578 103.688 103.066 101.573 104.543 103.953 102.241 98.133 99.418 98.081 99.898 102.863 100.713 99.126 98.666 98.588 98.441 98.323 98.351 98.368 98.358 98.373 98.376 98.388 98.393 98.458 98.413 98.353 98.446 98.753 99.021 99.163 99.428 99.238 99.216 100.688 107.251 108.373 105.926 103.388 103.921 105.118 104.278 99.738 99.423 99.521 101.033 99.943 100.216 100.411 100.598 100.811 100.728 100.748 101.956 103.201 100.591 101.251 101.203 100.401 102.113 105.146 103.158 101.093 100.923 100.911 101.048 100.968 101.038 101.123 101.148 101.753 101.988 102.298 103.426 107.868 109.381 109.073 107.698 106.448 108.266 108.066 109.281 109.336 109.154 109.466 108.634 105.399 102.286 101.859 101.729 101.401 101.044 100.889 100.866 100.919 101.531 101.169 100.564 100.501 100.464 100.379 100.439 100.364 100.154 100.121 100.084 99.994 100.039 100.099 100.434 100.391 99.811 99.601 99.561 99.656 99.696 99.689 99.679 99.744 99.886 100.129 100.831 101.281 100.504 100.349 101.379 107.654 111.811 111.791 110.654 105.054 100.639 101.386 101.921 101.344 100.114 99.951 99.966 99.964 99.956 99.916 99.854 99.791 99.834 100.211 101.334 102.756 103.419 106.306 106.244 108.936 110.169 110.429 109.901 109.861 108.679 107.811 107.281 102.781 99.136 99.351 99.559 99.011 100.581 106.546 106.569 100.529 100.751 102.224 102.679 101.989 101.016 104.819 107.419 108.146 108.726 108.081 107.151 104.901 102.546 100.904 100.201 98.529 98.391 98.341 98.274 98.226 98.219 98.196 98.239 98.556 98.996 98.316 99.591 99.221 98.201 98.726 98.921 100.294 97.711 97.196 97.034
94.983 95.808 96.458 96.771 96.908 97.043 96.958 96.738 96.583 96.516 96.286 95.818 95.546 95.251 95.228 95.258 95.281 95.336 95.346 95.373 95.371 95.401 95.446 95.473 95.486 95.503 95.478 95.513 95.541 95.576 95.576 95.586 95.621 95.633 95.658 95.676 95.678 95.696 95.703 95.711 95.716 95.736 95.741 95.763 95.788 95.798 95.826 95.831 95.831 95.838 95.861 95.893 95.791 95.731 95.801 96.508 98.223 99.191 98.043 96.693 95.731 95.803 96.211 96.721 97.036 97.186 97.148 97.178 97.178 97.211 97.216 97.261 97.291 97.291 97.261 97.186 97.206 97.258 98.148 99.033 97.298 97.256 99.651 106.486 107.643 107.628 107.623 106.941 100.738 102.236 105.256 105.266 105.121 104.996 104.971 104.983 104.966 104.918 104.898 104.883 104.648 98.081 97.363 97.846 98.563 99.541 99.243 98.411 98.426 98.423 98.453 98.926 98.461 98.613 98.163 98.591 98.993 98.933 99.226 106.016 109.193 109.628 109.591 108.988 104.501 100.006 97.396 97.026 96.891 96.826 96.893 98.578 97.703 96.878 96.828 96.848 97.026 97.243 98.848 100.561 104.293 99.031 101.918 101.038 101.928 102.478 101.436 102.603 103.641 105.323 99.503 100.173 100.456 99.291 99.656 99.168 101.293 104.343 100.816 100.666 103.806 100.731 102.106 101.401 98.568 99.241 97.563 97.726 98.083 99.051 97.973 97.466 97.458 97.496 98.043 97.898 97.871 97.888 97.926 98.831 104.786 105.466 100.768 98.303 101.721 99.656 98.958 100.563 98.843 98.948 99.291 99.338 101.363 104.133 104.083 104.786 104.253 103.488 101.451 101.291 102.293 104.103 99.091 98.676 99.253 98.801 98.903 101.693 103.096 102.618 99.001 98.751 98.631 98.533 98.376 98.348 98.361 98.351 98.363 98.391 98.428 98.436 98.881 98.988 99.021 99.183 99.316 99.356 99.351 100.406 100.013 100.673 101.756 109.086 114.446 108.486 102.448 104.566 102.813 101.408 99.451 99.608 99.916 100.176 100.336 100.413 100.461 101.066 102.226 102.538 104.538 106.688 107.008 103.231 100.663 100.753 100.458 100.506 102.873 101.786 101.001 101.226 100.958 101.181 101.586 101.043 101.111 101.251 102.118 102.801 103.013 106.791 108.786 109.433 109.193 108.238 105.803 104.293 105.908 108.336 109.651 108.354 105.811 104.331 101.419 101.499 101.364 101.091 100.971 100.881 101.316 101.666 100.899 100.761 100.734 100.666 100.624 100.524 100.596 101.219 100.939 100.294 100.256 100.366 100.726 100.436 100.299 100.779 104.051 104.966 99.869 99.686 99.716 99.766 99.804 99.881 99.821 99.881 100.029 100.256 100.634 101.021 100.994 100.319 101.041 104.981 105.476 102.884 101.246 101.321 101.564 100.849 100.291 100.516 100.171 100.101 100.051 99.979 99.841 99.841 99.889 100.189 100.916 100.604 103.136 107.804 109.916 109.949 109.724 110.209 109.526 109.719 108.424 105.431 107.064 107.546 105.319 100.271 99.071 99.756 99.871 99.081 99.016 102.549 100.814 99.011 101.321 101.681 100.296 102.206 107.451 107.841 107.891 108.766 108.586 107.169 106.194 103.159 101.539 100.204 99.314 98.421 98.379 98.314 98.271 98.281 98.531 98.486 98.631 98.236 98.161 98.609 99.589 99.421 98.881 98.434 99.649 97.326 97.216 97.284
96.288 96.773 96.986 97.073 96.996 96.686 96.511 96.416 96.091 95.648 95.306 95.233 95.283 95.271 95.318 95.348 95.371 95.403 95.443 95.448 95.461 95.458 95.503 95.516 95.573 95.576 95.586 95.603 95.608 95.626 95.648 95.681 95.686 95.723 95.726 95.738 95.746 95.748 95.766 95.781 95.791 95.811 95.826 95.846 95.858 95.873 95.908 95.901 95.911 95.928 95.946 95.968 95.858 95.826 95.961 96.231 96.813 96.296 97.261 96.253 96.828 96.668 97.158 97.123 97.133 97.141 97.161 97.163 97.158 97.198 97.213 97.251 97.278 97.288 97.291 97.193 97.198 97.243 97.838 98.188 97.516 97.241 99.293 106.128 107.653 107.661 107.651 105.751 101.628 100.618 104.873 105.243 105.156 105.016 104.978 104.983 104.961 104.968 104.951 104.983 102.246 97.518 97.738 98.621 99.541 99.531 101.311 98.441 98.446 98.506 98.473 98.723 98.728 99.911 98.563 98.736 99.333 98.258 97.178 105.636 109.111 110.133 109.633 110.241 106.768 100.598 97.886 96.746 96.818 96.896 97.141 98.308 97.378 96.853 96.876 96.981 96.916 96.781 96.843 101.566 100.763 104.351 102.993 105.603 112.916 107.426 104.221 102.018 101.478 98.448 99.423 100.033 100.201 99.476 99.883 98.953 98.358 97.838 98.863 100.491 101.601 102.286 101.796 99.901 98.886 99.238 98.556 97.641 99.008 97.796 98.693 97.588 97.568 97.581 97.783 98.051 97.973 97.976 98.936 101.811 104.968 102.379 98.621 98.671 101.806 99.068 101.236 101.141 101.489 98.763 99.008 99.511 100.246 102.144 104.341 103.729 106.101 104.413 100.394 100.574 101.919 104.924 101.979 100.263 100.263 101.306 102.356 103.036 102.714 103.756 102.339 98.834 98.743 98.599 98.466 98.406 98.394 98.373 98.394 98.434 98.566 99.141 99.638 99.491 99.421 99.466 99.474 99.468 101.718 102.491 102.969 101.729 102.016 106.409 110.216 106.621 102.921 99.844 99.531 99.714 100.009 100.234 100.331 100.441 100.536 100.926 102.559 105.026 106.486 106.866 107.094 107.369 107.561 106.104 100.611 100.584 100.509 100.486 102.941 104.476 102.944 102.096 101.664 101.384 101.306 101.101 101.256 101.716 102.939 107.759 109.016 109.021 109.451 108.726 109.011 109.466 108.071 102.574 102.294 104.406 104.954 102.586 102.199 102.729 101.484 101.144 101.069 101.411 101.526 100.926 101.034 100.906 100.889 100.844 100.784 100.811 100.639 100.526 100.521 100.544 100.561 100.696 100.614 100.876 101.926 102.846 104.296 106.444 108.899 108.301 103.509 99.839 99.784 99.801 99.831 99.961 99.929 99.936 100.021 100.139 100.681 101.249 101.549 101.096 100.346 100.951 100.546 100.491 100.529 100.979 100.781 100.194 100.666 100.614 100.131 100.134 100.054 99.954 99.944 99.989 100.584 100.331 100.466 103.574 107.119 109.724 110.939 110.676 110.056 109.579 109.204 109.186 103.994 100.676 103.434 105.514 102.406 101.771 100.334 99.264 99.806 99.199 99.111 99.094 100.184 99.266 99.429 99.596 99.226 100.619 105.264 106.704 107.159 108.106 108.864 108.826 106.989 104.939 100.541 101.339 99.691 98.774 98.469 98.389 98.459 101.684 100.284 98.429 98.184 98.141 98.114 98.789 99.724 99.954 98.681 97.941 97.486 97.521 97.609 98.114
96.816 96.978 97.071 96.926 96.786 96.621 96.266 95.778 95.413 95.293 95.271 95.346 95.353 95.356 95.368 95.411 95.446 95.481 95.516 95.538 95.536 95.538 95.576 95.586 95.621 95.671 95.656 95.681 95.693 95.723 95.738 95.726 95.741 95.766 95.786 95.801 95.841 95.838 95.853 95.858 95.871 95.883 95.893 95.918 95.928 95.958 95.948 95.933 95.941 95.981 96.013 96.031 95.971 96.101 96.288 96.458 96.711 96.841 97.028 97.116 97.076 97.086 97.121 97.141 97.151 97.153 97.153 97.168 97.186 97.216 97.228 97.256 97.283 97.303 97.311 97.263 97.178 97.216 97.281 97.801 97.301 97.231 98.151 103.576 107.673 107.681 107.686 107.663 103.601 100.928 104.921 105.243 105.196 105.038 105.046 104.998 103.408 100.956 100.198 98.996 97.493 97.803 97.898 98.533 100.131 100.116 104.008 100.563 99.543 98.466 98.538 98.926 99.596 99.971 98.563 98.598 99.018 98.576 96.946 99.646 107.581 110.326 109.153 109.816 108.426 100.366 96.551 96.691 96.921 96.978 97.166 97.431 96.936 96.938 96.988 96.978 97.058 97.223 100.291 98.881 103.831 105.136 108.851 104.173 102.893 101.458 99.761 101.606 99.143 99.538 98.938 98.331 98.218 98.798 99.711 100.076 98.996 98.873 100.181 100.611 99.708 99.313 98.073 99.903 98.988 98.766 97.763 97.778 100.556 101.503 98.438 97.748 97.753 97.726 98.476 98.968 98.083 98.096 98.138 100.981 102.453 101.934 98.808 98.464 99.659 103.258 101.741 101.441 98.761 98.851 98.868 98.891 99.101 100.921 103.258 104.278 105.296 104.066 100.498 102.138 103.791 103.118 100.743 98.373 99.229 98.819 104.464 102.471 104.193 103.156 99.126 98.909 98.846 98.651 98.489 98.428 98.411 98.438 98.591 98.896 99.226 99.356 99.456 99.489 99.504 99.549 99.581 99.793 102.549 105.671 106.116 101.174 100.026 104.159 100.746 99.826 99.744 99.819 100.049 102.226 103.251 100.464 100.521 102.096 103.721 106.259 106.794 107.031 107.299 107.521 107.774 107.999 108.256 108.034 102.091 100.661 100.591 100.554 102.589 104.676 102.261 101.966 102.416 104.616 105.206 101.669 102.554 104.154 106.929 110.211 110.171 109.826 109.891 109.421 109.319 108.544 105.554 101.594 102.051 101.836 101.914 102.474 102.874 101.229 101.239 101.609 101.421 101.449 101.224 101.049 101.009 100.966 101.004 101.074 101.381 101.344 100.656 100.711 100.776 100.866 100.946 101.009 101.499 104.299 108.521 107.774 107.971 109.199 109.671 109.174 105.744 101.819 99.904 99.841 99.909 99.964 100.056 100.031 100.029 100.119 100.304 101.064 101.839 101.311 100.709 100.441 100.449 100.489 100.441 100.376 100.286 100.226 100.261 100.236 100.206 100.154 100.081 100.106 100.076 100.061 100.386 100.649 102.069 107.364 108.699 110.026 110.436 110.184 109.771 109.309 109.574 105.491 100.359 100.309 100.289 101.594 101.911 101.824 101.089 99.204 99.311 100.096 99.309 99.134 99.179 99.121 98.944 99.111 99.284 99.319 100.966 103.676 105.919 107.479 108.506 109.084 108.136 106.754 104.991 104.896 101.039 99.959 98.829 98.454 99.004 99.156 99.551 98.721 99.076 98.421 98.336 99.629 100.521 101.959 100.586 99.189 97.889 99.556 99.744 99.619
96.781 96.811 96.751 96.821 96.491 95.788 95.373 95.321 95.318 95.351 95.391 95.408 95.441 95.473 95.458 95.488 95.558 95.553 95.548 95.616 95.616 95.623 95.663 95.688 95.711 95.753 95.716 95.761 95.771 95.783 95.778 95.813 95.818 95.853 95.881 95.886 95.911 95.918 95.926 95.931 95.951 95.971 95.961 95.973 95.991 96.021 96.016 96.006 96.036 96.058 96.071 96.246 96.603 96.853 96.891 97.118 97.066 97.031 97.041 97.058 97.091 97.101 97.116 97.116 97.128 97.118 97.128 97.163 97.201 97.226 97.231 97.261 97.261 97.286 97.301 97.286 97.208 97.216 97.273 97.403 97.741 97.238 97.226 104.283 107.553 107.666 107.691 107.551 106.483 104.931 104.978 103.018 103.658 101.881 99.338 97.881 97.158 97.168 97.218 97.221 97.411 97.578 97.816 99.156 101.286 101.381 101.076 101.521 99.521 98.791 98.613 98.598 98.836 98.941 98.628 98.523 98.763 98.938 97.953 98.756 107.576 109.373 109.526 109.628 108.981 103.068 96.608 97.093 97.116 97.358 97.198 97.031 97.101 97.293 97.388 97.746 98.428 98.568 100.573 103.366 106.141 105.686 104.758 101.313 100.953 101.746 103.728 100.801 98.663 98.253 98.623 98.388 98.211 98.488 99.706 98.486 98.341 99.036 98.241 100.126 98.186 98.973 98.056 99.831 100.128 100.858 97.856 97.868 98.468 101.418 98.898 97.856 97.841 97.848 98.101 98.606 98.348 98.536 98.543 98.756 99.206 98.996 98.873 100.463 101.178 105.728 104.496 102.068 98.858 98.903 98.913 99.146 99.131 99.306 99.161 101.216 101.598 103.724 101.903 104.676 101.888 102.599 102.701 101.333 98.811 99.038 102.133 105.061 103.918 99.729 98.906 99.861 98.956 98.776 98.598 98.521 98.718 98.979 99.331 99.443 99.516 99.716 99.799 100.801 99.836 100.041 100.093 102.323 101.894 102.299 104.436 101.196 103.209 101.244 99.944 100.081 100.116 100.319 100.404 100.776 100.541 102.229 104.876 106.701 106.989 107.221 107.464 107.674 107.936 108.174 108.391 108.616 108.824 108.871 103.114 100.694 100.689 100.614 100.989 104.014 101.571 101.556 101.584 102.466 103.171 101.816 103.861 105.231 109.279 110.984 110.839 109.806 108.926 109.591 109.711 106.924 103.036 101.956 102.076 102.016 101.729 101.241 101.399 101.296 101.306 101.656 101.211 101.141 101.121 101.109 101.379 101.089 101.726 101.329 100.956 100.869 101.086 101.596 101.191 100.959 103.661 107.416 107.371 104.161 108.109 109.106 109.804 110.639 111.131 110.026 107.901 105.426 100.181 99.964 99.974 100.036 100.114 100.121 100.096 100.099 100.241 100.386 100.671 101.336 100.821 101.099 101.234 100.679 100.481 100.341 100.261 100.289 100.334 100.279 100.219 100.169 101.461 107.349 101.486 100.099 100.266 100.889 105.534 108.449 109.576 110.519 110.559 110.111 110.044 109.251 106.079 102.766 102.236 99.811 100.254 100.201 101.626 101.271 99.636 100.139 99.346 99.519 99.564 99.169 99.159 99.046 98.979 99.079 99.536 99.606 99.371 100.486 103.641 106.804 108.351 108.634 108.894 108.151 107.336 107.924 102.759 98.966 98.896 99.024 99.139 98.959 98.506 98.774 99.136 99.541 99.524 99.734 99.931 102.599 102.414 100.454 99.474 104.024 101.246 98.019
96.501 96.648 96.513 96.051 95.403 95.311 95.371 95.381 95.396 95.446 95.476 95.476 95.493 95.531 95.526 95.593 95.608 95.658 95.668 95.691 95.688 95.751 95.736 95.781 95.813 95.821 95.798 95.848 95.866 95.873 95.878 95.903 95.893 95.941 95.968 95.973 95.978 95.996 96.013 96.026 96.036 96.041 96.068 96.063 96.071 96.083 96.063 96.078 96.133 96.141 96.156 96.456 97.036 96.983 96.973 96.986 97.016 97.026 97.056 97.058 97.066 97.091 97.091 97.093 97.108 97.108 97.126 97.161 97.178 97.211 97.208 97.218 97.288 97.261 97.333 97.326 97.288 97.186 97.258 97.246 97.863 97.326 97.486 102.011 107.688 107.686 107.293 107.016 107.131 102.368 99.591 97.453 97.183 97.153 97.118 97.081 97.116 97.148 97.201 97.256 97.486 101.066 100.096 98.803 100.501 101.723 99.291 99.558 99.361 98.811 98.681 98.651 99.423 98.931 98.681 98.611 98.643 98.966 98.573 97.816 103.328 108.493 109.761 109.316 108.476 103.356 97.291 97.993 97.586 97.528 97.446 97.583 98.121 98.356 99.068 99.086 99.701 100.153 100.248 102.346 101.971 102.353 105.696 101.641 107.248 107.581 101.148 101.321 100.648 98.876 98.336 98.518 98.233 98.288 99.268 98.228 98.246 98.576 98.191 98.126 98.183 98.238 98.218 100.473 101.568 99.538 100.463 98.091 98.116 100.053 98.041 97.946 97.966 98.138 98.483 98.908 99.448 98.951 98.658 98.796 98.921 98.801 98.894 98.979 102.849 108.511 102.773 99.223 98.936 98.983 99.354 99.308 99.151 99.161 99.166 101.123 103.209 102.731 102.276 102.239 103.381 102.501 103.979 98.501 98.691 99.153 101.606 101.731 101.403 102.861 101.831 100.538 99.471 101.116 100.133 101.856 99.306 99.403 99.836 101.458 100.661 101.216 100.061 101.239 103.481 100.561 101.391 101.391 101.721 105.481 107.721 102.581 103.176 101.659 100.456 100.399 100.449 100.684 100.994 100.634 100.989 105.014 107.121 107.384 107.631 107.866 108.084 108.354 108.581 108.841 108.829 108.751 108.301 108.071 106.549 101.051 100.729 100.641 100.739 103.511 101.601 101.529 101.556 101.534 101.514 101.614 103.099 105.291 110.434 111.041 110.261 108.649 107.544 108.241 108.796 103.324 101.941 102.354 102.659 101.476 101.274 101.269 101.854 101.451 101.221 101.231 101.209 101.206 101.146 101.856 101.916 101.044 101.021 101.916 104.341 102.154 101.476 103.679 103.794 104.796 107.229 108.646 108.959 105.174 107.346 109.389 111.114 110.946 110.319 109.556 108.306 103.896 100.711 100.554 100.066 100.046 100.114 100.136 100.196 100.174 100.194 100.331 100.659 102.139 102.316 103.171 101.531 100.521 100.419 100.391 100.396 100.361 100.431 100.429 100.249 102.946 108.309 112.624 107.044 100.116 100.141 101.906 108.016 109.546 110.514 110.741 110.749 109.211 104.559 102.276 100.856 102.446 101.411 100.194 100.234 100.191 100.406 101.076 99.974 99.981 100.186 99.246 99.624 99.704 99.221 99.191 99.379 99.531 99.164 99.266 99.301 99.641 101.806 104.601 107.026 107.939 108.804 107.381 107.649 107.916 107.464 101.046 99.331 98.991 98.779 98.679 98.604 98.501 98.426 99.901 100.939 101.119 100.759 103.254 102.986 99.646 100.941 103.209 101.944 98.256
96.366 96.003 95.528 95.368 95.383 95.396 95.436 95.461 95.468 95.508 95.548 95.581 95.591 95.598 95.633 95.671 95.686 95.718 95.761 95.773 95.793 95.848 95.873 95.868 95.881 95.888 95.888 95.936 95.943 95.953 95.983 95.976 95.998 96.028 96.036 96.031 96.058 96.081 96.083 96.103 96.126 96.151 96.146 96.136 96.141 96.138 96.158 96.166 96.198 96.221 99.798 97.548 96.991 96.956 96.971 97.003 96.996 97.006 97.028 97.043 97.053 97.086 97.058 97.083 97.091 97.093 97.143 97.138 97.173 97.173 97.211 97.246 97.256 97.261 97.298 97.318 97.298 97.238 97.178 97.246 97.383 97.736 97.293 101.238 106.761 104.501 103.541 101.561 98.248 97.188 97.218 97.203 97.173 97.136 97.118 97.101 97.168 97.608 97.641 103.011 103.626 106.118 104.381 99.758 98.606 99.481 98.696 98.833 99.023 99.416 98.736 98.751 98.906 98.848 98.736 98.708 98.773 99.023 98.496 98.768 100.793 104.948 106.171 100.728 99.428 98.308 98.326 98.226 98.891 98.433 99.576 99.511 99.831 99.323 99.096 100.286 99.173 101.448 100.881 101.151 102.911 102.003 106.911 103.881 103.443 106.778 105.603 103.048 98.708 98.653 98.611 99.196 98.426 99.776 99.528 98.783 98.301 98.616 98.843 98.311 98.326 98.713 99.091 99.501 99.991 99.871 98.133 98.143 98.128 98.496 98.198 98.138 98.221 98.411 99.016 100.241 101.456 101.363 101.751 100.671 98.911 99.078 98.861 99.933 104.531 104.621 100.718 98.998 99.028 99.364 100.718 100.168 99.206 99.201 102.019 102.751 102.571 104.651 104.903 103.339 102.318 103.703 102.838 99.121 98.591 99.523 105.739 105.638 105.058 103.606 101.051 99.334 100.231 102.321 101.513 99.819 100.403 99.633 99.763 101.646 101.531 100.008 101.816 103.288 101.621 100.856 101.356 101.111 101.998 101.986 101.504 101.904 102.841 100.914 100.749 102.029 103.756 106.166 106.491 101.066 101.141 103.761 107.776 108.006 108.259 108.526 108.716 108.851 108.704 108.454 108.141 107.866 107.654 107.404 106.984 102.129 100.781 100.739 100.746 102.459 101.726 101.486 101.509 101.494 101.514 101.721 102.231 104.836 110.286 110.899 110.129 108.686 105.074 104.284 103.394 101.766 101.891 102.569 102.116 101.336 101.209 101.264 101.299 101.284 101.284 101.271 101.454 102.049 101.426 101.131 101.086 101.406 101.414 102.031 101.859 101.676 102.904 108.651 108.356 108.169 108.361 109.586 110.014 109.016 106.981 108.486 109.869 109.884 110.626 108.824 106.811 103.191 100.836 102.921 102.229 100.129 100.134 100.231 100.254 100.276 100.214 100.324 100.389 100.756 102.604 101.511 100.536 100.409 100.416 100.459 100.436 100.556 101.251 100.759 102.501 109.144 110.811 110.996 109.369 101.556 100.131 100.241 104.799 109.336 110.504 110.726 110.559 106.686 102.519 100.579 100.399 100.116 100.354 100.339 100.416 100.874 100.621 101.429 101.089 99.979 100.041 99.906 99.264 100.081 99.311 99.271 99.241 100.059 99.331 101.994 100.566 100.841 99.814 101.794 105.576 107.229 108.014 108.779 108.109 107.389 106.331 105.594 100.376 98.981 98.869 98.756 98.674 98.584 98.471 98.644 99.231 98.561 100.604 101.169 100.884 98.564 101.884 104.179 103.446 98.894
95.421 95.386 95.371 95.408 95.426 95.481 95.536 95.536 95.531 95.561 95.606 95.663 95.693 95.713 95.731 95.726 95.791 95.821 95.861 95.903 95.903 95.911 95.931 95.936 95.971 95.956 95.983 96.008 96.033 96.046 96.051 96.056 96.076 96.083 96.128 96.136 96.153 96.173 96.176 96.173 96.196 96.201 96.203 96.233 96.236 96.223 96.241 96.238 96.273 96.653 97.816 98.083 96.908 96.931 96.966 96.998 96.991 97.001 97.011 97.021 97.051 97.043 97.061 97.051 97.073 97.108 97.116 97.151 97.161 97.188 97.201 97.228 97.256 97.278 97.296 97.338 97.318 97.281 97.191 97.248 97.286 97.493 97.446 97.418 97.833 97.228 97.128 97.151 97.116 97.148 97.188 97.171 97.181 97.173 97.206 97.468 98.323 97.633 98.733 103.833 106.286 107.348 107.311 106.191 101.066 99.206 98.888 99.761 98.906 99.781 98.823 98.803 98.783 98.723 98.786 98.818 98.668 98.596 98.663 98.701 98.386 98.263 98.696 98.708 98.711 98.861 99.741 101.441 103.131 102.273 102.721 100.398 99.913 99.421 99.208 99.241 99.306 99.378 99.811 100.461 99.418 101.653 101.941 102.623 105.753 107.018 105.568 100.431 98.936 98.601 98.611 99.208 98.738 98.806 99.386 99.431 98.748 98.373 98.856 98.616 98.551 99.171 98.636 98.671 101.803 100.388 98.386 99.411 100.611 101.183 102.358 103.146 102.816 101.653 99.616 102.481 103.318 102.911 102.808 101.951 100.803 99.471 99.174 100.061 101.193 100.946 99.621 99.218 99.381 99.406 99.561 99.476 99.286 99.311 101.888 103.001 102.711 101.263 103.131 99.638 99.851 100.831 101.218 100.556 98.894 104.076 102.081 101.224 104.156 104.148 100.356 101.448 99.534 100.864 102.491 101.748 100.418 99.839 101.898 103.508 105.396 101.401 103.081 103.068 100.879 100.483 100.261 99.871 100.078 100.351 100.451 100.466 100.851 102.834 104.801 106.574 106.996 107.239 107.411 105.211 104.864 106.944 108.361 108.666 108.876 108.774 108.641 108.214 107.931 107.686 107.451 107.234 106.944 106.724 104.986 101.556 100.874 100.791 100.814 101.564 101.734 101.446 101.434 101.519 101.591 101.609 101.706 104.266 109.024 109.376 109.934 109.019 108.739 108.341 103.921 101.959 101.829 101.574 101.426 101.291 101.314 101.351 101.351 101.309 101.759 102.001 101.376 101.301 101.156 101.629 102.091 101.621 101.931 103.166 107.836 108.494 103.101 108.429 109.471 109.276 109.279 109.411 110.151 109.241 106.424 105.871 108.049 108.079 105.821 105.126 102.336 101.199 101.029 106.624 109.514 100.694 100.196 100.246 100.249 100.359 100.324 100.316 100.364 100.499 100.614 100.529 100.436 100.441 100.459 100.474 100.441 100.446 100.801 105.791 110.601 110.764 110.701 110.679 110.656 104.059 100.204 100.239 102.884 108.451 109.866 110.391 107.106 102.101 101.119 101.406 100.596 100.426 100.371 100.571 101.644 102.899 103.734 102.074 103.506 100.419 99.999 100.231 99.554 99.246 99.256 99.326 99.294 100.014 104.061 103.489 104.081 101.061 99.744 99.744 104.216 107.009 107.894 107.709 105.379 106.246 106.364 106.234 103.179 99.084 98.966 98.921 99.079 98.621 98.694 98.881 98.486 98.466 98.436 98.551 98.424 98.929 101.839 104.439 105.416 101.231
95.381 95.398 95.431 95.448 95.481 95.536 95.596 95.623 95.633 95.636 95.676 95.716 95.773 95.793 95.823 95.838 95.868 95.918 95.951 95.958 95.991 96.011 96.021 96.018 96.043 96.063 96.073 96.098 96.121 96.123 96.131 96.136 96.163 96.178 96.206 96.206 96.203 96.236 96.251 96.258 96.271 96.286 96.286 96.306 96.303 96.281 96.298 96.321 96.476 97.478 97.921 97.726 96.826 97.011 96.948 96.973 96.978 97.001 97.006 97.016 97.021 97.051 97.033 97.051 97.061 97.096 97.118 97.151 97.183 97.198 97.208 97.231 97.233 97.243 97.271 97.301 97.338 97.313 97.251 97.201 97.251 97.363 97.788 97.278 97.243 97.228 97.146 97.131 97.148 97.151 97.151 97.456 97.298 98.088 97.546 105.323 102.761 99.223 100.106 108.428 109.591 109.093 109.426 109.773 104.503 97.738 98.173 99.783 99.046 98.956 99.076 98.838 98.863 98.761 98.798 98.886 98.791 99.201 99.376 98.781 98.656 98.958 99.128 100.303 102.308 102.758 101.881 105.391 106.748 105.081 102.288 102.101 99.758 99.608 99.306 99.291 99.521 99.591 99.343 99.713 99.096 99.086 99.516 99.331 101.668 101.016 101.236 99.713 99.968 99.126 98.756 100.038 98.801 99.088 99.586 98.623 98.453 98.351 99.128 99.148 99.781 100.451 101.041 102.556 100.863 99.488 102.741 104.753 107.593 108.033 108.758 107.898 106.053 103.393 99.746 103.473 104.758 106.901 107.611 107.861 105.861 104.828 101.371 100.148 99.196 101.968 102.894 100.811 100.464 100.571 99.356 99.339 99.721 99.508 100.788 101.121 100.426 101.489 100.276 100.513 101.606 100.629 103.043 100.318 99.141 102.731 103.356 104.271 101.326 100.618 100.046 100.418 100.941 100.881 103.493 103.086 99.891 101.491 104.443 104.276 105.081 102.763 101.303 101.449 100.541 99.894 100.043 100.326 100.491 100.521 100.499 101.974 105.624 106.854 107.144 107.384 107.656 107.891 108.141 107.649 107.166 107.354 108.429 108.584 108.286 108.034 107.789 107.549 107.276 107.039 106.411 105.264 103.796 101.166 100.921 100.886 100.906 100.799 100.854 101.274 101.939 101.921 103.646 103.336 103.259 102.846 102.836 102.759 105.484 109.039 109.801 109.739 109.789 109.864 103.851 102.201 102.159 101.509 101.376 101.339 101.424 101.454 101.591 101.954 101.356 101.246 101.684 102.226 101.699 101.926 101.824 103.561 103.946 107.149 108.911 109.381 105.666 107.144 109.246 109.651 108.804 109.846 109.854 109.194 102.779 102.386 103.014 103.796 103.714 101.134 100.939 101.219 101.246 104.601 107.754 101.266 100.336 100.269 100.309 100.419 100.389 100.404 100.404 100.454 100.494 100.459 100.521 100.519 100.564 100.751 100.459 100.484 104.536 110.381 110.959 110.726 110.674 110.926 110.639 108.974 102.301 100.206 100.611 105.616 108.864 108.576 106.931 101.694 100.744 100.936 101.021 100.459 100.369 100.384 101.271 100.701 100.101 100.106 101.146 101.621 103.451 104.819 102.189 99.334 99.246 99.311 99.324 99.346 101.614 103.791 100.751 99.451 99.699 100.251 102.846 107.619 107.141 103.926 101.541 106.766 107.516 106.929 105.874 102.084 99.086 99.086 99.124 99.091 98.849 98.646 98.566 98.504 98.461 98.391 98.359 99.261 99.676 102.169 105.144 103.731
95.413 95.426 95.458 95.531 95.533 95.596 95.681 95.713 95.718 95.713 95.791 95.838 95.858 95.873 95.931 95.941 95.953 95.996 96.003 96.036 96.083 96.111 96.101 96.116 96.138 96.143 96.178 96.188 96.208 96.208 96.213 96.236 96.236 96.246 96.263 96.273 96.268 96.298 96.316 96.341 96.358 96.371 96.348 96.356 96.383 96.386 96.393 96.416 96.423 97.083 97.766 96.771 96.746 97.086 96.958 96.963 96.971 96.976 96.996 97.003 97.026 97.026 97.031 97.038 97.076 97.113 97.133 97.163 97.173 97.181 97.191 97.216 97.206 97.228 97.256 97.281 97.346 97.351 97.316 97.208 97.221 97.298 97.971 97.533 97.283 97.258 97.198 97.181 97.348 97.481 97.613 98.646 100.161 108.098 109.758 111.461 108.593 109.656 111.038 111.388 110.358 111.041 112.098 111.366 107.403 98.276 97.886 99.286 99.383 99.301 99.913 98.926 98.918 98.866 98.841 98.958 99.008 99.018 99.373 99.663 99.661 99.723 99.648 103.786 106.841 107.771 107.886 108.461 107.633 105.733 102.168 102.688 100.628 100.326 99.766 99.596 99.423 100.773 99.818 99.143 99.153 99.448 99.028 98.988 99.231 99.841 98.808 98.976 100.001 99.558 99.478 99.003 99.108 99.838 100.108 99.568 99.168 99.598 99.713 99.781 102.803 104.386 105.858 107.503 106.146 99.853 103.016 107.593 109.503 109.411 109.488 109.266 107.353 102.461 100.691 103.091 106.658 109.258 109.453 109.523 108.828 107.633 103.451 101.733 100.333 103.761 103.398 100.898 100.653 100.241 99.428 99.471 100.101 99.736 100.864 102.036 102.258 99.948 99.481 102.599 103.636 101.666 100.724 99.906 100.001 99.631 102.861 101.688 100.196 99.801 99.781 99.556 100.006 100.208 100.381 100.676 101.248 104.218 105.508 103.074 102.769 100.996 100.231 99.983 100.081 100.361 100.526 100.593 100.581 100.596 100.556 101.146 106.721 107.569 107.834 108.064 108.326 108.564 108.794 108.829 107.449 107.129 107.099 107.801 107.604 107.376 107.131 106.891 105.524 104.004 101.426 101.061 100.921 100.966 100.989 100.949 100.906 100.839 100.921 101.289 102.751 102.726 103.389 104.149 102.804 103.021 106.276 106.296 104.516 108.669 109.379 108.814 109.246 108.216 103.674 102.909 102.694 101.471 101.359 101.456 101.461 101.471 102.594 101.716 101.366 101.511 103.249 101.849 101.654 103.656 108.851 108.744 108.581 108.531 109.879 110.121 108.589 107.401 108.459 109.666 108.729 108.764 108.311 106.739 102.974 101.069 101.301 102.394 101.761 102.321 101.366 101.251 101.251 101.231 102.024 101.826 100.449 100.374 100.384 100.444 100.476 100.491 100.481 100.446 100.499 100.506 100.566 100.539 101.719 101.709 100.654 103.584 110.059 111.099 110.941 110.716 110.664 110.626 110.386 101.994 100.524 100.271 100.276 101.209 107.614 107.916 106.839 103.591 101.219 100.571 100.701 101.049 100.371 100.379 100.331 100.286 100.186 100.664 103.359 104.829 104.399 104.484 100.439 99.636 99.356 99.286 99.361 99.439 99.349 99.324 99.256 99.494 100.359 99.984 100.304 104.519 101.596 103.476 106.324 108.174 107.549 107.689 106.669 103.166 100.556 99.206 99.526 99.749 99.539 98.739 98.661 98.624 98.544 98.436 98.769 99.479 99.754 99.591 103.534 104.559
95.473 95.453 95.511 95.578 95.621 95.708 95.763 95.773 95.791 95.788 95.833 95.906 95.938 95.973 96.001 96.038 96.053 96.083 96.128 96.153 96.168 96.171 96.196 96.203 96.216 96.233 96.256 96.261 96.278 96.273 96.271 96.313 96.321 96.323 96.333 96.348 96.351 96.353 96.403 96.431 96.436 96.438 96.418 96.446 96.458 96.461 96.446 96.481 96.973 97.026 96.531 97.011 96.638 96.846 96.951 96.966 96.968 96.983 96.998 96.988 97.028 97.016 97.023 97.031 97.073 97.103 97.136 97.151 97.156 97.178 97.203 97.208 97.208 97.221 97.256 97.263 97.293 97.328 97.343 97.271 97.246 97.263 97.456 98.023 97.346 97.348 98.333 97.878 97.833 97.688 98.153 104.651 111.068 111.901 112.628 112.253 111.258 110.838 111.863 111.771 110.758 110.806 111.881 111.753 108.011 100.671 98.446 100.933 100.533 99.363 100.076 99.041 98.953 98.956 99.278 98.996 99.403 99.963 99.483 99.501 100.231 105.036 106.748 108.898 109.641 109.658 109.426 108.671 106.538 106.646 104.083 101.848 100.673 99.676 99.616 99.518 99.506 99.756 100.148 99.236 99.236 99.866 99.258 99.188 99.423 100.533 98.971 99.071 99.891 99.881 100.226 99.391 99.588 100.168 100.956 102.208 103.336 104.061 100.363 102.608 106.853 107.256 108.681 109.223 108.618 100.951 101.743 107.273 109.876 110.103 110.336 110.201 109.406 104.318 99.816 104.183 109.106 109.741 109.741 110.236 109.918 107.206 102.843 99.949 102.269 105.011 106.458 104.993 102.653 100.836 99.751 99.724 99.553 99.828 100.871 100.981 99.971 99.584 99.573 101.583 105.364 103.873 102.008 101.068 100.271 101.348 99.976 100.093 100.466 100.123 100.031 99.674 99.968 99.971 100.073 101.096 101.996 102.318 103.376 100.784 102.221 100.543 101.223 100.763 100.534 100.601 100.593 100.663 100.921 100.819 100.564 101.549 107.014 108.219 108.459 108.681 108.916 108.754 108.446 108.081 107.166 104.354 103.569 106.174 106.966 106.739 103.936 103.431 100.659 100.801 100.979 101.046 101.014 100.999 100.969 100.906 100.861 100.879 100.946 101.231 102.151 101.666 101.619 101.666 101.751 101.734 103.936 103.799 106.476 109.204 109.861 109.769 109.819 109.206 103.266 102.684 102.379 101.499 101.461 101.526 101.534 101.701 101.524 101.466 101.741 101.644 102.554 107.941 108.226 105.676 108.851 109.796 109.744 108.361 109.326 110.574 109.171 107.724 105.869 108.141 106.931 105.399 103.059 101.964 102.099 103.744 101.731 101.514 101.506 101.999 101.504 101.319 101.314 101.311 101.386 101.984 102.159 100.484 100.436 100.426 100.526 100.546 100.576 100.571 100.599 100.606 100.579 100.549 101.279 100.926 106.029 109.804 111.041 110.991 110.966 111.036 110.824 109.456 105.284 99.989 101.339 100.346 100.256 100.416 104.481 108.356 107.381 103.799 100.574 100.594 100.609 101.581 100.594 100.359 100.334 100.321 100.616 104.191 106.534 104.161 101.811 100.514 100.046 100.246 99.669 99.386 99.879 99.571 99.439 99.379 99.286 99.326 99.754 100.549 100.069 99.651 102.899 107.471 108.261 108.644 108.471 108.376 107.406 104.116 102.381 101.674 101.484 99.481 99.396 98.901 98.754 98.774 98.596 98.541 99.124 102.504 100.431 101.664 102.641 100.021
95.571 95.568 95.603 95.646 95.743 95.831 95.846 95.866 95.906 95.913 95.956 95.976 96.016 96.061 96.083 96.126 96.156 96.181 96.208 96.231 96.253 96.263 96.271 96.276 96.313 96.331 96.341 96.338 96.363 96.366 96.368 96.381 96.381 96.406 96.398 96.406 96.443 96.453 96.461 96.483 96.491 96.508 96.508 96.513 96.518 96.558 96.531 96.553 96.551 96.991 96.601 96.633 96.678 97.283 96.936 96.938 96.956 96.978 96.986 97.011 97.013 97.008 97.028 97.036 97.056 97.093 97.111 97.146 97.151 97.176 97.191 97.216 97.211 97.191 97.223 97.261 97.286 97.303 97.341 97.261 97.228 97.268 97.393 98.258 98.986 99.228 100.013 97.588 97.593 98.303 98.613 101.316 110.766 112.101 113.121 112.738 111.636 110.781 111.476 112.086 111.271 110.781 111.521 112.053 111.616 105.323 98.291 102.323 104.691 102.851 101.918 101.803 100.298 99.076 99.646 99.496 99.153 99.421 100.201 100.276 103.208 107.761 109.746 110.353 109.968 109.398 109.373 108.978 107.523 106.933 104.611 99.813 99.703 99.593 99.576 103.203 100.223 100.561 100.218 99.426 99.303 100.088 99.823 101.053 101.798 100.203 99.406 99.386 100.496 100.273 101.348 100.456 99.838 104.353 106.408 106.656 107.621 108.961 103.983 103.353 109.471 109.048 109.696 109.816 109.988 107.176 101.671 108.038 110.023 111.021 111.256 110.483 109.486 104.178 100.023 104.768 110.181 111.661 111.583 111.041 110.263 108.631 101.364 100.401 103.556 106.831 109.888 109.206 108.866 105.331 102.741 100.354 99.854 100.131 101.178 99.931 99.724 99.663 99.638 99.611 100.799 100.421 101.364 100.709 100.623 100.921 100.056 100.148 101.068 100.401 100.034 99.796 100.053 100.099 100.421 102.636 102.818 103.593 100.724 100.058 102.406 101.303 100.766 100.743 100.589 100.589 100.539 100.819 101.156 102.234 103.876 106.634 107.116 108.764 108.646 108.574 108.199 107.906 107.646 107.396 105.721 101.169 100.791 104.019 103.124 101.586 100.686 100.734 100.876 100.949 100.996 100.986 100.964 100.904 100.891 100.881 100.904 100.966 101.006 101.116 102.641 101.731 101.621 101.681 101.704 101.724 102.019 104.661 109.251 109.839 109.886 109.031 109.029 107.904 102.756 102.429 102.454 101.656 102.214 101.629 101.566 102.619 101.661 101.784 101.676 103.344 107.609 109.179 109.706 107.664 107.889 109.589 110.439 108.774 108.634 109.786 109.121 105.534 102.814 104.754 104.174 103.901 102.489 102.036 101.801 101.806 102.276 101.581 101.594 101.716 102.671 101.719 101.644 103.749 107.859 108.869 104.209 101.126 100.536 100.524 100.564 100.516 100.616 100.609 100.649 100.584 100.554 100.591 100.644 102.201 110.816 111.069 110.999 110.949 110.519 104.824 106.866 101.189 100.954 101.299 101.934 100.439 100.296 100.359 101.834 106.961 103.271 100.409 100.571 100.954 100.611 101.531 101.166 100.434 100.584 102.036 103.561 106.456 102.824 104.484 107.674 104.116 99.906 99.704 99.951 99.506 99.956 100.559 99.531 99.464 99.409 99.324 99.429 99.551 99.866 100.321 102.679 107.406 107.369 107.981 108.939 109.069 107.821 107.151 102.691 102.531 102.474 100.351 99.814 99.369 98.886 98.796 98.656 99.414 101.061 99.716 98.221 102.874 104.436 100.489
95.663 95.678 95.721 95.773 95.836 95.908 95.913 95.963 95.996 96.011 96.036 96.058 96.106 96.148 96.186 96.221 96.233 96.268 96.296 96.308 96.333 96.356 96.343 96.376 96.373 96.396 96.416 96.431 96.431 96.436 96.433 96.456 96.466 96.466 96.478 96.521 96.536 96.541 96.551 96.563 96.593 96.601 96.581 96.586 96.618 96.618 96.608 96.613 96.636 96.663 96.668 96.696 96.721 96.823 97.036 96.968 96.966 96.978 96.986 96.988 97.001 96.991 97.031 97.033 97.071 97.088 97.101 97.106 97.143 97.143 97.196 97.183 97.211 97.211 97.221 97.246 97.243 97.271 97.326 97.338 97.221 97.263 97.348 97.713 99.601 99.278 98.631 97.656 97.558 97.836 98.533 100.831 106.418 111.718 112.816 113.028 112.026 110.971 111.151 112.113 111.471 110.661 111.186 112.198 112.171 109.271 98.223 100.708 105.728 104.238 101.676 104.273 102.431 99.088 99.111 99.111 99.171 99.413 99.878 99.493 101.506 107.503 108.763 110.436 110.441 109.963 109.508 108.988 108.381 108.586 105.688 99.948 99.771 100.806 107.103 106.706 104.738 101.431 101.421 100.671 99.363 99.586 100.036 100.068 101.361 100.251 100.358 102.591 104.908 105.523 106.301 104.821 99.846 105.008 108.421 108.816 109.156 109.421 107.018 106.653 109.958 110.051 110.568 110.621 110.778 107.981 102.141 107.026 110.616 111.221 111.471 110.616 109.823 101.823 99.868 102.996 110.228 111.453 111.031 111.151 110.093 108.418 101.383 101.773 106.843 109.748 110.133 110.001 110.196 109.068 107.144 104.161 100.504 99.966 100.506 100.391 99.811 99.756 99.784 100.346 101.078 99.801 99.981 100.358 101.276 102.506 101.153 101.006 101.179 101.046 100.346 99.943 100.093 100.211 101.506 100.436 100.986 102.058 100.181 100.428 100.556 100.671 100.626 100.718 100.576 100.521 102.093 103.879 105.938 106.816 107.061 107.284 107.556 108.036 107.509 107.339 107.479 107.211 106.981 106.654 105.374 100.866 101.061 100.839 100.771 100.801 100.876 100.886 100.859 100.851 100.829 100.886 100.899 100.926 100.934 100.954 100.966 100.986 101.054 101.114 102.106 101.609 101.621 101.694 101.741 101.756 102.251 105.234 110.616 111.121 109.876 108.366 105.346 102.744 101.994 102.009 101.659 101.719 101.856 101.676 101.609 101.559 101.609 104.104 106.329 106.984 108.719 110.074 110.414 108.859 107.794 108.834 110.116 109.249 108.734 107.874 106.459 104.534 102.319 101.801 101.859 103.029 102.081 102.176 101.776 102.261 105.081 104.504 101.886 103.036 103.409 102.899 106.886 110.041 110.816 109.629 108.216 102.271 100.716 100.599 100.539 100.614 100.656 100.666 100.661 100.621 100.596 100.656 100.729 103.399 110.739 111.044 110.969 111.231 110.444 109.294 102.691 100.701 101.524 102.416 103.184 100.644 100.379 100.316 100.529 103.346 101.996 100.839 100.609 102.164 101.609 100.694 101.129 101.531 100.729 102.574 103.811 101.961 105.704 108.184 108.311 105.891 101.409 99.956 100.721 102.264 100.526 99.744 99.546 99.509 99.511 99.439 99.376 99.489 100.101 100.529 99.941 101.939 104.824 107.271 108.249 109.236 109.406 107.841 106.101 103.781 103.371 101.994 99.466 99.446 99.206 98.881 98.809 99.379 98.496 98.309 98.246 101.461 105.306 105.721
95.736 95.786 95.848 95.911 95.951 95.996 96.021 96.046 96.083 96.116 96.136 96.151 96.201 96.231 96.286 96.306 96.318 96.353 96.388 96.406 96.413 96.421 96.433 96.441 96.463 96.483 96.498 96.493 96.476 96.481 96.486 96.528 96.536 96.543 96.553 96.593 96.601 96.628 96.653 96.676 96.656 96.651 96.653 96.668 96.683 96.676 96.678 96.673 96.738 96.761 96.793 96.768 96.793 96.826 96.971 96.946 96.956 96.976 96.983 96.986 97.008 97.021 97.026 97.036 97.046 97.066 97.086 97.093 97.126 97.163 97.166 97.163 97.193 97.191 97.223 97.238 97.261 97.271 97.338 97.343 97.241 97.261 97.346 97.631 97.596 97.951 97.868 97.706 97.678 97.696 98.173 98.136 103.931 110.746 112.473 113.208 112.391 111.261 110.871 111.831 111.838 110.798 111.001 111.853 111.851 111.156 103.458 102.258 105.663 103.643 103.128 103.848 101.986 99.176 99.168 99.171 99.243 99.646 100.113 99.701 100.471 106.918 109.396 110.136 110.303 109.816 109.406 108.446 106.321 107.066 103.043 100.473 101.106 100.133 99.958 102.448 100.796 100.496 100.251 100.188 100.533 101.013 102.688 104.873 105.953 99.983 102.438 107.368 107.321 107.983 108.353 108.111 101.491 107.648 109.628 109.828 110.073 110.206 110.206 105.801 110.301 111.066 111.161 111.413 111.526 108.573 104.956 108.743 110.166 110.693 111.511 110.753 110.631 109.748 100.883 108.143 110.808 110.946 111.711 110.953 110.203 107.784 102.111 103.266 109.474 110.416 110.911 111.061 110.644 110.213 106.153 104.101 100.371 101.953 103.566 103.324 101.416 100.073 100.534 101.266 100.073 99.861 99.821 99.941 100.483 102.776 102.888 101.184 101.306 101.159 100.831 100.056 100.071 100.251 100.161 100.148 100.266 101.188 100.568 100.596 100.604 100.596 100.604 100.571 100.528 104.839 106.746 106.979 107.236 107.456 107.689 107.934 108.194 108.069 106.831 106.559 106.419 106.229 105.614 104.134 101.261 100.756 100.756 100.774 100.774 100.791 100.794 100.761 100.826 100.804 100.824 100.869 100.926 100.986 101.004 101.051 101.061 101.091 101.149 101.204 102.406 101.749 101.664 101.729 101.771 102.144 102.606 106.169 110.989 110.441 107.754 105.254 106.134 108.466 103.694 101.954 101.716 101.849 101.701 101.721 101.724 101.791 102.251 107.809 109.606 109.501 108.736 109.521 110.816 109.571 108.761 106.414 108.561 107.301 106.651 104.109 103.206 102.551 102.016 101.921 101.964 101.964 102.059 102.131 101.826 105.289 110.084 111.014 105.584 103.486 102.494 102.734 106.054 109.836 110.584 110.381 109.301 105.396 102.491 100.684 100.641 100.631 100.684 100.681 100.644 100.656 100.684 100.766 100.794 106.746 111.091 110.996 110.979 110.386 110.736 106.694 101.011 101.146 102.204 102.891 102.976 101.864 100.494 100.346 100.436 100.904 101.121 100.726 100.669 102.786 104.219 101.531 100.644 101.134 100.801 103.926 106.139 107.501 108.571 108.786 107.784 106.046 102.934 100.776 101.274 102.894 101.176 99.579 99.459 99.504 99.564 99.541 99.466 99.461 99.834 100.754 99.764 99.919 102.009 105.881 107.666 108.941 109.206 108.376 107.536 107.461 105.834 102.736 101.429 99.704 99.731 100.009 99.289 98.886 98.589 98.349 98.274 98.211 99.926 104.929
95.856 95.896 95.948 96.016 96.063 96.096 96.126 96.151 96.183 96.226 96.256 96.273 96.291 96.343 96.356 96.373 96.416 96.431 96.466 96.491 96.503 96.506 96.506 96.533 96.536 96.548 96.561 96.528 96.518 96.546 96.561 96.568 96.578 96.623 96.633 96.663 96.681 96.711 96.713 96.708 96.728 96.716 96.731 96.741 96.746 96.766 96.771 96.771 96.796 96.838 96.873 96.856 96.881 97.678 97.051 96.926 96.958 96.958 96.988 96.981 97.001 97.001 96.998 97.031 97.058 97.071 97.078 97.098 97.113 97.136 97.186 97.168 97.193 97.203 97.226 97.253 97.271 97.271 97.318 97.371 97.213 97.231 97.321 97.556 97.568 97.613 97.676 97.706 97.818 98.108 98.056 98.038 100.663 109.988 112.091 113.048 112.756 111.651 110.816 111.478 112.093 111.171 110.546 111.516 112.086 111.061 106.161 102.336 103.593 101.338 104.131 104.456 99.913 99.341 99.218 100.008 100.123 100.661 100.153 100.328 100.566 103.863 108.583 107.448 106.571 106.513 104.541 101.491 100.856 106.206 106.213 101.971 100.006 99.751 99.756 99.748 99.753 99.883 100.286 100.488 105.038 106.588 106.963 107.916 109.246 102.241 102.878 108.541 109.168 109.478 109.593 109.788 108.521 109.356 110.456 110.586 110.861 110.986 111.061 109.428 110.458 109.943 111.801 112.151 112.096 111.401 108.496 109.403 111.218 111.298 111.556 111.338 111.366 107.476 100.518 110.421 111.623 111.546 111.843 111.349 111.089 109.519 100.918 107.666 110.221 110.833 111.663 111.568 110.993 109.489 104.696 102.036 100.803 103.681 104.926 102.873 101.071 100.793 100.931 100.373 100.019 99.968 99.933 100.206 101.681 100.741 100.559 101.061 101.356 101.354 101.248 100.678 100.181 100.938 100.574 100.561 101.388 101.666 102.043 100.561 100.866 102.464 101.778 101.181 101.934 106.616 107.376 107.621 107.876 108.131 108.354 108.571 108.826 107.489 105.299 104.719 104.456 103.984 102.891 101.671 101.029 100.804 100.714 100.679 100.696 100.699 100.734 100.726 100.749 100.786 100.806 101.071 101.166 101.174 101.186 101.241 101.301 101.226 101.229 101.514 105.101 102.169 102.081 101.909 101.974 102.854 103.591 106.674 108.586 108.784 109.221 109.626 110.076 109.984 105.139 102.029 101.831 102.096 102.161 101.756 101.734 101.701 102.056 107.116 109.566 110.561 109.229 108.901 109.974 109.341 105.021 102.804 105.436 104.849 104.839 103.981 103.059 103.581 102.181 102.339 102.001 104.336 104.661 105.041 106.101 105.896 108.851 110.979 104.226 102.476 102.561 103.641 105.109 109.146 109.956 110.901 109.796 107.926 103.424 101.501 100.696 100.641 100.691 100.761 100.741 100.696 100.721 100.791 101.301 109.504 111.069 111.029 111.164 107.064 109.674 102.296 100.859 101.229 101.656 102.719 102.894 102.994 100.859 101.411 100.539 100.496 100.841 100.841 100.831 101.656 102.009 100.701 100.731 101.326 101.536 106.184 107.026 108.034 108.994 109.404 108.514 107.506 105.521 101.006 100.419 100.339 100.476 99.644 99.536 99.519 99.589 99.591 99.569 99.789 99.599 99.886 100.039 99.826 99.679 103.299 106.544 107.619 108.696 109.231 108.334 107.819 107.639 104.506 101.999 100.989 101.604 100.094 99.164 99.046 99.329 98.396 98.341 98.349 98.769 103.051
95.943 96.023 96.068 96.118 96.151 96.186 96.216 96.243 96.276 96.333 96.366 96.368 96.366 96.416 96.471 96.486 96.503 96.538 96.568 96.566 96.573 96.571 96.593 96.601 96.588 96.588 96.591 96.586 96.608 96.601 96.643 96.638 96.641 96.693 96.713 96.738 96.756 96.766 96.763 96.786 96.783 96.788 96.818 96.823 96.841 96.843 96.861 96.871 96.886 96.898 96.898 96.926 97.863 97.173 98.551 97.026 96.951 96.953 96.963 96.976 97.003 97.008 97.043 97.038 97.046 97.056 97.078 97.103 97.126 97.151 97.158 97.163 97.206 97.221 97.243 97.266 97.361 96.968 97.186 97.346 97.291 97.276 97.356 97.466 97.543 97.698 97.706 97.818 97.966 98.196 97.968 98.056 97.956 108.706 111.708 112.781 113.046 112.051 110.973 111.096 112.091 111.568 110.231 111.076 112.091 111.298 110.201 99.823 106.151 101.968 103.673 102.153 104.546 99.326 99.338 99.661 102.518 102.653 100.448 100.001 99.888 99.963 100.473 99.833 100.566 105.208 105.596 106.198 109.051 108.541 107.563 104.793 100.458 99.868 99.938 100.568 100.473 100.523 101.541 102.873 106.493 108.261 108.778 109.143 109.421 106.661 107.943 109.896 110.138 110.278 110.426 110.646 108.001 107.326 111.323 110.391 111.576 111.743 110.771 109.008 108.338 111.623 111.873 111.768 111.608 111.368 107.426 108.651 111.066 111.086 110.903 110.873 111.088 109.673 103.401 110.903 111.278 111.276 111.471 111.576 111.511 104.583 101.993 110.841 110.964 110.876 111.856 111.241 110.724 109.081 102.291 101.174 102.733 106.403 109.793 106.718 103.201 103.131 102.343 100.989 100.166 100.083 100.016 100.104 100.716 101.203 100.046 100.776 102.136 101.909 101.138 100.871 100.269 100.806 101.034 101.729 101.254 100.986 101.216 103.078 105.821 106.806 104.896 101.508 103.526 106.956 108.028 108.273 108.521 108.709 108.616 108.291 108.011 104.849 104.309 104.074 102.499 101.536 100.804 100.811 100.744 100.671 100.656 100.671 100.681 100.709 100.759 100.749 100.774 100.809 100.846 101.741 101.596 101.211 101.264 101.321 101.379 101.394 101.289 101.531 105.279 103.259 102.024 101.909 101.871 101.896 102.309 106.176 108.839 109.261 109.526 110.416 110.424 110.026 106.649 102.154 101.914 101.749 101.976 101.819 101.804 101.884 101.829 106.296 108.899 110.454 109.849 109.444 108.199 106.261 104.044 102.031 102.546 102.696 102.186 103.201 102.656 102.116 102.321 102.294 103.774 104.339 106.761 107.111 105.606 105.886 104.309 104.051 102.859 102.241 102.216 102.001 104.071 108.141 109.464 110.641 110.269 109.296 104.371 101.376 100.846 100.736 100.704 100.781 100.749 100.724 100.689 100.806 101.329 108.954 111.106 111.069 111.429 111.066 107.746 100.914 101.941 101.594 100.981 102.386 102.804 102.939 101.656 100.769 100.549 100.491 100.799 100.876 101.106 102.771 103.189 101.644 101.084 101.069 100.421 103.139 106.416 107.369 108.291 109.221 109.206 108.231 107.194 103.799 100.649 101.049 100.491 99.676 99.606 99.531 99.591 99.641 99.631 99.786 99.919 99.621 100.364 100.054 100.474 101.281 103.751 106.816 108.051 109.041 109.044 108.039 107.594 106.096 104.246 102.444 101.819 99.706 99.091 99.254 99.066 98.716 98.449 99.034 99.421 98.991
96.056 96.113 96.158 96.198 96.256 96.293 96.323 96.363 96.401 96.421 96.426 96.473 96.496 96.498 96.558 96.571 96.603 96.618 96.653 96.651 96.656 96.668 96.668 96.658 96.656 96.653 96.626 96.661 96.688 96.693 96.711 96.708 96.736 96.771 96.776 96.786 96.803 96.836 96.856 96.881 96.858 96.863 96.883 96.898 96.921 96.903 96.928 96.936 96.956 96.943 96.981 96.988 99.258 97.838 97.621 97.016 96.911 96.931 96.968 97.001 97.001 97.021 97.026 97.036 97.046 97.061 97.101 97.098 97.121 97.141 97.158 97.178 97.188 97.128 97.123 96.706 96.471 96.396 97.013 97.366 97.316 97.308 97.346 97.461 97.591 98.043 97.808 98.903 102.003 103.621 100.876 97.998 97.978 102.583 111.386 112.386 113.241 112.408 111.341 110.828 110.383 106.468 100.801 108.058 107.868 104.066 100.538 102.041 104.728 106.448 104.878 106.798 102.006 99.401 99.388 99.473 100.293 100.631 99.523 99.631 99.821 100.083 102.528 104.848 108.316 109.828 110.003 109.673 109.251 108.483 107.088 106.218 101.148 100.183 100.116 100.086 99.973 99.946 101.321 103.953 106.383 109.661 109.921 110.126 110.248 110.091 107.343 110.273 110.983 111.223 111.356 111.511 110.128 107.933 110.863 111.806 112.011 111.803 111.591 110.453 108.918 111.053 111.243 111.111 110.876 111.063 109.126 108.326 109.218 109.793 107.901 107.908 108.346 105.943 102.386 105.398 108.983 108.766 109.661 111.163 110.489 103.718 106.796 111.541 111.731 111.743 111.756 111.133 110.386 103.256 101.021 103.931 108.063 110.011 110.336 108.394 108.411 103.498 102.648 101.966 100.599 100.553 101.243 102.489 101.466 101.476 100.073 100.998 101.656 101.756 101.581 104.006 103.013 102.371 102.051 100.493 103.133 104.576 106.741 106.956 107.218 107.433 107.449 106.913 106.946 107.318 108.614 108.671 108.504 108.089 107.821 107.594 107.336 104.899 102.529 101.486 100.706 100.709 100.689 100.714 100.704 100.716 100.711 100.734 100.726 100.786 100.776 100.784 100.796 100.821 100.829 101.266 101.416 101.169 101.241 101.294 101.396 101.431 101.416 101.376 102.589 102.504 102.031 101.836 101.816 101.856 101.999 103.429 104.909 106.529 108.794 109.394 109.321 110.026 107.589 102.259 101.996 101.819 102.446 101.889 101.889 102.466 101.961 104.844 107.671 109.491 109.034 108.349 103.511 102.094 102.396 101.986 102.209 102.354 102.799 103.674 102.486 102.186 102.716 104.126 111.539 109.344 108.231 107.404 109.051 109.084 107.354 103.439 102.661 102.304 102.279 102.326 102.856 106.416 108.924 110.271 110.761 109.041 104.179 101.666 101.629 100.819 100.776 100.789 100.744 100.791 100.764 100.759 101.154 107.874 111.109 111.009 110.976 111.016 108.491 101.529 102.421 101.811 101.144 101.446 102.724 102.871 102.656 100.691 100.494 100.451 100.579 101.074 101.264 103.326 103.536 102.209 101.249 100.689 101.209 101.129 104.371 106.756 107.619 108.581 109.426 109.354 108.146 106.714 103.194 101.214 99.819 99.741 100.509 99.909 99.944 99.824 99.671 99.671 99.634 101.904 99.824 100.869 100.979 100.499 102.146 104.994 107.379 108.089 108.399 107.374 106.456 106.291 105.576 102.786 99.906 99.259 99.141 99.074 99.039 99.309 99.074 98.641 98.481 98.306
96.206 96.198 96.266 96.291 96.326 96.371 96.426 96.466 96.476 96.503 96.531 96.568 96.596 96.596 96.661 96.658 96.701 96.713 96.711 96.738 96.721 96.726 96.746 96.733 96.711 96.686 96.698 96.728 96.751 96.771 96.788 96.778 96.801 96.816 96.856 96.878 96.888 96.896 96.923 96.916 96.931 96.938 96.956 96.958 96.971 96.983 96.978 97.013 97.016 97.018 97.046 97.081 97.091 97.048 96.966 97.376 96.956 96.928 96.966 96.973 96.998 97.003 97.036 97.031 97.056 97.076 97.098 97.118 97.138 97.178 97.236 96.851 96.753 96.328 96.336 96.376 96.361 96.351 96.931 97.331 97.338 97.293 97.391 97.456 97.611 97.831 98.833 103.241 105.176 105.693 104.313 99.006 100.163 102.826 109.923 112.028 113.028 112.821 111.716 107.523 102.773 98.898 98.451 99.773 98.676 98.821 98.891 101.771 103.423 102.138 106.098 99.438 99.346 99.421 99.466 99.508 99.441 99.401 99.528 99.866 100.141 101.393 107.011 109.758 110.316 110.726 109.356 110.046 109.646 109.071 107.416 106.851 102.133 100.121 100.093 100.146 100.001 100.888 104.221 107.243 109.336 110.498 110.733 110.931 111.051 111.016 107.703 109.713 111.708 111.936 111.243 112.018 111.046 106.991 110.411 111.423 111.291 111.228 111.133 110.833 105.136 110.523 110.553 108.433 107.653 107.646 105.248 101.586 103.003 103.596 103.298 102.508 102.086 101.466 101.086 102.113 102.113 103.523 104.028 105.251 105.784 101.146 108.181 111.341 111.373 111.828 111.871 111.684 110.898 104.873 102.534 107.959 110.116 110.921 110.756 110.758 110.366 107.563 104.401 101.418 101.046 101.181 102.476 100.521 100.504 100.151 100.118 100.971 102.229 103.471 100.758 103.326 107.641 105.409 102.214 100.666 106.441 107.126 107.364 107.574 107.883 108.086 108.318 107.903 107.424 107.323 107.938 107.909 107.656 107.414 107.169 106.926 106.231 102.604 100.599 100.621 100.679 100.709 100.706 100.724 100.749 100.746 100.754 100.781 101.006 100.881 100.786 100.796 100.846 101.031 101.166 100.949 101.024 101.151 101.259 101.414 101.506 101.501 101.516 101.476 102.859 102.866 101.911 101.869 101.799 102.161 102.721 103.134 103.114 104.886 108.886 110.439 111.259 110.604 109.591 104.091 102.341 101.841 102.446 101.991 101.941 102.129 101.959 102.444 103.121 106.849 105.771 103.919 102.444 102.054 102.081 102.214 102.439 102.511 102.441 103.834 108.934 104.946 102.176 104.481 110.379 108.291 107.779 107.524 106.651 106.414 103.059 103.124 102.661 102.941 103.551 102.574 102.021 103.419 107.541 110.111 110.966 110.399 108.906 104.761 101.406 101.049 100.854 100.761 100.809 100.851 100.819 100.774 100.886 105.244 111.206 111.039 110.969 110.959 109.749 103.416 101.824 101.461 101.454 101.446 102.351 101.641 100.789 100.529 100.561 100.474 100.564 100.699 100.739 102.066 102.159 100.961 100.981 100.939 100.844 100.594 100.624 101.264 105.416 107.884 109.309 109.519 108.724 107.706 106.294 105.296 100.999 100.431 102.001 100.159 99.704 99.699 99.679 99.724 99.704 100.089 99.716 99.814 101.134 100.434 101.046 105.749 108.011 107.899 105.191 103.211 106.519 107.356 106.701 104.334 100.086 99.316 99.259 99.114 99.249 99.341 98.781 98.554 98.426 98.324
96.281 96.316 96.361 96.398 96.436 96.458 96.518 96.546 96.563 96.596 96.613 96.651 96.673 96.698 96.743 96.746 96.768 96.806 96.803 96.796 96.793 96.801 96.828 96.831 96.791 96.776 96.773 96.801 96.808 96.841 96.866 96.866 96.886 96.903 96.928 96.936 96.943 96.956 96.986 97.003 97.013 97.036 97.021 97.028 97.043 97.056 97.043 97.051 97.098 97.106 97.121 97.136 97.153 97.111 96.973 97.106 96.986 96.943 96.958 96.988 96.991 97.018 97.033 97.048 97.081 97.076 97.133 97.128 96.798 96.666 96.351 96.401 96.383 96.391 96.386 96.393 97.266 96.768 96.716 98.381 97.373 97.356 97.426 97.453 97.838 98.083 101.261 102.383 104.946 105.908 105.328 102.628 103.016 104.163 107.708 111.673 112.661 112.408 111.831 110.578 106.561 98.856 98.536 98.586 98.746 98.836 98.936 98.996 101.766 102.748 103.473 102.008 99.946 100.611 99.531 99.583 99.558 99.498 99.588 99.986 100.328 100.413 103.983 106.816 109.823 110.923 110.776 110.221 109.756 109.083 108.598 108.553 103.048 100.133 100.126 100.746 101.121 102.258 102.736 107.261 107.426 111.243 111.521 111.776 111.818 111.546 108.561 108.983 111.543 111.733 111.678 111.383 111.061 109.938 109.503 110.978 110.516 109.896 109.891 108.626 103.581 105.343 104.978 103.606 103.168 102.116 101.653 101.343 102.571 103.048 105.958 103.161 101.773 101.673 101.488 101.386 101.238 101.223 101.481 101.924 101.476 101.401 104.459 107.309 109.076 110.526 111.636 111.631 107.836 102.214 107.203 110.608 110.901 111.498 111.513 111.301 110.709 109.111 106.114 103.836 101.926 100.836 100.653 100.351 100.281 100.231 100.209 100.448 101.799 101.659 102.966 104.714 106.159 105.531 102.373 100.466 104.703 107.773 108.028 108.254 108.488 108.588 108.576 108.151 107.051 106.711 106.558 107.243 106.991 106.754 105.746 102.829 101.091 100.614 100.601 100.636 100.681 100.704 100.691 100.779 100.779 100.759 100.766 100.789 100.956 101.371 101.524 101.424 102.081 101.241 100.996 100.956 101.104 101.264 101.441 101.539 101.591 101.591 101.586 101.511 103.116 103.754 103.589 102.269 103.079 103.161 102.849 102.344 102.126 103.934 107.941 110.559 111.414 111.141 110.359 105.214 102.259 101.914 102.299 102.574 101.979 102.194 102.624 102.021 102.806 102.104 102.009 102.089 102.319 102.294 102.229 102.239 102.269 102.251 102.234 103.919 110.956 110.201 102.746 102.669 104.224 105.801 106.281 105.346 105.131 103.811 102.674 102.689 102.791 102.506 102.831 102.894 103.571 102.144 105.244 109.476 110.411 111.086 110.184 108.544 105.024 101.709 100.949 100.811 100.846 100.896 100.911 100.844 100.849 102.141 110.051 111.101 111.031 111.024 110.779 102.439 102.449 102.859 104.424 102.126 101.259 100.736 100.599 100.559 100.584 101.269 100.779 101.049 101.276 103.164 101.884 102.221 101.419 100.854 100.909 100.981 100.939 100.226 100.946 105.704 107.951 109.034 109.414 108.341 107.726 108.079 104.171 101.194 100.551 101.059 99.779 99.624 99.639 99.744 99.761 99.764 99.694 99.684 99.739 99.924 99.829 102.286 106.831 103.736 102.284 105.709 107.916 108.371 107.454 106.461 103.481 101.689 100.134 99.281 99.014 98.804 98.659 98.561 98.471 98.401
96.371 96.423 96.463 96.486 96.526 96.543 96.608 96.638 96.673 96.693 96.706 96.726 96.776 96.806 96.816 96.856 96.848 96.881 96.893 96.866 96.891 96.901 96.921 96.883 96.858 96.818 96.846 96.868 96.888 96.911 96.936 96.968 96.983 97.001 96.983 97.008 97.028 97.038 97.063 97.066 97.086 97.093 97.108 97.111 97.108 97.138 97.153 97.161 97.163 97.186 97.208 97.201 97.236 97.186 97.021 96.941 97.063 96.926 96.911 96.983 97.001 97.038 97.063 97.098 96.986 96.753 96.471 96.348 96.378 96.411 96.416 96.446 96.758 97.203 98.981 100.596 101.863 100.108 96.573 97.168 97.461 97.376 97.418 97.463 97.646 97.783 99.671 102.126 103.928 105.561 105.846 104.741 103.868 103.846 106.913 111.123 112.411 112.358 111.391 111.063 111.283 101.638 98.541 98.628 99.046 99.196 100.506 100.713 101.421 101.136 100.503 100.656 100.348 100.601 99.578 99.586 99.583 99.536 100.416 102.618 100.608 100.333 100.448 108.183 109.816 110.801 110.638 110.216 110.078 108.873 107.881 107.188 101.593 100.673 100.846 101.193 100.343 100.323 100.288 101.533 103.913 111.248 112.076 112.076 111.786 111.546 109.231 109.461 111.096 111.046 110.793 110.681 110.881 107.923 104.926 109.173 106.683 104.343 104.101 102.883 100.981 101.471 101.041 101.458 101.053 101.441 101.393 101.076 101.318 102.976 104.783 105.463 100.926 100.998 101.046 101.446 102.311 101.136 101.393 101.416 102.346 101.833 101.644 102.956 104.091 105.553 109.751 110.323 101.233 106.136 111.563 110.854 111.444 112.096 111.941 111.441 110.504 106.343 104.754 101.739 100.773 100.606 100.531 100.453 100.376 100.328 100.316 102.199 101.951 102.291 104.178 102.879 103.111 105.456 103.166 101.316 103.231 108.091 108.678 108.703 108.386 108.021 107.796 107.571 106.226 104.016 102.924 104.339 103.821 100.751 100.801 100.646 100.681 100.701 100.664 100.681 100.746 100.909 100.866 100.944 100.786 100.789 100.771 100.841 101.101 101.894 103.566 103.736 102.221 101.834 101.124 101.221 101.351 101.459 101.559 101.659 101.654 101.671 101.646 103.261 107.471 106.149 104.034 104.179 102.979 102.036 102.336 102.309 106.406 109.181 109.751 110.234 111.401 110.144 108.044 104.514 102.421 102.159 101.966 102.754 102.039 102.014 102.521 101.976 102.504 102.011 102.176 102.376 102.431 102.661 102.244 102.256 102.214 102.474 102.556 103.409 105.116 104.114 102.296 102.264 102.994 104.496 104.044 103.184 102.504 102.874 102.511 102.486 103.296 102.894 103.729 105.734 104.636 102.344 102.399 105.776 109.914 110.719 110.874 109.161 107.461 102.446 101.211 100.964 100.906 100.911 100.969 100.936 100.879 100.966 105.199 110.791 111.081 111.036 111.336 108.766 109.711 110.556 110.534 107.674 101.539 100.721 100.944 102.596 104.169 103.531 101.521 101.894 104.129 102.551 101.591 102.191 102.354 102.014 100.974 100.911 100.924 100.594 99.811 102.356 107.156 107.891 109.129 108.874 108.506 107.331 101.901 100.064 100.211 100.551 99.836 99.739 99.661 99.749 99.791 99.811 99.744 99.674 99.726 100.324 100.674 100.094 100.344 101.524 106.616 108.226 109.026 109.151 108.196 107.211 102.719 102.101 101.519 99.391 98.884 98.771 98.699 98.586 98.549 98.444
96.443 96.493 96.533 96.583 96.593 96.671 96.698 96.723 96.766 96.783 96.806 96.836 96.881 96.898 96.908 96.928 96.938 96.953 96.966 96.933 96.946 96.951 96.968 96.926 96.901 96.886 96.878 96.928 96.976 96.983 97.013 97.033 97.063 97.063 97.051 97.093 97.081 97.116 97.136 97.141 97.148 97.161 97.176 97.193 97.198 97.218 97.233 97.228 97.231 97.238 97.258 97.286 97.301 97.266 97.118 96.946 97.128 96.928 96.928 97.046 97.186 96.803 96.688 96.403 96.388 96.363 96.398 96.416 96.436 96.733 98.628 99.813 101.223 101.951 101.948 101.953 101.963 102.023 97.036 97.993 97.488 97.476 97.443 97.493 97.606 97.961 98.451 100.818 104.168 105.108 105.946 105.456 104.116 103.938 104.316 110.191 112.033 112.656 111.861 111.743 111.581 107.178 98.488 99.063 101.303 101.413 102.401 104.201 103.883 100.298 99.806 100.758 101.218 99.791 99.591 99.641 99.676 101.546 102.013 102.378 100.158 100.101 102.321 107.616 109.318 108.408 107.466 107.953 104.848 103.096 102.261 105.443 105.473 100.333 100.148 100.121 100.176 100.563 101.916 103.533 103.213 109.563 111.371 111.196 111.018 110.971 111.051 107.013 109.948 110.018 108.206 107.798 106.071 102.843 101.676 101.486 101.848 101.281 101.153 101.071 101.038 101.131 101.141 101.031 100.946 100.943 100.911 100.873 100.943 105.556 106.653 104.156 102.706 101.326 101.818 102.991 104.813 101.273 101.123 101.161 104.993 105.218 102.523 101.671 101.474 102.616 104.071 103.758 104.841 111.093 111.776 111.916 112.034 112.011 111.519 110.949 109.321 103.854 102.788 103.104 103.943 101.796 100.561 100.588 100.458 100.578 102.188 100.653 102.911 103.356 106.381 101.808 103.561 106.049 104.698 103.099 103.678 107.756 108.178 107.861 107.633 107.379 107.174 106.903 105.246 101.866 101.136 100.858 100.648 100.641 100.669 100.729 100.781 100.789 100.729 101.311 102.601 101.701 101.186 101.239 100.981 101.056 101.276 101.349 102.121 102.771 104.501 106.791 105.326 103.711 102.209 102.266 101.531 101.599 101.694 101.711 101.726 101.769 101.704 102.529 107.194 107.561 104.939 102.084 101.809 101.906 102.301 102.461 105.879 108.584 109.311 109.104 107.441 105.361 107.474 108.461 102.346 102.304 101.971 102.439 102.116 102.071 102.489 102.161 102.659 103.874 102.876 102.434 102.541 103.054 102.294 102.264 102.306 103.501 103.604 104.274 103.389 102.176 102.876 103.614 102.539 103.804 103.999 102.801 103.166 102.924 102.474 102.676 104.366 105.376 106.409 106.851 104.194 101.404 101.106 104.221 108.569 109.911 111.099 110.224 108.436 103.049 101.691 101.016 100.974 100.964 100.956 100.976 100.909 100.939 101.889 109.741 111.364 111.279 110.519 110.964 110.656 110.581 110.561 110.206 105.866 104.146 104.599 104.836 104.959 105.014 101.376 100.636 101.866 103.364 103.554 102.261 101.764 102.099 101.336 101.234 101.469 100.306 99.896 104.881 108.061 108.759 108.804 108.124 105.594 101.906 104.104 106.146 101.176 100.009 99.974 99.991 102.556 100.121 99.879 99.809 99.739 99.821 99.976 99.744 100.299 99.806 99.984 104.566 108.146 107.961 108.589 109.396 108.936 107.926 106.356 101.296 99.496 99.016 98.931 98.859 98.756 98.666 98.609 98.564
96.516 96.583 96.618 96.686 96.723 96.753 96.778 96.811 96.818 96.853 96.866 96.928 96.983 96.991 97.031 96.998 97.026 97.061 97.043 97.003 97.013 97.028 97.031 97.028 97.003 96.951 96.961 96.986 96.968 97.073 97.096 97.093 97.116 97.133 97.138 97.153 97.151 97.178 97.193 97.223 97.233 97.248 97.268 97.291 97.278 97.291 97.298 97.323 97.321 97.318 97.341 97.348 97.368 97.366 97.243 96.981 96.966 96.811 96.716 96.703 96.338 96.353 96.393 96.426 96.413 97.191 97.463 98.203 100.656 100.958 101.941 101.976 101.996 102.001 102.011 102.028 102.038 101.831 98.858 97.081 97.721 97.516 97.466 97.548 97.611 97.778 97.871 102.071 104.336 104.878 105.663 105.656 104.776 105.278 106.201 109.253 111.686 112.603 111.948 110.768 105.658 100.291 99.141 99.741 103.271 104.876 106.493 106.891 106.303 102.603 101.018 101.273 101.958 99.838 99.683 99.726 99.791 99.868 101.231 100.663 100.193 100.106 100.128 101.313 101.176 101.261 102.426 105.708 105.043 104.818 108.346 109.556 108.613 103.396 104.246 103.731 102.878 103.863 103.826 102.993 102.866 110.541 110.873 110.093 109.223 109.588 108.573 103.391 104.961 104.178 102.798 101.056 101.433 101.786 101.183 100.918 101.146 101.013 101.018 102.006 103.943 100.886 100.841 100.888 101.013 100.906 101.826 101.056 101.343 102.571 103.153 102.101 101.168 101.271 101.301 101.183 101.306 101.163 101.571 102.496 105.708 103.303 103.788 101.718 101.731 102.409 101.903 101.546 102.401 109.901 111.596 111.926 112.099 111.718 111.248 109.711 104.606 102.239 103.644 104.806 105.538 105.621 102.236 100.743 100.638 101.171 101.273 103.288 101.111 104.934 103.226 105.631 104.489 108.818 104.458 102.876 101.166 103.949 107.496 107.231 106.976 106.736 105.093 102.131 101.336 100.816 100.803 101.368 100.743 100.691 100.744 100.786 100.819 101.456 101.011 101.354 102.526 101.921 101.234 101.776 103.051 102.194 101.231 101.111 102.841 103.126 106.089 104.309 105.049 104.604 104.314 101.626 101.686 101.751 101.756 101.784 101.754 101.791 101.734 102.296 105.841 106.784 103.566 101.846 101.931 102.131 102.254 102.521 103.891 106.501 108.899 109.476 109.546 110.019 110.459 109.596 104.426 103.181 102.056 102.781 102.389 102.161 102.816 102.636 103.024 105.404 103.684 103.374 104.321 104.244 104.606 104.229 105.401 104.974 102.576 102.706 102.596 103.594 103.326 102.426 104.924 105.421 102.959 102.666 103.059 102.566 102.569 102.694 104.349 107.014 108.254 107.066 103.576 102.044 101.419 103.046 107.324 109.396 110.691 110.844 108.959 107.009 101.904 101.646 101.056 100.981 100.971 100.941 100.954 100.889 101.064 105.999 111.369 111.229 111.164 111.114 111.431 111.364 111.156 111.016 108.811 104.876 104.839 104.844 104.844 104.399 102.414 100.989 100.776 102.086 102.471 101.461 101.471 102.931 102.281 101.066 100.806 100.781 100.721 102.709 108.281 108.751 108.219 106.519 101.509 105.174 108.479 108.749 105.721 100.081 100.059 100.084 100.389 102.104 102.784 99.839 99.764 99.784 100.669 99.754 99.861 100.081 99.766 101.821 105.819 106.499 107.861 108.786 109.476 109.016 107.786 102.156 99.556 99.209 99.091 99.059 99.141 98.774 98.686 98.781
