ncols 385
nrows 31
xllcorner    528036
yllcorner    187184
cellsize     2
NODATA_value -9999
112.996 112.951 112.851 112.929 113.181 116.654 116.451 116.169 115.306 115.121 114.474 113.519 113.314 112.854 112.481 112.424 112.621 112.926 112.874 112.874 112.879 113.664 116.429 116.606 115.754 116.039 116.154 117.044 116.806 117.399 118.164 118.554 118.381 118.661 119.241 120.309 120.724 120.704 120.684 120.586 120.606 120.826 120.196 120.604 120.614 120.614 120.594 120.606 123.689 127.539 128.731 127.404 127.621 128.069 128.279 128.084 128.081 128.071 128.126 128.176 128.579 129.236 130.114 129.984 128.491 128.379 128.411 128.436 128.596 128.794 133.479 137.269 138.976 138.969 139.194 138.296 136.181 128.729 128.559 129.966 128.931 128.676 129.356 128.704 129.391 129.891 128.231 128.119 127.906 127.779 127.334 127.419 128.249 127.501 127.691 127.691 127.824 127.681 127.604 127.584 127.654 127.551 127.531 127.574 128.076 128.719 128.109 128.049 128.381 128.941 128.514 129.321 130.121 130.296 129.069 129.999 131.331 136.949 140.056 141.094 139.934 139.229 139.021 136.991 133.731 131.431 128.841 127.601 127.584 127.591 127.631 128.099 131.206 133.936 134.191 131.651 130.946 127.544 130.234 130.629 130.736 126.846 126.551 126.504 126.421 126.379 126.489 129.829 126.401 127.044 126.429 126.401 125.996 125.991 125.586 125.164 125.116 125.056 127.046 125.414 125.251 125.294 125.479 126.436 126.769 125.954 125.161 124.521 124.839 124.581 124.416 124.686 124.166 123.984 123.926 123.431 127.531 128.636 129.071 129.059 128.469 128.696 129.121 129.074 128.934 129.056 129.074 128.679 126.886 124.716 122.816 121.959 121.686 120.846 120.859 120.884 120.881 121.044 122.066 121.384 120.924 120.496 120.391 120.294 120.104 119.959 120.444 122.736 121.364 123.351 122.781 120.601 121.761 118.096 120.834 124.144 117.794 116.679 116.154 116.146 116.124 116.126 116.111 116.119 116.099 116.094 116.069 116.066 116.046 116.041 116.044 116.006 115.994 115.999 115.986 115.964 115.956 115.939 115.926 115.911 115.911 115.881 115.846 115.814 115.774 115.434 114.779 114.244 114.076 114.059 114.036 114.036 114.031 113.989 113.986 113.979 114.071 113.864 114.121 113.666 113.551 113.456 113.361 113.301 113.266 113.176 113.169 113.139 113.101 113.059 113.029 113.031 112.996 113.031 113.319 114.714 115.031 114.901 112.999 111.851 111.731 111.614 111.774 119.461 118.599 118.004 119.246 120.476 120.016 118.204 114.524 111.169 111.204 116.099 116.931 117.551 118.144 118.604 118.601 118.051 117.401 116.709 116.046 113.779 114.269 114.246 111.706 110.446 110.346 110.356 110.359 110.349 110.351 110.369 110.371 110.356 110.366 110.371 110.394 110.366 110.361 110.384 110.396 110.374 110.361 110.351 110.356 110.286 110.389 111.174 112.864 111.141 110.981 111.496 112.853 110.026 111.703 112.763 111.746 115.101 111.438 109.436 111.941 112.106 117.308 113.103 116.443 115.626 115.891 113.101 114.448 111.151 110.403 112.606 109.361 107.663 107.558 113.191 111.961 112.903 116.003 115.191 110.541 108.741 107.036 106.273 107.241 112.831 113.978 114.481 114.618 112.436 108.338 106.116 106.138 109.013 109.751 107.153 109.656 109.731 113.863 113.548 114.336 111.511 108.331
113.154 113.121 113.004 112.894 113.189 117.046 118.299 118.429 118.409 118.156 117.866 117.476 115.589 112.836 112.656 112.741 113.081 113.029 112.914 112.886 112.904 114.486 115.836 116.799 115.834 116.231 116.361 120.431 119.851 117.384 119.669 121.676 118.334 118.676 119.519 120.434 120.964 120.674 120.634 120.581 120.594 120.734 120.644 120.774 120.611 120.554 120.599 120.584 123.616 127.541 127.579 127.734 127.926 128.024 128.074 128.146 128.129 128.136 128.169 128.184 130.104 132.129 130.741 129.351 128.801 128.376 128.399 128.439 128.551 129.199 131.756 137.081 139.009 138.924 139.029 138.519 136.314 129.351 128.524 129.704 128.999 128.524 131.286 133.931 130.814 130.434 129.154 128.866 130.329 129.109 127.344 127.816 127.569 127.471 127.531 127.746 127.844 127.754 127.621 127.529 127.481 127.471 127.516 127.664 128.874 128.076 127.916 128.246 129.009 128.466 129.319 128.129 128.281 129.071 130.051 129.794 136.411 140.171 140.859 139.951 139.589 141.034 140.996 137.891 129.859 129.391 127.981 127.574 127.576 127.551 127.546 127.369 127.054 127.601 128.661 126.496 126.269 126.229 129.391 129.919 130.274 132.156 126.869 126.506 126.446 126.389 126.349 126.341 126.786 126.421 126.896 126.944 125.799 125.591 125.609 125.199 124.966 124.921 126.899 127.496 125.281 125.246 126.694 126.676 126.661 125.756 126.079 126.296 128.526 127.641 125.299 126.499 124.871 123.771 123.931 123.889 127.801 129.046 129.061 129.059 128.584 129.071 129.039 129.086 129.061 128.761 127.094 125.494 121.971 121.226 120.849 120.894 120.899 120.896 121.131 121.244 121.944 122.476 121.749 122.349 120.381 120.296 120.476 121.821 121.499 119.819 119.584 121.846 121.726 124.746 127.114 121.256 125.956 117.896 117.291 116.306 116.184 116.166 116.126 116.111 116.094 116.084 116.076 116.071 116.101 116.071 116.084 116.064 116.031 116.029 116.001 115.976 115.974 115.981 115.971 115.941 115.926 115.924 115.911 115.891 115.889 115.869 115.839 115.696 115.189 114.474 114.096 114.051 114.066 114.031 114.001 113.971 113.954 113.929 113.906 113.879 113.809 115.316 117.261 115.561 113.374 113.296 113.226 113.189 113.171 113.084 113.071 113.076 113.029 112.984 112.946 112.966 112.991 113.161 114.634 115.891 114.959 114.446 111.744 111.664 111.571 111.669 118.611 120.104 118.319 117.064 120.421 120.516 122.274 116.749 113.769 112.979 110.421 115.339 116.536 117.171 117.829 118.441 118.596 118.181 117.626 117.016 116.346 114.879 113.534 113.596 112.776 110.459 110.356 110.359 110.361 110.339 110.354 110.349 110.341 110.329 110.341 110.354 110.364 110.361 110.374 110.381 110.374 110.336 110.346 110.346 110.351 111.324 112.421 110.896 118.456 111.806 110.893 110.316 109.363 108.621 107.103 109.321 113.701 114.373 110.018 109.556 111.511 113.558 109.498 119.866 116.066 115.643 115.461 115.496 113.718 109.776 109.808 108.703 107.716 107.308 107.253 111.648 112.393 115.486 117.096 116.078 112.623 110.598 109.276 107.691 111.598 113.971 114.423 113.783 114.228 113.821 112.096 108.436 106.128 111.323 110.998 108.056 110.248 108.996 109.526 113.161 112.048 111.836 108.703
115.239 114.089 113.101 112.721 112.819 114.659 116.031 116.961 117.201 117.521 118.001 118.061 115.184 112.866 112.871 112.874 112.924 113.086 112.804 112.886 112.879 115.064 115.631 115.534 116.119 116.441 116.974 120.681 125.659 123.426 120.346 121.834 121.816 118.576 118.496 119.359 120.704 120.599 120.601 120.571 120.619 120.736 120.661 120.634 120.611 120.601 120.609 120.804 123.141 128.521 127.949 127.639 128.091 128.101 128.706 128.301 128.284 128.169 128.229 128.241 130.189 130.576 132.816 130.244 131.416 129.424 128.696 128.496 128.719 128.696 130.289 136.976 138.886 139.046 139.141 138.684 136.781 130.014 128.526 128.544 128.901 132.089 132.421 135.746 132.416 132.134 132.009 128.266 132.716 127.414 127.246 127.304 127.406 127.806 127.991 127.834 127.874 127.861 127.724 127.796 127.399 127.436 127.466 127.554 127.876 127.726 127.859 130.789 129.334 128.389 128.331 128.084 128.084 128.116 128.636 134.014 140.254 140.909 139.939 139.826 140.989 141.319 139.289 133.814 129.009 129.041 127.774 127.586 127.566 127.451 127.221 127.021 126.846 126.554 126.314 126.161 126.111 126.136 126.854 128.144 130.764 131.539 128.249 127.399 127.889 128.254 128.386 126.319 126.294 126.281 126.051 126.019 125.646 125.436 125.334 125.679 124.976 124.779 124.649 127.719 125.264 124.631 125.199 126.684 126.391 125.801 126.986 130.829 132.361 130.759 126.541 125.406 125.689 124.446 123.601 124.949 125.274 129.086 129.056 129.091 129.061 129.066 129.086 128.464 126.629 123.899 122.394 120.991 121.004 120.901 120.901 120.914 121.021 121.769 121.876 121.506 121.409 122.344 125.139 126.299 121.031 120.414 120.844 123.056 122.244 119.741 119.416 119.481 123.129 129.351 129.774 119.316 123.864 120.654 117.704 116.836 116.176 116.164 116.116 116.104 116.069 116.069 116.081 116.074 116.051 116.066 116.056 116.049 116.026 115.964 115.979 115.951 115.951 115.946 115.909 115.929 115.904 115.891 115.871 115.861 115.829 115.791 115.534 114.856 114.241 114.069 114.069 114.054 114.019 113.991 113.946 113.921 113.869 113.841 113.829 113.779 113.689 116.866 118.716 117.836 116.076 113.126 113.119 113.094 113.049 112.986 113.021 112.996 112.976 112.926 112.914 112.894 112.931 113.211 114.886 114.774 114.779 113.739 111.621 111.496 111.384 114.131 121.139 122.211 119.846 119.866 122.389 118.806 122.826 118.841 117.216 112.626 110.349 114.371 116.651 117.341 117.974 118.496 118.659 118.346 117.729 117.054 116.336 114.196 113.524 113.531 112.676 110.319 110.314 110.346 110.339 110.324 110.309 110.296 110.329 110.311 110.341 110.334 110.319 110.334 110.331 112.149 112.306 113.241 110.321 110.304 110.261 113.739 113.169 114.524 114.724 113.971 108.568 109.478 108.233 108.196 106.786 107.376 112.566 111.743 109.113 108.391 109.436 108.646 116.561 113.476 116.703 120.433 113.833 112.886 110.986 110.718 111.193 108.793 107.548 107.036 107.008 109.883 109.323 110.881 116.363 117.108 114.298 109.346 109.313 109.048 109.663 112.923 112.901 112.773 113.166 114.301 114.361 113.411 106.786 106.178 109.351 111.316 109.933 112.798 110.376 112.118 111.256 111.763 109.238
115.696 114.339 113.324 112.824 112.846 112.896 113.099 113.041 113.351 113.539 114.334 114.569 113.909 112.849 112.846 112.889 112.886 113.144 112.811 112.876 113.049 115.249 115.494 115.651 116.184 116.586 118.569 117.619 126.016 125.626 122.364 120.846 124.024 120.321 118.534 119.939 120.454 120.416 120.971 121.071 120.649 120.734 120.774 120.634 120.806 120.856 120.866 122.961 124.951 127.004 127.596 127.691 128.719 128.594 129.081 128.949 128.461 128.976 128.714 128.491 131.099 133.971 133.974 132.866 131.746 130.514 129.274 129.394 130.359 129.306 131.879 136.616 138.626 139.859 139.649 138.876 136.784 131.371 128.536 128.981 129.426 132.381 131.871 134.276 136.204 129.264 128.516 128.506 128.964 132.174 127.726 127.311 127.376 127.906 128.771 129.309 127.944 127.841 127.569 127.401 127.404 127.409 127.391 127.449 127.601 127.659 128.254 130.956 131.599 129.294 130.116 131.574 128.954 128.659 129.786 134.046 140.649 139.936 139.654 140.881 141.276 139.906 134.954 130.616 128.856 128.256 129.059 127.924 127.629 127.226 126.909 126.691 126.569 126.371 126.156 126.021 125.981 125.991 126.029 126.089 128.799 130.214 129.694 129.134 128.446 126.669 128.719 128.466 126.296 126.324 125.906 125.686 125.451 125.316 125.694 125.841 125.109 124.684 124.564 124.866 124.749 124.974 124.846 125.831 124.921 126.351 129.931 131.541 132.499 131.781 130.049 124.884 126.261 125.319 123.524 124.456 124.021 127.119 129.066 129.059 129.079 128.549 126.589 122.289 121.739 121.681 121.021 120.881 120.919 120.921 121.116 122.166 121.564 121.391 121.084 122.011 122.441 121.689 123.556 122.506 121.044 124.011 124.501 122.919 121.756 120.826 119.266 120.816 123.121 130.446 128.816 119.511 120.996 117.999 117.674 117.416 116.421 116.131 116.101 116.089 116.066 116.024 116.059 116.031 116.044 116.074 116.049 116.016 115.994 115.969 115.926 115.936 115.944 115.906 115.891 115.891 115.889 115.859 115.826 115.839 115.716 115.251 114.551 114.174 114.059 113.996 113.969 113.934 113.956 113.934 113.904 113.859 113.789 113.776 113.759 113.729 113.669 117.566 120.459 119.644 117.134 113.176 113.004 112.974 112.921 112.899 112.921 112.891 112.866 112.844 112.841 112.794 112.756 112.709 112.704 114.731 114.256 111.751 111.459 112.144 112.956 115.096 119.961 120.954 118.826 116.924 120.971 121.654 118.436 122.406 119.274 116.261 112.069 113.941 116.499 117.089 117.656 118.194 118.566 118.201 117.586 117.001 116.436 114.629 113.359 113.539 113.374 110.389 110.291 110.294 110.311 110.304 110.301 110.301 110.311 110.296 110.316 110.304 110.331 110.761 114.404 112.936 113.789 113.059 111.556 110.046 110.349 116.806 117.059 121.149 114.879 115.516 110.018 108.738 107.371 109.708 107.488 107.026 110.176 107.623 109.211 108.163 111.406 112.616 114.286 114.236 118.816 119.678 116.423 113.991 113.006 110.756 110.808 108.851 107.313 106.683 106.686 106.776 110.918 110.926 112.591 112.233 110.396 109.386 109.093 108.378 108.293 111.151 112.858 113.168 113.438 114.691 115.133 113.968 108.476 109.876 111.346 112.783 109.071 112.728 109.723 108.898 109.383 108.793 109.531
115.429 114.336 113.386 112.749 112.971 112.846 112.966 112.839 112.934 112.941 112.886 112.856 112.844 112.824 112.784 112.816 112.891 112.884 112.806 112.829 113.484 115.579 115.371 115.804 116.299 121.289 119.901 125.081 124.334 127.101 125.814 127.799 123.836 119.011 118.609 119.544 120.536 122.921 123.046 122.676 122.944 123.556 123.306 124.279 124.259 124.351 124.186 124.359 124.751 126.299 129.736 128.479 129.719 129.689 130.009 130.499 130.729 130.836 130.629 128.801 128.634 134.349 132.209 132.991 132.236 128.644 128.624 128.621 129.344 129.159 130.571 136.801 138.371 139.204 138.691 138.904 137.109 130.666 128.529 128.984 129.794 132.704 132.974 132.059 135.001 133.444 127.841 127.774 129.296 130.334 128.159 127.391 127.411 127.434 128.641 128.761 128.044 128.141 127.361 127.346 127.359 127.319 127.346 127.491 127.539 127.629 127.701 129.244 130.951 130.439 132.441 134.114 132.736 130.971 131.431 133.066 134.996 138.876 140.929 141.311 140.016 132.721 130.466 129.619 127.721 127.814 128.431 129.111 129.261 130.671 130.906 126.591 126.359 126.224 126.036 125.931 125.874 125.891 125.964 125.966 127.164 130.639 130.894 132.961 133.519 128.511 131.716 127.906 127.879 126.626 125.714 125.499 125.339 125.211 125.276 125.074 124.999 124.566 124.534 124.461 124.516 125.484 125.354 125.111 124.346 124.821 129.734 130.881 131.944 132.551 131.061 127.414 124.061 125.031 123.949 123.509 124.206 123.076 129.151 128.269 125.394 122.746 122.529 122.106 120.829 120.851 120.904 120.941 121.001 121.781 122.189 122.016 121.546 121.369 121.044 121.676 123.939 122.601 124.019 121.611 122.344 121.564 122.094 121.231 122.199 122.334 119.609 118.994 122.274 128.911 129.824 127.011 124.069 121.159 117.569 117.466 117.036 116.201 116.086 116.071 116.051 116.029 116.056 116.039 116.036 116.064 116.051 115.996 115.991 115.931 115.916 115.911 115.906 115.896 115.864 115.889 115.856 115.831 115.804 115.544 114.956 114.276 114.084 114.074 114.031 113.951 113.896 113.899 113.891 113.866 113.839 113.779 113.739 113.709 113.681 113.674 113.664 114.626 117.444 116.336 114.944 113.704 112.849 112.821 112.769 112.774 112.759 112.761 112.761 112.741 112.741 112.756 112.679 112.634 112.579 112.571 111.674 111.416 111.264 113.261 112.694 114.161 116.961 116.691 118.319 121.786 122.001 122.539 124.066 122.346 122.186 118.286 110.639 113.021 116.274 116.954 117.639 118.266 118.609 118.474 117.949 117.331 116.681 115.664 113.599 113.501 113.341 110.914 110.286 110.294 110.274 110.274 110.244 110.224 111.344 111.209 110.164 110.074 109.971 111.809 114.449 113.991 116.734 114.609 112.334 110.391 110.101 116.341 120.639 121.236 113.376 112.886 114.131 113.996 107.513 108.648 107.013 106.446 106.453 106.668 106.886 108.586 108.611 113.503 115.791 115.868 116.911 114.886 116.163 112.368 114.133 110.411 111.691 108.516 106.501 106.421 106.368 108.701 106.761 106.881 107.661 107.798 110.973 110.756 109.511 107.553 110.518 112.513 112.686 113.358 114.666 115.316 113.746 109.523 106.171 107.841 107.371 110.618 106.283 107.016 111.753 109.091 107.691 108.148 106.448
114.559 113.719 113.301 112.804 112.999 113.046 113.109 113.264 112.836 112.841 112.821 112.811 112.791 112.801 112.804 112.791 112.954 112.821 112.786 112.844 115.526 115.364 115.676 116.329 116.679 120.626 122.344 122.536 123.826 125.759 125.569 126.359 125.311 119.964 118.876 119.576 120.854 124.226 125.781 125.916 126.461 126.879 127.561 128.036 128.106 128.636 129.251 128.531 124.869 126.324 129.244 127.369 128.079 129.126 128.529 129.114 129.354 129.371 130.179 129.044 128.546 128.366 131.956 130.294 128.406 128.689 128.439 128.561 128.856 129.299 129.089 136.321 138.219 139.164 138.501 139.026 137.129 131.836 128.526 128.906 129.476 129.041 131.249 131.471 132.761 131.694 127.759 127.634 127.539 127.309 127.351 127.401 127.464 127.424 127.544 127.711 129.336 127.784 127.381 127.316 127.286 127.274 127.319 127.436 127.831 128.046 127.671 128.029 129.226 132.291 133.496 134.271 134.109 133.026 133.076 133.781 134.346 136.691 141.566 140.009 138.021 131.169 128.111 128.216 127.614 127.624 128.024 128.886 132.519 132.114 130.204 128.771 129.026 129.024 127.076 125.906 125.789 125.799 128.854 127.861 127.749 129.016 130.714 130.574 134.026 131.964 132.569 128.019 126.576 125.769 125.566 125.646 125.241 125.186 125.246 125.254 124.679 124.539 124.469 124.454 124.411 125.021 124.354 124.276 124.256 124.311 127.214 130.249 131.479 132.911 132.101 127.609 124.126 124.069 123.839 123.321 123.289 123.506 124.604 123.931 122.656 121.109 121.211 120.834 120.874 120.879 121.386 122.076 121.624 121.081 121.089 121.744 121.196 121.889 122.319 121.469 123.796 123.586 120.414 121.281 122.746 122.806 122.731 121.061 121.041 121.686 120.209 120.041 122.169 128.626 125.134 126.356 123.604 122.779 119.321 117.384 117.274 116.696 116.129 116.051 116.054 116.036 116.074 116.076 116.021 116.021 116.019 115.974 115.961 115.934 115.909 115.889 115.889 115.849 115.866 115.844 115.824 115.751 115.279 114.566 114.184 114.089 114.076 114.069 113.981 113.909 113.884 113.894 113.849 113.801 113.776 113.709 113.681 113.639 113.616 113.596 113.594 113.529 113.401 113.024 112.914 112.849 112.746 112.709 112.636 112.626 112.669 112.656 112.631 112.664 112.614 112.611 112.561 112.541 112.419 111.956 111.431 111.236 111.174 114.086 114.381 115.619 118.836 116.059 114.826 120.956 118.496 122.994 122.096 121.126 120.026 116.991 110.234 112.099 116.251 117.019 117.629 117.849 116.811 117.271 116.146 114.894 112.536 112.399 111.759 111.626 110.976 110.219 110.246 110.176 110.096 110.034 110.001 111.671 116.431 114.346 112.054 110.116 110.164 110.999 113.511 115.519 115.536 112.929 112.576 110.271 111.614 112.221 118.041 116.696 114.349 112.481 116.468 109.971 108.068 106.778 106.453 106.418 108.393 106.508 106.486 107.871 110.013 114.221 110.048 119.076 113.363 111.556 113.518 113.528 112.736 112.511 113.696 106.821 109.021 109.293 107.323 106.093 106.213 105.981 106.366 109.166 112.998 113.966 111.416 110.623 112.536 112.896 113.458 114.733 115.293 113.441 109.483 108.133 108.238 109.156 109.081 111.626 110.831 107.041 105.343 106.358 105.768 107.293 107.668
113.709 112.826 112.656 112.886 113.004 113.129 113.221 113.154 112.839 112.806 112.819 112.784 112.696 112.941 112.826 112.779 112.804 112.841 112.811 113.624 115.731 115.519 118.036 118.384 121.121 123.739 123.571 124.156 121.551 121.324 125.479 124.711 125.029 122.506 119.464 120.064 121.401 125.084 129.661 129.926 128.776 130.539 127.779 130.721 128.854 129.321 130.726 129.559 124.879 127.004 128.946 127.301 128.029 129.784 128.476 128.426 128.546 128.351 128.509 128.326 128.341 128.366 128.486 128.394 128.394 128.396 128.409 128.494 128.706 128.836 129.614 135.771 138.139 139.161 138.454 139.156 137.349 132.164 129.989 131.801 131.076 128.814 128.149 128.056 129.676 127.761 127.631 127.484 127.394 127.336 127.371 127.429 127.451 127.406 127.386 127.396 128.534 127.841 127.396 127.331 127.309 127.359 127.366 127.476 128.446 127.859 127.679 127.636 128.109 129.346 132.169 133.471 134.269 134.091 133.819 134.389 134.436 134.044 135.159 136.271 134.544 127.694 127.726 127.646 127.696 127.649 127.246 126.974 128.054 129.586 130.321 128.754 130.521 132.731 129.171 126.009 125.791 125.851 127.221 134.186 130.374 126.586 128.146 129.521 129.514 128.076 127.944 130.774 126.896 126.414 125.414 126.036 125.229 125.636 125.086 124.626 124.554 124.506 124.464 124.389 124.354 124.499 124.859 124.149 124.124 124.039 124.984 128.404 130.694 129.694 126.151 123.844 124.204 124.281 124.224 126.516 124.809 125.689 123.394 123.401 122.786 121.014 120.859 121.094 121.786 122.521 121.371 121.101 121.201 120.839 120.406 120.486 120.691 125.051 126.176 121.936 122.584 120.546 119.741 122.816 121.911 124.639 122.264 121.156 120.194 121.799 122.811 121.069 118.686 122.159 122.951 123.676 124.679 122.434 126.819 123.289 117.186 117.119 116.429 116.054 116.044 116.081 115.979 115.976 116.019 116.011 115.974 115.946 115.911 115.906 115.881 115.864 115.839 115.836 115.819 115.811 115.631 115.081 114.156 113.711 114.009 114.091 114.061 114.031 113.984 113.911 113.859 113.846 113.811 113.774 113.734 113.664 113.606 113.571 113.516 113.504 113.484 113.439 113.376 113.119 112.721 112.661 112.636 112.584 112.499 112.501 112.551 112.566 112.556 112.621 112.561 112.541 112.476 112.411 112.194 111.601 111.216 111.034 111.021 114.484 114.444 113.091 116.639 118.134 117.456 119.096 118.436 122.934 114.374 112.869 115.674 111.799 110.434 111.029 113.719 114.184 114.246 111.719 111.286 111.059 112.969 110.254 110.204 110.144 110.104 110.074 110.049 110.061 110.024 109.996 110.019 109.931 110.101 112.471 117.934 114.846 112.011 109.669 109.481 112.761 114.891 112.209 115.191 113.726 114.209 113.571 113.401 112.854 114.174 115.996 113.666 107.696 111.946 108.948 109.916 106.428 106.413 106.506 106.573 107.283 106.486 106.473 108.003 107.658 109.696 107.256 110.298 112.608 114.461 114.646 111.571 111.658 111.653 108.413 111.371 110.908 107.053 105.896 105.908 105.943 108.243 112.856 114.581 115.226 113.623 112.553 112.633 113.561 114.798 115.186 113.941 109.121 105.928 105.933 105.173 106.543 112.201 108.123 112.161 109.701 105.013 106.346 107.518 108.173 112.231
112.804 112.929 113.039 112.671 112.601 112.811 112.811 112.901 112.771 112.834 112.954 112.929 112.721 112.936 112.789 112.784 112.801 112.894 112.896 115.141 115.706 117.269 118.679 120.279 118.214 119.854 120.351 125.306 126.086 125.099 124.724 121.451 123.621 122.684 119.974 120.076 120.921 124.846 128.931 130.784 130.811 130.731 130.689 130.571 130.694 130.794 130.819 128.369 125.109 126.731 128.754 126.951 128.161 129.246 129.589 128.484 128.421 128.379 128.324 128.356 128.361 128.364 128.406 128.401 128.404 128.394 128.399 128.419 128.694 128.914 128.749 135.326 138.044 139.171 138.576 139.116 137.486 134.221 132.306 132.159 131.279 128.539 128.114 128.039 127.896 127.674 127.569 127.434 127.329 127.334 127.376 127.436 127.396 127.404 127.386 127.386 127.411 127.634 127.399 127.391 127.394 127.361 127.349 127.461 127.529 127.566 127.771 128.064 127.631 129.684 129.574 132.559 133.496 134.274 134.436 133.964 133.834 134.351 133.651 128.571 129.551 128.234 127.646 127.641 127.879 128.161 126.911 126.686 126.509 126.366 126.814 127.506 129.579 131.256 129.369 129.694 128.279 126.826 128.719 129.791 128.909 127.911 125.734 126.029 127.739 129.074 128.829 128.756 130.794 125.916 125.651 125.146 124.934 124.741 124.596 125.054 124.704 124.651 125.204 125.079 124.391 124.206 124.774 124.824 124.146 124.021 123.911 125.714 126.744 123.969 123.734 123.739 123.406 123.571 123.706 127.676 126.396 125.894 123.854 123.576 123.024 122.331 121.874 121.986 121.646 121.301 121.379 121.149 120.766 120.664 120.681 120.594 120.411 122.136 122.566 121.239 119.816 119.786 119.669 120.361 124.946 123.184 122.129 122.404 120.804 120.689 123.826 124.231 118.479 121.134 118.544 122.421 125.049 127.521 130.054 124.724 117.069 117.044 116.889 116.144 115.991 115.974 115.979 115.979 116.004 115.969 115.939 115.921 115.911 115.891 115.859 115.849 115.836 115.794 115.776 115.409 114.754 113.921 113.409 113.541 113.814 114.016 113.996 113.956 113.921 113.859 113.819 113.801 113.769 113.721 113.664 113.609 113.549 113.504 113.491 113.429 113.384 113.344 113.341 113.276 112.761 112.449 112.486 112.354 112.294 112.331 112.401 112.456 112.456 112.456 112.449 112.424 112.384 112.249 111.824 111.299 111.036 110.891 110.861 110.811 111.351 112.601 115.526 120.551 121.749 117.769 119.939 115.534 111.426 111.644 114.639 111.906 110.361 110.239 110.169 110.126 110.101 110.066 110.516 111.139 110.621 110.806 112.431 113.046 112.146 110.001 109.794 109.869 109.949 109.886 110.264 109.444 109.731 112.156 116.064 113.956 113.864 112.466 111.839 111.564 113.846 111.809 112.589 115.466 110.496 112.346 113.069 112.351 111.576 112.556 110.839 107.796 110.398 110.643 106.843 106.726 106.658 108.386 107.856 106.986 106.473 106.471 109.368 111.376 110.728 108.641 109.718 111.808 111.098 108.626 111.488 109.346 109.198 109.183 110.063 109.243 108.673 108.133 105.903 106.178 112.263 114.306 115.471 115.196 114.178 112.736 113.493 114.903 115.176 114.993 107.236 105.863 105.743 105.298 104.153 104.666 109.113 110.923 104.403 112.061 106.921 105.711 106.298 106.908 112.246
112.779 112.759 112.734 112.736 112.701 112.806 112.799 113.069 112.881 112.816 112.759 112.739 112.859 112.784 112.774 112.769 112.816 112.841 113.821 116.446 115.711 115.814 122.274 118.799 118.966 118.994 120.349 118.226 121.549 124.546 123.509 122.361 121.446 121.121 120.381 120.404 120.541 124.979 129.566 130.746 130.791 130.666 130.539 130.551 130.626 130.766 130.789 129.216 126.259 127.361 127.999 129.111 128.054 133.909 131.044 128.961 128.449 128.409 128.369 128.389 128.354 128.369 128.386 128.391 128.376 128.371 128.374 128.394 128.536 128.901 128.786 134.604 138.716 139.359 138.566 139.406 137.821 136.614 130.394 130.816 130.506 128.114 128.284 128.216 128.101 128.276 127.989 127.369 127.336 127.309 127.326 127.336 127.371 127.346 127.354 127.326 127.336 127.316 127.349 127.379 127.439 127.454 127.404 127.444 127.526 127.626 128.334 128.156 127.909 127.851 129.619 131.549 131.461 133.634 134.196 133.664 132.809 133.124 131.251 126.996 128.489 129.049 127.636 127.581 127.424 127.114 126.694 126.571 126.421 126.269 126.089 125.919 126.879 128.534 128.349 128.859 134.464 128.434 129.514 129.779 130.401 126.809 125.534 125.776 126.924 129.834 129.144 129.269 128.624 128.649 125.546 124.884 124.681 124.654 126.464 127.839 125.836 124.916 126.604 129.541 127.309 124.836 124.739 126.136 124.064 123.854 123.839 123.759 123.761 123.744 123.716 123.624 123.464 123.226 124.089 124.899 127.004 126.809 123.791 121.811 123.271 122.696 121.286 121.041 121.106 121.266 120.861 120.746 120.554 120.621 120.506 120.321 120.381 120.261 120.049 121.351 120.166 121.131 120.259 121.436 121.776 121.386 122.464 121.284 120.064 121.831 124.986 124.421 121.101 120.149 118.049 121.126 125.656 127.419 128.251 122.491 117.486 116.926 116.871 116.596 116.034 115.966 115.974 115.966 115.979 115.974 115.934 115.909 115.891 115.871 115.856 115.809 115.791 115.654 115.189 114.451 113.639 113.441 113.444 113.456 113.589 113.881 113.924 113.886 113.826 113.789 113.759 113.741 113.716 113.679 113.621 113.571 113.539 113.466 113.411 113.384 113.359 113.301 113.286 113.246 113.051 112.324 112.204 113.356 114.624 116.161 112.946 112.219 112.181 112.229 112.231 112.231 112.201 111.984 111.481 111.031 110.809 110.706 110.714 110.674 111.899 116.429 119.881 119.621 115.874 112.646 122.194 113.621 113.724 116.824 116.681 113.896 111.109 110.469 110.054 110.151 110.131 109.984 112.771 115.334 114.166 112.894 113.909 114.724 114.864 110.686 109.239 109.036 111.351 109.306 109.409 109.324 109.719 111.661 112.784 114.151 113.669 113.224 116.484 113.539 112.344 111.226 113.446 112.406 108.444 108.671 108.674 108.119 110.541 109.514 108.236 108.046 108.496 107.083 106.696 108.801 107.961 109.326 106.866 106.478 106.491 106.473 107.343 111.001 111.618 112.173 106.923 106.893 109.066 107.706 108.676 109.933 109.646 112.141 109.998 109.786 109.368 106.823 105.851 106.056 110.103 113.843 115.403 115.048 114.813 114.383 114.796 115.246 112.826 107.826 105.851 105.726 105.228 104.308 104.773 106.971 106.891 107.403 109.086 107.348 109.986 107.293 109.093 115.043 111.096
112.856 112.761 112.884 112.994 113.071 112.936 112.784 112.829 112.839 113.041 112.809 112.879 112.859 112.804 112.741 112.804 112.766 112.789 114.821 116.099 115.604 116.174 121.519 122.311 122.169 118.531 121.134 119.256 121.999 120.481 120.531 119.991 120.471 120.564 120.511 120.479 120.524 123.861 128.144 130.746 130.799 130.699 130.556 130.619 130.719 130.784 130.804 130.616 130.216 131.444 126.514 131.291 132.211 137.834 132.939 129.969 128.456 128.416 128.686 131.369 134.779 130.369 130.074 128.401 128.406 128.399 128.424 128.744 128.474 128.606 128.869 133.919 137.904 138.781 138.154 138.671 138.169 137.264 131.586 130.254 129.789 128.139 128.226 128.304 128.759 129.176 128.184 127.371 127.326 127.304 127.281 127.296 127.316 127.301 127.319 127.299 127.281 127.814 128.304 127.439 127.449 127.346 127.384 127.436 127.526 127.609 127.764 128.126 128.539 128.141 128.019 131.471 130.719 130.976 133.241 128.891 127.671 126.966 126.324 126.381 126.794 128.484 129.089 129.106 127.356 126.696 126.599 126.501 126.334 126.176 126.016 125.889 125.811 128.256 126.956 129.299 132.701 127.756 125.949 127.889 127.209 126.869 125.984 126.269 131.576 133.124 130.754 129.964 127.929 125.691 126.474 124.704 124.989 125.521 125.476 125.621 126.674 129.021 130.059 130.036 130.041 126.414 127.639 127.704 125.116 123.866 123.841 123.821 123.791 123.771 123.731 123.706 123.406 123.189 125.439 124.874 126.799 124.839 123.339 122.976 122.666 121.354 121.079 120.831 120.774 120.724 120.666 120.494 120.594 122.001 122.559 121.611 121.301 120.651 120.674 120.036 121.546 121.209 123.034 120.271 121.226 121.086 122.876 124.214 119.679 121.709 123.814 124.579 122.881 120.756 120.494 118.891 118.179 121.904 121.284 118.179 116.861 116.756 116.701 116.659 116.301 115.951 115.974 115.944 115.936 115.939 115.916 115.869 115.844 115.851 115.799 115.721 115.546 114.964 114.129 113.466 113.444 113.461 113.426 113.434 113.464 113.691 113.876 113.841 113.781 113.731 113.694 113.689 113.661 113.631 113.589 113.549 113.501 113.419 113.394 113.354 113.321 113.274 113.226 113.179 112.791 112.189 113.479 117.544 120.364 118.924 113.609 112.019 111.864 111.906 111.946 111.964 111.911 111.611 111.159 110.759 110.651 110.571 110.536 110.506 112.369 118.414 119.509 119.884 118.661 120.016 127.319 119.741 114.884 117.489 121.176 118.981 112.161 111.379 110.236 110.199 110.994 110.739 112.249 116.486 114.924 115.496 114.674 114.766 114.511 109.881 111.176 109.409 110.966 109.054 110.126 110.241 111.929 110.984 112.369 114.126 115.336 117.846 117.289 113.071 111.009 108.876 110.986 108.999 106.749 106.734 107.034 108.919 109.404 108.906 108.364 106.616 106.408 106.416 106.408 107.046 110.958 109.576 109.048 106.976 106.448 106.463 107.833 108.106 111.031 107.523 106.861 107.228 109.836 107.688 108.218 109.218 107.526 108.018 108.443 109.621 108.516 105.868 105.986 105.853 106.106 112.206 116.206 115.951 114.891 115.108 115.176 113.008 107.148 105.831 105.703 105.183 104.271 104.148 104.183 108.401 106.293 107.298 107.923 106.148 105.453 107.158 109.868 112.978 113.396
112.716 112.799 113.069 112.776 112.756 112.631 112.586 112.706 112.769 112.771 112.796 112.794 112.741 112.754 112.731 112.771 112.731 112.784 115.606 116.086 115.479 116.126 120.001 120.506 118.496 117.791 118.514 118.834 118.944 119.291 119.551 119.971 120.494 120.676 125.544 121.054 120.966 124.551 129.384 130.719 130.776 130.764 130.766 130.719 130.721 130.711 130.564 130.324 126.541 130.046 130.756 132.901 138.296 135.836 135.244 130.689 128.441 129.174 132.794 133.251 135.751 130.664 134.071 128.661 128.946 129.759 131.459 132.501 130.884 129.784 128.741 133.121 137.081 136.909 136.876 136.744 136.106 135.639 132.741 128.771 128.789 128.526 128.449 128.531 128.144 128.104 128.339 127.346 127.296 127.271 127.324 127.276 127.274 127.241 127.451 128.094 127.674 127.589 127.384 127.426 127.349 127.324 127.384 127.466 127.564 127.619 127.606 128.274 128.544 128.101 127.439 128.384 128.369 129.289 129.876 128.139 127.916 126.679 126.331 126.676 127.106 128.014 128.806 131.186 130.219 128.229 126.501 126.409 126.296 126.139 125.994 125.954 125.981 126.844 126.054 126.821 128.741 128.479 126.444 126.379 125.159 127.986 128.841 129.239 131.386 134.251 132.611 133.404 129.821 125.656 125.901 125.561 125.039 124.721 125.101 127.366 127.074 127.756 130.049 130.071 130.254 129.696 126.664 127.811 126.829 124.264 123.856 123.819 123.806 123.876 123.686 123.646 123.731 124.236 123.546 124.341 123.824 123.531 123.049 122.594 121.916 121.266 121.076 122.549 120.789 120.804 120.441 122.316 124.429 124.791 121.194 122.936 122.819 121.291 121.576 123.401 124.284 124.729 120.811 119.716 121.046 122.844 125.986 123.024 120.896 121.359 119.901 123.221 122.616 121.586 120.119 118.604 118.234 119.419 118.116 117.941 116.779 116.676 116.564 116.536 116.426 116.051 115.936 115.919 115.936 115.936 115.894 115.869 115.836 115.801 115.716 115.359 114.651 113.811 113.471 113.436 113.449 113.446 113.456 113.431 113.441 113.491 113.756 113.796 113.756 113.701 113.694 113.651 113.626 113.591 113.564 113.479 113.441 113.369 113.319 113.286 113.264 113.224 113.041 112.616 112.084 111.959 114.624 117.729 117.941 114.361 113.351 112.301 111.611 111.551 111.549 111.589 111.519 111.271 110.811 110.576 110.501 110.366 110.361 110.304 111.769 116.386 118.939 120.421 114.979 116.751 123.359 120.736 116.341 118.731 118.954 115.841 110.316 111.874 111.276 110.214 110.481 110.509 109.744 114.529 115.131 116.939 116.689 114.946 115.951 113.096 116.304 111.989 110.386 110.591 112.451 110.936 111.149 111.416 109.786 113.469 115.519 116.639 116.239 113.156 111.561 106.631 106.534 106.376 106.396 106.441 107.196 108.144 108.266 109.779 107.921 106.421 106.361 106.373 106.381 108.106 110.496 109.341 107.388 106.421 106.448 106.461 106.603 107.163 106.808 107.671 107.751 107.328 109.173 109.206 108.688 106.943 106.753 106.456 105.978 105.798 105.793 105.788 105.908 105.988 105.856 106.883 110.768 114.013 115.128 115.191 113.416 108.633 105.786 105.676 105.048 104.186 104.091 104.053 104.116 104.066 104.118 103.973 103.943 106.996 108.361 108.923 109.908 107.176 110.311
112.779 112.946 112.639 112.376 112.354 112.349 112.314 112.321 112.449 112.769 112.794 112.776 112.751 112.736 112.866 112.741 112.766 113.231 116.141 115.601 119.089 117.824 118.994 119.519 118.186 121.541 121.699 119.079 119.326 120.409 120.514 120.509 120.676 120.706 124.781 122.079 120.486 124.439 127.506 128.186 128.356 130.254 130.031 129.896 129.899 130.284 129.229 127.711 126.549 126.704 130.231 134.239 137.851 133.774 132.731 129.284 129.669 129.421 131.946 132.776 135.821 133.671 131.111 130.826 130.339 131.309 133.016 131.194 129.291 128.846 128.911 130.279 130.374 130.484 130.886 131.604 128.786 129.106 128.971 128.204 128.316 128.324 128.194 128.731 128.146 127.641 127.701 127.551 127.261 127.221 127.234 127.249 127.241 127.276 127.496 127.494 127.319 127.316 127.419 127.366 127.269 127.311 127.404 127.534 127.651 127.616 127.551 127.539 127.836 127.519 127.304 127.291 127.276 128.714 130.064 129.056 126.411 126.389 126.664 126.961 126.961 126.941 126.904 131.441 131.536 128.929 126.551 126.354 126.249 126.126 126.019 126.006 126.121 126.141 126.161 126.204 127.259 126.669 127.864 129.721 126.519 127.444 127.926 126.059 127.271 128.969 132.536 133.821 132.514 128.591 127.949 125.301 124.876 126.344 127.214 127.294 127.249 127.146 128.219 130.071 129.659 130.129 128.391 127.129 127.016 124.879 124.976 123.771 123.769 123.706 123.671 123.829 123.756 123.811 123.559 123.439 122.079 121.874 123.991 124.031 123.669 123.036 122.591 124.956 121.891 122.909 122.551 122.819 126.311 125.559 122.876 122.814 122.846 121.054 121.126 122.419 124.559 124.666 121.139 119.546 119.816 122.364 123.161 121.154 120.814 121.371 122.854 121.581 120.624 119.924 118.196 118.969 118.351 117.924 117.376 116.981 116.786 116.631 116.444 116.419 116.369 116.226 115.971 115.919 115.904 115.884 115.831 115.831 115.771 115.626 115.101 114.276 113.664 113.466 113.459 113.494 113.461 113.449 113.454 113.444 113.469 113.436 113.569 113.724 113.704 113.689 113.656 113.624 113.611 113.546 113.486 113.441 113.391 113.329 113.291 113.246 113.201 112.949 112.289 111.934 111.889 111.876 112.534 116.931 118.279 115.121 115.249 112.039 111.374 111.294 111.171 111.096 111.036 110.811 110.474 110.394 110.379 110.194 110.156 110.134 110.366 110.616 118.951 120.409 121.299 115.631 113.659 118.139 117.091 117.161 115.839 110.459 111.016 111.499 111.819 111.064 110.206 109.704 109.829 117.654 117.621 115.959 117.529 115.439 113.021 114.469 115.539 114.384 112.134 108.916 110.184 110.434 113.746 112.254 112.676 114.524 112.711 114.761 116.196 111.771 107.429 106.169 106.154 106.196 107.589 113.536 110.526 108.014 111.684 108.756 109.031 106.389 106.368 106.328 106.346 106.356 106.368 108.098 106.398 106.376 106.413 106.418 106.441 106.443 106.486 108.513 109.076 108.941 106.946 109.533 108.653 107.033 106.421 105.996 105.778 105.808 105.828 105.791 105.763 105.906 105.898 105.926 106.156 110.553 114.268 113.543 106.358 105.766 105.631 105.021 104.188 104.081 104.028 104.043 104.048 104.213 104.051 104.011 103.906 104.468 108.481 108.186 107.961 111.291 108.768
112.784 112.539 112.336 112.331 112.346 112.516 112.379 112.416 112.366 112.441 112.751 112.794 112.796 112.836 112.804 112.766 112.739 113.894 116.091 116.914 120.031 119.211 118.851 120.436 119.154 118.409 125.509 119.459 119.689 120.286 120.464 120.529 120.621 120.644 122.346 120.654 121.376 124.139 124.836 125.144 126.529 129.139 129.134 129.099 129.116 129.316 127.916 127.181 125.461 129.521 131.599 132.956 132.736 131.809 132.901 129.096 130.036 129.876 133.174 130.946 133.929 133.434 129.836 132.536 129.534 128.916 129.619 129.506 130.724 129.341 131.974 130.106 128.236 128.251 128.226 128.319 128.769 128.899 128.766 128.454 128.996 128.114 128.054 127.994 127.631 127.444 127.211 127.089 127.106 127.141 127.146 127.174 127.219 127.221 127.231 127.211 127.231 127.274 127.184 127.344 127.394 127.319 127.501 127.784 127.594 127.564 127.529 127.499 127.426 127.369 127.326 127.246 127.226 127.859 129.004 128.759 127.086 127.546 127.674 126.761 126.764 126.734 126.781 127.599 130.134 129.299 126.966 126.476 126.204 126.119 126.031 126.014 126.071 126.076 126.106 126.124 126.149 126.426 127.989 129.389 127.386 125.449 126.104 128.686 128.376 128.716 130.704 132.901 131.371 128.501 125.784 125.124 125.304 126.534 127.166 127.156 125.479 124.584 124.924 128.631 130.044 129.756 127.436 124.651 124.264 123.786 124.579 123.746 123.839 124.139 124.139 124.346 123.716 123.304 123.036 122.306 121.654 124.831 124.251 121.524 122.481 124.489 124.611 122.626 124.021 124.961 124.319 121.841 126.229 124.861 122.754 120.184 121.074 121.439 124.024 123.234 121.924 126.346 124.181 122.331 120.324 122.771 119.641 120.024 119.529 119.116 119.221 120.699 121.334 121.706 120.694 118.379 117.259 117.056 116.866 116.799 116.709 116.549 116.384 116.294 116.334 116.289 116.066 115.896 115.866 115.854 115.789 115.736 115.504 114.796 113.931 113.546 113.501 113.481 113.474 113.459 113.466 113.451 113.456 113.444 113.466 113.451 113.449 113.616 113.671 113.664 113.626 113.581 113.539 113.489 113.416 113.376 113.364 113.296 113.231 113.144 112.701 112.164 111.939 111.891 111.869 111.844 111.806 112.399 112.924 112.034 111.919 111.214 111.154 111.071 110.966 110.749 110.581 110.441 110.251 110.281 110.179 109.984 109.951 109.934 109.849 112.399 118.649 118.814 115.796 113.899 110.949 117.599 118.091 115.756 113.936 111.571 110.909 110.209 112.954 114.176 112.084 109.214 111.671 117.244 117.831 116.941 114.474 112.891 112.346 113.949 113.514 115.814 111.066 112.564 110.584 110.636 111.281 112.256 112.791 113.444 114.684 114.256 111.896 108.619 106.704 105.956 106.284 111.206 113.619 113.579 113.031 110.746 109.994 111.191 108.536 106.916 107.136 106.286 106.286 106.298 106.328 106.328 106.496 106.366 106.371 106.353 106.348 107.188 106.753 109.306 107.148 109.603 109.996 110.701 110.058 106.346 106.013 105.793 105.791 105.796 105.791 105.798 105.783 105.723 105.978 105.998 105.928 106.176 108.078 107.583 105.753 105.688 105.156 104.106 104.128 104.053 104.043 104.106 104.128 104.766 104.103 103.943 104.016 103.853 105.013 106.668 106.453 108.176 105.781
112.904 112.379 112.354 112.344 112.379 112.571 112.526 112.396 112.369 112.394 112.516 112.761 112.799 112.864 112.834 112.946 113.071 115.039 115.531 115.404 120.684 123.954 118.821 120.231 119.984 121.314 124.026 121.669 119.976 120.099 120.311 120.686 120.994 121.151 120.666 120.759 123.016 124.829 124.779 126.974 129.209 128.871 128.171 127.274 128.186 129.344 131.241 132.374 128.116 127.576 128.916 132.591 129.279 132.629 132.209 128.909 129.959 129.961 132.166 132.536 130.509 137.296 132.351 130.614 130.791 128.594 132.004 130.686 130.644 130.874 131.324 130.436 130.221 129.874 130.424 130.954 133.601 133.776 132.584 128.764 128.269 128.396 128.076 127.599 127.051 127.126 127.056 126.996 126.984 126.996 127.019 127.119 127.146 127.114 127.076 127.114 127.144 127.119 127.159 127.729 130.114 131.376 129.989 130.916 128.239 127.679 127.491 127.436 127.439 127.381 127.334 127.246 127.176 127.169 127.139 127.461 128.049 130.776 127.919 126.901 126.736 126.699 126.659 126.986 128.026 128.791 127.484 126.801 126.176 126.106 126.026 125.999 125.966 126.016 126.069 126.106 126.089 126.076 126.111 126.539 126.214 126.511 127.104 129.731 129.721 133.469 132.534 133.154 128.999 125.431 124.664 125.541 126.166 126.116 126.256 124.994 124.499 124.324 124.049 125.489 129.171 125.669 124.014 123.876 123.836 123.766 124.334 124.024 124.181 125.374 124.731 123.826 123.646 122.554 121.694 123.621 121.831 123.796 124.716 122.141 122.599 123.294 121.456 124.306 124.364 123.514 122.994 124.219 121.856 121.711 121.304 122.754 124.791 125.671 126.304 124.436 123.279 123.526 123.231 123.029 124.529 124.321 121.566 119.469 119.146 120.249 121.214 118.924 120.414 119.741 119.931 117.241 117.094 116.929 117.139 117.199 117.471 116.549 116.286 116.149 116.229 116.159 115.936 115.841 115.804 115.796 115.691 115.249 114.474 113.664 113.529 113.496 113.476 113.516 113.489 113.486 113.471 113.474 113.466 113.459 113.444 113.449 113.416 113.439 113.601 113.611 113.576 113.504 113.441 113.419 113.384 113.321 113.296 113.251 113.061 112.459 111.991 111.899 111.899 111.866 111.844 111.799 111.771 111.744 111.694 111.074 111.071 110.971 110.901 110.804 110.736 110.579 110.369 110.169 110.124 110.096 109.976 109.809 109.721 109.699 110.234 114.681 117.579 115.469 114.899 113.751 117.886 116.211 117.881 117.811 119.079 114.171 111.049 113.279 114.209 114.671 116.684 111.419 112.579 115.921 117.231 115.784 115.519 115.459 110.239 111.496 111.639 115.574 111.896 109.794 110.416 110.654 111.071 110.484 112.199 112.436 113.191 112.151 107.654 106.279 106.196 105.706 109.951 114.994 113.556 113.114 116.179 112.186 108.064 107.996 107.951 109.199 106.293 106.446 106.238 106.261 106.283 106.313 106.731 106.458 106.316 106.278 106.293 106.363 106.846 106.961 111.091 112.556 113.126 109.593 108.836 108.563 105.746 105.768 105.751 105.746 105.763 105.781 105.766 105.716 105.706 105.958 105.953 105.856 105.818 105.736 105.671 104.913 104.188 104.166 104.033 104.361 105.701 104.468 104.078 104.153 103.983 104.023 103.876 103.956 106.446 106.086 104.563 104.703 103.953
112.766 112.349 112.396 112.376 112.371 112.441 112.546 112.426 112.399 112.361 112.439 112.771 112.741 112.731 112.756 112.846 113.214 114.959 115.591 115.741 116.209 120.801 120.976 120.311 120.699 121.761 122.466 120.209 120.314 120.351 120.809 120.846 121.141 121.026 120.779 121.274 124.546 124.661 125.714 129.214 128.831 126.186 125.261 125.064 125.104 132.336 132.949 132.741 132.051 127.791 128.091 131.159 130.094 130.701 128.864 128.211 128.926 128.421 127.564 129.394 128.364 130.334 132.041 126.964 128.576 128.611 128.856 127.719 129.216 129.361 127.469 129.661 130.654 131.329 131.236 131.091 134.409 135.491 132.966 128.839 126.886 126.949 126.994 126.979 126.921 126.891 126.899 126.871 126.936 126.974 126.994 127.046 127.054 126.991 126.989 127.046 127.049 127.029 127.239 128.666 132.799 132.886 132.546 130.394 127.821 127.486 128.231 127.276 127.361 127.366 127.314 127.261 127.166 127.126 127.091 127.404 128.879 133.176 128.346 127.469 126.799 126.666 126.644 126.574 126.556 127.134 128.446 128.709 133.369 130.074 126.251 125.951 125.924 125.949 125.981 126.379 126.116 126.041 126.014 126.329 126.031 125.889 128.679 130.046 130.554 131.029 136.121 134.484 129.814 126.911 125.224 125.664 128.146 127.639 125.274 124.501 124.389 124.164 124.179 124.184 125.121 123.971 123.924 123.854 123.801 123.719 123.616 124.486 124.301 125.269 124.056 123.591 122.619 122.284 123.356 124.266 123.161 124.199 124.411 123.156 126.391 122.699 122.931 123.136 125.916 123.839 125.721 123.789 124.509 121.934 125.804 119.719 125.671 130.544 128.569 124.909 121.664 121.769 120.956 127.256 124.854 125.386 124.781 123.079 119.519 121.809 123.049 120.279 119.434 121.124 119.179 119.014 117.546 116.776 116.736 118.086 118.674 117.199 116.169 116.051 115.911 115.846 115.756 115.754 115.779 115.606 114.999 114.146 113.581 113.524 113.521 113.529 113.496 113.499 113.469 113.481 113.464 113.451 113.456 113.446 113.461 113.429 113.439 113.416 113.504 113.574 113.514 113.451 113.376 113.326 113.316 113.259 113.156 112.886 112.221 111.919 111.881 111.861 111.856 111.829 111.794 111.784 111.754 111.726 111.694 111.076 110.834 110.779 110.661 110.551 110.459 110.341 110.094 109.989 109.981 109.896 109.781 109.629 109.456 109.741 111.444 118.411 122.509 114.084 112.399 114.964 111.974 113.419 118.684 122.904 117.136 115.056 113.626 110.336 112.381 112.799 112.341 110.031 113.081 112.654 116.374 112.406 112.434 118.414 114.519 109.586 108.824 112.141 110.666 107.561 109.709 107.759 109.701 109.046 107.256 108.984 108.676 109.054 109.354 107.781 105.531 105.424 106.961 109.716 110.549 110.856 110.841 111.319 107.124 106.249 107.041 107.969 107.541 108.191 108.983 106.183 106.208 106.271 106.243 106.233 106.203 106.183 106.251 107.078 108.693 110.758 111.683 117.243 113.146 111.381 112.768 109.771 105.726 105.728 105.718 105.713 105.741 105.761 105.726 105.718 105.723 105.706 105.968 105.856 105.723 105.673 104.786 104.488 105.191 105.816 105.593 104.093 104.593 104.056 103.908 103.888 103.856 103.818 103.796 103.803 103.766 103.746 103.726 103.701 103.778
112.549 112.471 112.594 112.446 112.324 112.331 112.346 112.411 112.754 112.349 112.329 112.731 112.809 112.659 112.819 113.069 114.939 115.221 115.436 120.029 118.486 121.534 119.266 120.044 123.859 125.744 128.964 120.684 120.481 120.566 136.879 127.366 120.884 121.884 123.016 123.269 124.719 125.006 128.851 129.226 125.831 125.191 125.401 125.301 125.176 125.326 132.566 132.876 132.324 126.704 125.014 124.939 125.716 127.326 125.299 125.199 125.154 125.454 125.759 126.366 125.959 125.894 126.444 125.249 126.146 126.956 126.841 125.739 125.961 126.061 126.266 127.631 128.854 128.514 127.761 127.851 134.576 135.521 133.016 129.224 126.651 126.834 126.919 126.884 126.816 126.776 126.796 126.851 126.896 126.886 126.899 127.011 126.946 126.891 126.944 126.994 126.996 127.216 128.121 128.484 132.121 132.656 131.744 131.159 128.741 128.666 127.579 127.486 127.224 127.281 127.279 127.214 127.181 127.091 127.049 127.014 128.241 132.616 133.039 130.941 129.326 126.836 126.636 126.576 126.516 126.544 126.994 129.661 136.026 131.759 127.814 125.926 126.166 125.936 125.934 125.966 125.956 126.176 126.909 128.344 126.436 126.149 128.796 129.911 131.621 132.109 132.716 134.041 131.586 128.871 127.086 125.699 127.591 128.241 127.226 124.904 124.224 124.039 123.999 124.169 123.956 123.944 123.901 123.834 123.749 123.656 123.524 123.804 124.106 123.821 123.131 122.449 124.099 124.104 125.126 125.724 124.829 124.051 126.429 122.659 123.659 121.081 121.516 121.896 124.044 122.759 124.766 125.249 123.266 122.521 124.749 123.566 121.874 123.594 122.836 121.319 121.879 124.696 130.101 131.846 127.274 126.996 123.719 124.806 119.384 123.929 129.736 123.954 119.639 120.754 120.774 119.116 117.451 116.709 116.561 117.181 118.216 119.314 122.744 120.991 115.799 115.689 115.656 115.619 115.294 114.611 113.801 113.539 113.524 113.539 113.509 113.501 113.481 113.506 113.484 113.484 113.446 113.471 113.469 113.434 113.446 113.446 113.424 113.416 113.394 113.494 113.449 113.406 113.349 113.294 113.231 113.124 112.534 112.051 111.871 111.851 111.834 111.809 111.804 111.801 111.776 111.789 111.766 111.699 111.656 111.279 110.651 110.584 110.436 110.309 110.151 109.996 109.899 109.839 109.756 109.676 109.559 109.401 109.199 112.114 116.449 121.754 126.249 117.101 119.599 117.804 113.261 114.619 120.201 121.701 120.826 117.069 110.564 109.499 111.519 109.514 111.676 112.176 114.274 115.251 116.916 115.741 112.404 117.501 115.039 108.989 109.206 109.859 106.974 106.699 106.721 105.926 105.849 105.749 105.681 105.599 106.384 107.581 107.941 106.521 106.094 105.131 106.076 105.106 111.346 109.044 108.099 111.479 111.121 110.134 112.064 108.489 109.126 107.276 108.253 106.863 106.093 106.181 106.203 106.141 106.086 106.113 107.536 110.066 110.393 107.643 108.783 115.303 110.493 110.796 109.551 106.911 105.691 105.681 105.696 105.706 105.723 105.726 105.708 105.711 105.726 105.731 105.731 105.678 105.681 106.043 106.363 108.196 108.143 107.681 106.816 104.226 103.973 104.028 103.973 103.863 103.928 103.826 103.808 103.781 103.831 103.823 103.683 103.653 103.676
112.591 112.509 112.374 112.341 112.324 112.324 112.346 112.434 113.336 112.391 112.371 112.729 113.009 112.669 112.829 114.706 115.614 115.251 115.189 116.434 117.159 116.904 117.466 117.716 118.851 126.624 122.926 120.554 120.736 120.971 120.704 121.001 120.719 121.614 122.954 123.301 124.721 125.151 129.271 128.869 125.226 125.516 125.376 125.191 125.196 125.236 127.579 129.759 126.731 125.151 124.979 125.094 125.159 125.731 125.296 125.121 125.151 125.821 125.586 125.321 125.519 125.171 125.316 125.364 125.076 125.141 125.324 125.509 125.731 125.941 126.171 126.369 126.471 126.656 126.589 126.766 132.799 135.454 134.134 129.091 128.316 127.701 127.011 127.286 126.754 126.669 126.704 126.714 126.804 126.761 126.904 126.951 126.861 126.871 126.931 126.996 127.004 127.131 127.276 128.719 128.489 129.019 129.499 129.544 130.579 128.679 127.991 127.706 127.059 127.196 127.221 127.199 127.141 127.091 127.014 126.946 126.919 127.421 130.294 129.294 132.909 127.659 126.681 126.554 126.479 126.446 126.311 127.151 128.784 128.741 129.294 127.904 127.549 125.904 126.489 126.226 127.291 128.419 127.796 126.166 128.206 126.126 128.151 128.989 129.769 132.169 133.631 131.599 128.539 128.511 128.199 127.324 127.239 127.974 128.116 125.364 124.309 124.089 123.981 123.934 123.934 123.886 123.864 123.779 123.924 124.024 123.576 123.614 123.956 123.049 122.334 124.316 123.881 123.516 126.424 124.171 126.259 127.676 125.991 123.766 120.829 120.129 123.254 122.359 121.151 124.221 122.429 123.411 125.431 124.494 122.674 122.859 119.596 120.496 120.841 121.794 121.659 122.721 122.609 122.346 123.636 123.534 123.051 123.349 122.114 119.929 127.124 125.174 120.506 119.141 120.389 120.046 118.769 118.241 116.446 116.366 117.001 121.861 123.839 124.016 116.691 115.556 115.499 115.309 114.781 114.064 113.561 113.546 113.531 113.524 113.516 113.506 113.511 113.506 113.506 113.499 113.496 113.471 113.469 113.449 113.456 113.446 113.446 113.429 113.391 113.414 113.421 113.361 113.309 113.231 112.951 112.359 111.931 111.851 111.834 111.811 111.794 111.761 111.766 111.769 111.781 111.761 111.696 111.581 111.229 110.709 110.481 110.321 110.251 110.054 109.921 109.809 109.699 109.624 109.529 109.406 109.304 109.191 110.174 114.316 116.221 117.856 119.176 116.486 114.036 119.561 114.171 113.699 117.256 116.416 116.061 115.934 111.261 112.761 113.606 111.504 115.421 115.046 112.684 116.509 116.356 109.586 108.589 109.696 109.784 107.811 106.036 105.969 105.936 105.879 105.834 105.714 105.651 105.519 105.369 105.269 105.836 110.531 108.039 109.669 105.536 105.239 104.756 106.024 109.874 111.466 108.724 115.116 111.314 109.721 113.174 114.106 112.236 116.371 109.581 107.318 105.976 106.028 106.023 105.953 106.211 106.968 110.728 113.316 113.356 109.926 109.136 111.171 113.821 111.278 109.183 106.756 105.636 105.653 105.681 105.668 105.681 105.706 105.711 105.721 105.718 105.703 105.723 105.608 105.661 109.593 108.041 109.013 108.458 108.388 108.121 106.848 104.083 103.851 103.963 104.846 104.238 103.808 103.741 103.738 103.746 103.808 103.791 103.658 105.373
112.666 112.594 112.404 112.341 112.329 112.319 112.339 112.584 113.104 112.304 112.419 112.919 113.081 112.759 113.409 115.379 115.344 115.524 115.916 116.171 116.954 117.094 117.696 118.139 118.966 122.314 120.696 120.689 120.736 120.901 120.804 120.889 120.681 120.496 120.749 122.654 124.956 124.674 129.224 127.829 125.236 125.259 125.209 125.149 125.209 125.204 125.174 125.336 125.184 125.039 125.184 124.964 125.061 125.459 125.609 125.946 125.119 125.579 125.264 125.091 124.924 124.916 124.951 124.986 125.016 125.104 125.336 126.101 126.471 126.451 127.031 125.979 126.794 130.486 130.241 130.291 133.344 135.551 134.054 131.021 128.451 127.284 127.769 127.294 126.691 126.616 126.649 126.684 126.724 126.711 126.851 126.824 126.786 126.826 126.886 127.009 127.034 127.401 128.631 127.094 127.261 127.166 127.489 132.186 135.306 130.354 129.954 129.946 127.054 127.084 127.129 127.146 127.114 127.049 126.979 126.911 126.881 126.864 127.751 129.521 131.751 130.226 131.196 126.874 126.534 126.579 126.571 126.491 127.721 128.396 128.956 129.301 127.751 125.919 127.544 128.009 127.776 128.224 127.731 126.646 126.306 125.486 128.151 127.994 130.201 131.831 132.199 130.684 125.004 127.459 128.549 127.811 127.141 126.794 128.219 127.391 124.776 124.154 123.966 123.929 123.889 123.864 123.806 123.751 123.691 123.481 123.306 123.301 123.264 122.809 122.631 121.896 123.986 123.254 124.514 125.411 124.464 127.129 121.201 125.301 122.031 122.634 124.059 119.956 122.649 121.884 123.624 120.631 122.486 122.329 123.089 119.539 122.351 121.369 119.386 123.529 119.019 123.829 121.039 120.581 123.896 120.626 123.244 121.126 119.546 124.136 121.471 120.909 120.904 120.744 118.934 118.876 119.581 120.504 117.351 116.199 116.939 120.121 121.939 120.016 117.814 115.476 115.301 115.134 114.811 114.269 113.771 113.586 113.546 113.539 113.521 113.521 113.526 113.494 113.494 113.466 113.474 113.489 113.491 113.456 113.456 113.459 113.436 113.441 113.426 113.386 113.384 113.314 113.214 112.754 112.116 111.879 111.876 111.861 111.836 111.786 111.744 111.724 111.721 111.721 111.689 111.674 111.524 110.981 110.611 110.431 110.289 110.136 109.994 109.891 109.776 109.811 111.494 110.034 109.281 109.154 109.966 109.504 113.186 116.876 116.149 115.979 118.386 113.681 112.191 118.176 112.484 108.916 112.871 117.991 114.401 113.704 110.759 113.046 113.384 112.294 113.186 113.851 108.511 110.366 110.416 109.129 110.251 111.139 109.884 105.886 105.809 105.831 105.776 105.626 105.536 105.776 105.266 105.121 104.996 104.916 105.519 107.411 109.039 106.571 105.216 104.406 104.401 109.191 111.001 107.891 106.234 110.654 113.929 114.951 114.136 117.441 115.431 115.561 108.643 108.511 108.226 105.811 105.808 106.036 109.416 109.583 110.911 112.246 112.451 112.383 109.841 109.423 110.803 109.471 108.253 107.828 105.618 105.618 105.651 105.673 105.693 105.698 105.693 105.678 105.646 105.596 105.483 104.756 104.303 108.373 111.093 110.581 109.583 109.051 108.791 106.111 103.908 103.846 106.233 107.956 106.286 103.803 103.713 103.826 104.026 103.866 103.708 107.133 110.708
112.116 112.491 112.386 112.311 112.309 112.329 112.346 112.491 112.709 112.331 112.644 113.066 113.071 112.756 114.646 116.446 115.431 115.546 115.966 116.591 116.736 117.434 117.974 118.094 119.221 120.636 120.806 121.011 120.716 122.391 124.339 124.436 124.231 123.126 123.544 125.801 129.184 128.899 133.486 129.681 126.949 125.241 125.206 125.236 125.261 125.221 125.179 125.101 125.131 125.014 124.979 125.031 125.031 125.246 125.526 126.186 125.171 125.554 125.304 125.516 125.049 124.941 124.971 124.966 125.014 125.134 125.809 130.261 131.196 130.821 128.801 125.511 125.674 131.566 127.371 126.941 131.661 135.519 134.436 130.326 126.941 126.796 126.934 126.884 126.724 126.546 126.561 126.654 126.629 126.659 126.766 126.766 127.546 126.874 126.899 126.964 129.071 131.621 128.609 127.136 127.094 127.484 131.016 134.984 137.056 134.426 129.234 132.051 129.071 126.981 127.021 127.046 127.074 127.051 126.981 126.944 126.869 126.799 126.754 127.369 132.501 134.969 131.121 128.244 127.309 127.079 127.506 127.481 126.741 129.446 128.959 129.239 128.094 126.379 126.716 127.686 128.636 128.076 128.399 127.831 126.646 125.559 127.359 127.701 128.529 130.686 130.661 129.594 124.704 125.081 128.004 127.991 125.979 124.626 127.511 128.254 126.946 124.291 124.014 123.909 123.864 123.819 123.766 123.701 123.839 125.771 124.061 122.634 122.359 122.841 127.676 127.061 125.379 124.134 126.819 125.661 123.471 122.976 122.984 126.861 125.144 124.769 122.679 121.331 123.994 124.779 122.629 120.589 123.516 121.299 124.316 122.531 124.399 119.576 121.451 120.834 119.231 118.696 119.291 126.219 125.681 123.951 126.591 121.911 121.614 120.649 120.704 120.791 121.516 120.616 119.649 121.144 120.664 122.519 120.851 119.271 120.766 122.554 123.339 121.024 117.709 116.669 116.086 115.004 114.821 114.459 114.046 113.659 113.554 113.549 113.539 113.519 113.521 113.484 113.511 113.514 113.481 113.471 113.476 113.456 113.469 113.469 113.444 113.431 113.449 113.406 113.394 113.321 112.766 112.089 111.844 111.826 111.844 111.829 111.791 111.749 111.691 111.651 111.626 111.614 111.566 111.314 110.766 110.504 110.381 110.259 110.089 109.944 110.771 112.354 110.596 112.111 113.886 111.456 109.956 112.294 112.896 110.869 111.179 113.584 115.974 112.609 113.754 114.876 117.729 122.989 124.159 112.716 112.221 114.679 111.486 111.121 109.311 109.166 112.704 113.594 112.816 110.721 107.356 106.851 106.696 109.509 108.731 109.241 107.901 105.709 105.649 105.581 105.484 105.344 105.259 105.704 104.974 104.849 104.734 104.639 104.536 105.429 108.681 108.204 104.029 103.936 103.959 107.241 108.389 105.521 106.721 105.944 110.779 109.149 109.594 113.704 115.611 111.551 105.876 110.248 107.671 105.776 105.723 106.153 110.088 108.548 110.278 109.128 108.226 106.816 106.061 105.656 105.803 105.648 105.631 105.528 105.513 105.563 105.661 105.666 105.658 105.681 105.671 105.626 105.566 105.483 104.403 105.833 105.821 109.261 105.986 110.716 109.673 108.748 106.651 104.308 103.843 103.763 104.496 107.381 104.931 103.823 103.668 103.753 103.723 103.676 108.001 112.263 111.596
111.296 112.304 112.516 112.351 112.304 112.299 112.319 112.326 112.336 112.599 112.786 112.914 112.704 113.206 115.941 116.674 115.366 115.541 116.174 116.729 117.541 118.286 118.611 118.841 119.856 120.874 120.984 122.044 124.379 124.891 124.894 125.256 124.831 124.851 127.416 131.069 132.706 135.191 136.476 134.251 132.304 128.874 126.289 125.194 125.201 125.226 125.184 125.184 125.109 125.004 125.014 125.036 125.011 124.974 125.026 125.504 125.034 125.289 125.116 125.081 124.959 124.939 124.949 125.081 125.171 125.684 127.806 128.606 129.381 133.184 131.016 126.554 126.296 130.481 129.294 127.171 130.904 135.241 134.439 129.679 126.844 127.004 127.034 126.741 126.526 126.479 126.511 126.581 126.564 126.666 126.671 127.031 128.621 129.926 127.294 127.011 129.636 132.946 131.724 128.206 127.451 130.564 135.394 136.786 137.321 136.219 131.684 130.009 130.049 128.744 127.199 126.956 126.974 127.009 126.981 126.924 126.844 126.769 126.789 126.874 130.449 131.204 130.346 129.219 132.141 131.039 129.526 128.731 129.744 131.611 130.261 130.109 133.464 127.316 125.871 126.029 127.774 127.884 128.384 128.559 128.784 125.754 126.254 127.881 125.981 126.599 127.779 125.186 125.656 125.126 125.654 125.009 124.494 124.826 125.249 127.921 128.061 125.994 124.124 123.919 123.869 123.816 123.729 124.016 124.756 128.134 127.264 123.436 122.386 123.124 126.906 128.629 129.234 125.519 125.626 123.496 124.139 126.786 124.006 126.301 125.066 121.229 120.819 121.646 124.951 125.904 122.196 128.209 120.041 118.751 125.004 122.831 121.944 118.176 118.156 118.341 118.639 118.581 121.189 121.996 123.356 123.636 126.461 126.409 124.291 122.736 124.331 121.561 119.891 124.786 119.364 120.624 121.491 124.116 118.194 117.726 121.186 119.364 122.296 120.119 116.106 119.486 118.131 116.016 114.734 114.541 114.209 113.829 113.601 113.534 113.534 113.519 113.511 113.504 113.489 113.491 113.514 113.486 113.486 113.474 113.446 113.449 113.419 113.431 113.414 113.406 113.371 113.341 113.079 112.394 111.886 111.831 111.829 111.799 111.739 111.711 111.621 111.601 111.586 111.456 111.086 110.621 110.434 110.306 110.171 110.004 109.904 111.081 113.199 115.829 114.196 117.366 113.609 115.134 113.719 110.141 110.604 108.596 108.784 110.854 113.036 113.596 112.724 117.764 113.366 122.294 124.674 119.781 110.724 110.206 111.529 109.309 108.829 111.336 112.549 113.571 113.616 111.069 107.504 105.824 105.804 106.696 106.046 105.601 105.521 105.419 105.334 105.259 105.194 105.054 104.951 104.856 104.691 104.576 104.441 104.376 105.594 105.011 107.794 111.046 104.751 103.534 103.566 103.636 103.739 103.819 103.826 104.591 108.131 106.874 112.061 113.779 107.523 109.226 108.133 111.706 108.478 106.136 105.528 106.223 106.761 107.038 107.358 107.348 106.303 105.141 105.796 105.508 105.711 105.741 105.606 105.498 105.456 105.513 105.626 105.658 105.643 105.616 105.598 105.573 105.371 104.938 105.748 107.628 104.933 106.658 110.476 107.068 110.316 108.581 105.373 103.786 103.751 103.743 103.726 103.868 103.696 103.673 103.638 103.643 103.676 104.928 108.088 106.733 115.386
111.299 111.281 112.006 112.564 112.404 112.339 112.349 112.394 112.676 112.794 113.036 112.919 112.654 113.984 115.784 115.756 115.484 115.981 116.396 116.881 117.609 118.211 118.809 119.369 120.814 121.271 121.249 121.819 124.889 125.071 125.064 124.711 126.041 129.524 131.441 134.044 136.821 137.404 137.744 137.236 135.921 134.586 132.419 126.891 125.209 125.239 125.224 125.176 125.151 125.154 125.369 125.216 124.946 124.931 124.951 125.914 126.249 125.421 124.971 124.984 124.964 124.944 124.976 125.436 125.906 125.966 129.379 130.831 128.641 129.716 129.074 126.384 124.994 129.556 128.266 130.654 131.949 135.271 134.764 129.881 128.409 127.636 127.001 126.529 126.406 126.396 126.469 126.461 126.491 126.621 126.729 128.481 130.274 129.056 130.019 127.956 126.939 130.426 133.969 131.019 130.624 135.574 136.611 137.501 136.224 134.859 131.446 130.909 132.076 131.081 128.099 126.886 126.849 126.886 126.936 126.884 126.841 126.794 126.861 127.154 126.696 127.334 128.806 131.409 132.649 131.546 128.494 135.454 136.191 127.314 129.421 134.396 136.309 131.209 128.636 130.379 126.281 126.784 128.536 127.454 127.944 125.909 125.586 124.939 125.179 125.914 126.994 124.849 126.084 125.561 124.639 124.414 124.236 124.874 125.156 126.334 128.146 127.089 124.654 124.064 123.941 123.776 123.831 126.924 125.259 126.536 125.374 125.009 124.726 127.141 125.906 126.419 124.164 122.956 122.961 122.469 122.576 126.004 120.504 124.779 124.776 123.176 122.459 120.709 124.574 124.404 126.491 128.034 119.921 118.469 124.969 124.259 119.379 118.579 117.941 117.919 120.336 119.709 123.831 122.704 120.976 122.039 123.236 125.516 124.866 120.251 123.984 122.059 120.331 120.874 119.611 121.761 119.126 121.581 120.309 117.324 118.086 117.849 123.349 123.411 118.621 116.719 115.939 118.361 116.294 114.496 114.309 113.971 113.741 113.554 113.514 113.534 113.526 113.504 113.519 113.511 113.499 113.489 113.476 113.489 113.476 113.446 113.451 113.436 113.421 113.416 113.386 113.401 113.339 112.876 112.131 111.826 111.804 111.764 111.689 111.629 111.571 111.559 111.344 110.856 110.509 110.374 110.226 110.081 109.911 109.824 109.786 112.456 112.171 114.221 112.909 112.929 112.926 114.871 114.004 110.311 109.044 108.246 108.106 109.459 110.104 114.169 116.084 111.661 109.434 118.601 125.461 121.124 111.919 107.864 110.694 109.809 108.896 107.574 113.619 113.456 113.771 113.239 110.216 106.826 105.544 105.481 105.416 105.281 105.181 105.084 105.021 104.964 104.881 104.794 104.676 104.544 104.419 104.301 104.169 104.036 106.026 107.754 111.444 105.999 106.734 103.189 103.164 103.269 103.304 103.446 103.571 104.761 109.166 104.404 110.641 112.491 108.841 109.416 107.356 111.643 108.536 107.056 105.406 105.748 107.001 108.353 108.986 107.423 105.051 104.918 105.521 105.493 105.458 105.616 105.573 105.506 105.463 105.556 105.626 105.631 105.661 105.583 105.516 105.448 104.501 103.973 109.061 109.988 103.968 106.988 108.476 107.826 109.738 110.296 105.711 103.788 103.721 103.673 103.678 103.636 103.598 103.603 104.158 106.956 111.266 110.471 105.881 104.808 108.096
111.671 111.806 111.391 111.489 112.274 112.684 112.751 112.804 112.801 112.814 112.849 112.766 112.741 113.866 115.806 115.569 115.714 116.146 116.036 116.916 118.044 118.381 119.349 119.601 121.096 121.326 121.649 121.259 124.411 124.979 125.176 127.731 130.374 132.846 136.096 138.159 139.131 139.139 139.246 137.879 137.424 136.486 134.249 125.974 125.186 125.221 125.221 125.231 125.394 126.146 125.431 125.241 125.241 124.944 124.946 125.141 125.016 124.926 124.951 124.999 125.001 124.944 124.951 125.526 125.691 125.389 126.241 131.846 127.779 130.606 127.896 126.411 124.924 128.116 132.954 131.251 129.566 135.221 134.931 132.369 128.409 127.091 126.654 126.314 126.279 126.309 126.369 126.401 126.486 126.531 127.326 128.011 128.654 130.559 129.409 128.086 126.869 127.419 128.764 131.869 135.176 136.581 137.231 136.199 134.039 131.554 131.116 131.271 131.241 130.441 129.554 127.246 126.781 126.794 126.844 126.841 126.814 126.746 126.664 126.614 126.566 126.484 126.911 131.464 130.701 133.251 132.141 134.554 136.299 129.709 132.096 131.354 134.051 131.694 128.704 131.716 126.734 126.341 129.574 128.421 129.089 125.296 125.036 124.814 125.151 125.986 126.834 124.851 126.124 125.984 125.336 124.336 124.146 125.664 126.386 124.741 125.821 124.759 124.664 124.301 124.159 124.026 123.931 124.186 126.844 125.621 129.324 126.624 126.676 126.371 124.179 126.421 124.011 123.989 123.436 124.264 123.971 122.324 121.514 123.656 120.726 122.181 122.521 120.704 123.739 124.306 124.596 127.696 120.291 120.084 121.284 120.379 121.754 118.256 118.011 117.709 117.986 117.864 120.989 125.426 122.919 122.509 123.084 120.961 122.321 119.551 124.679 121.241 117.874 122.056 120.866 119.266 119.159 120.651 120.586 118.586 117.386 119.059 122.731 121.149 122.321 119.696 119.116 121.874 115.521 114.424 114.281 114.079 113.859 113.634 113.574 113.556 113.516 113.516 113.519 113.514 113.516 113.491 113.516 113.489 113.454 113.466 113.446 113.429 113.441 113.434 113.409 113.399 113.374 113.161 112.444 111.851 111.764 111.724 111.639 111.581 111.519 111.129 110.636 110.399 110.276 110.134 110.021 109.914 109.799 110.201 111.359 110.796 112.134 111.919 113.626 113.879 110.466 112.444 110.594 108.591 109.476 108.551 107.886 107.766 108.186 110.019 110.411 118.336 111.461 117.076 119.921 112.291 107.841 106.869 108.449 109.359 108.879 107.331 110.324 114.076 112.389 109.001 108.756 105.459 105.354 105.226 105.079 104.974 106.574 106.964 105.856 104.716 104.616 104.541 104.424 104.296 104.149 104.004 103.886 103.736 103.569 104.914 108.084 107.521 103.981 102.874 102.851 102.891 102.946 103.029 103.209 103.384 106.594 105.404 109.016 111.014 113.801 112.458 108.128 110.716 111.403 111.141 105.678 105.081 106.416 108.506 105.761 108.526 109.383 105.901 104.713 105.011 105.398 105.461 105.528 105.638 105.576 105.606 105.643 105.731 105.558 105.561 105.351 104.698 104.018 103.938 108.266 105.731 109.013 108.446 107.561 108.973 107.156 108.336 106.118 103.863 103.716 103.601 103.651 103.703 103.626 104.391 105.688 105.576 110.976 107.913 110.436 109.218 107.158
111.289 111.226 111.706 111.626 112.341 112.781 112.819 112.791 112.806 112.784 112.779 112.806 112.879 113.596 115.779 115.431 115.391 116.211 116.324 116.954 117.799 118.506 119.289 120.261 121.171 121.471 121.526 121.494 125.049 125.039 126.064 131.679 134.429 137.214 138.359 139.264 139.836 140.276 140.094 139.039 139.099 138.369 136.174 129.934 125.181 125.206 125.234 125.221 125.764 127.874 126.646 125.281 125.721 125.519 124.919 124.929 124.934 124.934 124.936 125.004 125.006 124.951 124.934 125.021 125.611 125.471 125.541 126.271 129.254 126.609 126.496 126.024 124.899 127.874 132.141 131.449 132.954 134.901 134.291 131.814 128.454 126.684 126.291 126.166 126.231 126.251 126.309 126.361 126.429 126.474 127.761 131.296 129.971 130.294 128.076 128.539 126.786 126.741 126.716 130.729 136.731 137.281 136.191 134.369 131.189 130.799 131.181 131.181 130.249 129.469 128.624 129.639 126.824 126.696 126.744 126.766 126.759 126.699 126.646 126.549 126.501 126.471 126.394 128.656 128.389 131.234 135.836 135.514 133.114 136.074 134.031 133.834 133.139 136.076 133.929 128.669 127.181 125.754 129.606 129.686 128.791 125.324 125.926 124.764 125.169 125.049 127.129 126.104 125.779 126.554 126.219 125.176 124.269 125.016 125.516 124.924 124.631 124.649 124.641 124.564 124.141 123.961 123.996 127.471 126.554 127.299 134.339 129.934 126.011 123.719 123.759 124.844 122.986 126.799 127.494 125.551 125.444 122.476 121.394 122.811 123.116 127.006 123.031 123.001 122.166 124.351 124.574 120.386 118.216 118.176 119.576 123.294 123.884 121.544 121.164 117.594 117.481 117.501 118.971 122.536 123.459 123.149 122.431 121.571 125.709 122.626 123.361 120.006 119.089 119.874 120.219 122.106 123.021 118.379 120.801 120.304 119.239 116.011 118.634 116.874 121.236 121.476 116.171 119.364 116.919 114.334 114.221 114.081 113.914 113.766 113.591 113.561 113.539 113.536 113.506 113.486 113.506 113.506 113.489 113.496 113.466 113.454 113.459 113.456 113.439 113.434 113.404 113.359 113.231 112.624 112.049 111.774 111.699 111.656 111.576 111.416 110.929 110.439 110.271 110.151 110.034 109.914 109.836 110.734 111.696 111.134 110.464 112.734 113.599 112.691 113.524 111.349 109.114 109.494 109.954 108.896 108.126 107.871 107.686 107.551 109.146 109.614 120.309 117.854 117.684 112.584 110.759 109.721 107.069 106.544 106.859 106.659 108.229 107.911 109.489 110.634 110.819 106.504 105.351 105.236 105.094 104.904 104.811 105.086 106.461 107.209 106.834 104.426 104.359 104.276 104.169 104.031 103.901 103.756 103.601 103.426 103.221 103.076 102.939 102.936 102.681 102.596 102.549 102.571 102.624 102.694 102.814 102.984 103.171 110.266 112.026 108.294 109.706 112.436 109.511 106.248 108.426 110.421 107.461 104.998 106.213 106.996 107.896 108.186 110.786 111.471 104.483 104.556 104.716 105.228 105.458 105.648 105.623 105.578 105.638 105.638 105.466 105.331 104.553 104.121 104.863 103.843 105.346 105.191 109.301 109.046 107.708 107.038 111.346 110.903 104.968 105.981 103.681 103.561 103.571 103.893 105.203 108.488 105.938 109.381 109.348 108.588 105.718 110.701 112.333
111.261 111.241 111.229 111.309 111.544 111.634 112.246 112.964 112.796 112.809 112.786 112.736 113.051 113.784 115.839 115.581 115.686 115.999 116.434 117.224 117.999 118.741 119.526 120.479 121.966 121.534 122.524 124.544 125.049 125.211 128.551 135.136 136.771 138.169 139.476 140.059 140.349 140.424 140.449 140.204 140.171 139.001 137.539 134.831 127.161 125.186 125.204 125.339 125.261 126.776 127.714 125.679 125.466 125.569 125.174 124.926 124.946 124.939 124.939 124.936 124.951 124.931 124.934 124.944 125.176 125.604 125.631 125.959 126.191 126.214 126.201 125.369 125.669 130.069 132.914 133.041 133.506 133.441 132.504 129.024 126.551 126.121 126.101 126.139 126.199 126.226 126.241 126.289 127.836 130.269 131.239 131.481 131.231 130.534 126.709 128.501 126.691 126.756 126.624 127.354 136.006 136.256 135.044 133.636 130.724 130.294 130.914 131.149 129.494 128.536 130.424 131.704 127.774 126.724 126.849 126.774 126.684 126.631 126.561 126.516 126.434 126.376 126.356 126.314 126.976 131.191 132.131 133.676 136.201 133.414 132.204 130.219 131.841 134.764 135.806 134.451 130.836 126.859 126.601 127.924 125.871 124.929 125.074 124.799 124.904 125.191 127.809 128.666 126.274 125.614 125.766 125.496 124.566 124.141 125.219 125.061 124.826 124.756 124.851 125.111 125.859 125.579 125.886 127.614 125.941 125.326 131.414 129.896 127.236 125.759 124.316 123.871 121.379 130.124 129.514 123.881 122.744 124.934 121.054 123.191 122.414 121.386 123.194 125.064 120.886 120.361 120.999 121.554 120.576 119.084 123.589 123.381 123.786 121.676 118.744 118.271 120.214 117.326 120.014 123.671 120.971 121.374 121.254 123.689 127.014 122.761 120.494 119.866 117.739 118.166 119.319 123.329 122.894 119.754 116.989 122.386 117.184 115.189 115.004 114.871 118.229 117.264 115.244 115.516 115.536 114.211 114.144 114.041 113.911 113.816 113.684 113.589 113.511 113.526 113.531 113.543 113.498 113.508 113.493 113.481 113.481 113.486 113.456 113.448 113.448 113.451 113.428 113.066 112.488 111.951 111.788 111.691 111.633 111.551 111.291 110.666 110.323 110.183 110.048 109.908 109.876 109.853 109.971 112.126 113.218 114.031 114.851 112.623 109.503 109.101 108.818 110.261 108.433 109.613 108.136 107.863 107.768 107.568 107.508 107.338 113.843 113.908 113.066 107.408 111.418 111.723 106.973 106.573 106.683 106.496 106.546 106.868 108.106 109.048 108.758 107.033 108.923 105.268 105.141 104.938 104.753 104.648 104.581 104.488 104.406 105.963 106.001 104.213 104.118 104.028 103.923 103.803 103.643 103.458 103.291 103.118 102.923 102.726 102.636 102.496 102.411 102.313 102.261 102.266 102.311 102.378 102.448 102.566 102.773 106.401 105.983 107.223 106.531 110.901 108.233 104.603 107.461 110.628 109.338 105.446 109.806 108.398 111.886 112.076 112.281 105.893 104.396 104.383 104.441 104.711 105.121 105.433 105.611 105.603 105.511 105.433 105.303 106.821 108.816 109.016 110.123 106.711 104.231 103.881 104.028 104.023 106.853 104.523 104.091 108.821 103.741 103.706 103.591 103.523 103.611 103.893 105.696 108.728 109.686 117.268 109.031 111.193 105.511 108.066 113.263
111.281 111.201 111.269 111.294 111.206 111.219 111.481 112.741 112.841 112.796 112.694 112.601 112.746 113.979 115.484 115.644 116.039 116.029 116.761 117.554 118.254 119.016 119.744 120.956 121.571 121.626 123.376 125.051 124.996 124.766 129.926 137.029 138.359 139.654 140.246 140.374 140.784 140.829 140.526 139.741 139.909 139.841 138.464 136.634 132.341 125.131 125.166 125.204 125.446 125.171 125.591 125.164 125.469 126.206 125.444 124.931 124.931 124.946 124.934 124.949 124.944 124.949 124.929 124.936 124.929 125.511 126.441 125.061 125.429 125.396 125.219 125.091 130.126 133.004 132.951 132.936 133.104 130.876 129.361 127.891 125.969 125.954 125.971 126.041 126.131 126.199 126.184 126.229 126.994 130.566 129.456 129.271 129.949 128.799 126.594 126.601 126.606 127.366 127.106 126.504 127.254 131.794 133.909 134.166 132.831 130.586 129.919 127.714 127.091 127.046 128.376 129.551 127.161 127.009 127.426 126.829 126.596 126.569 126.531 126.459 126.369 126.494 126.279 126.266 126.231 127.104 131.344 131.241 129.044 130.849 131.624 129.239 132.826 135.104 135.744 135.504 134.386 128.081 125.251 125.119 125.029 124.919 124.789 124.641 124.826 125.909 125.984 130.104 126.994 125.056 124.721 124.759 124.339 124.061 123.981 124.334 125.291 124.939 124.749 124.789 125.969 124.876 124.881 128.164 126.389 123.741 126.316 126.951 128.484 127.981 121.851 122.636 121.226 123.864 125.276 122.581 126.461 129.056 123.931 124.889 123.914 120.449 125.481 121.604 119.369 123.339 122.424 120.724 122.181 127.759 124.624 123.166 122.291 120.566 119.529 123.489 125.466 118.426 117.931 118.856 123.471 119.104 118.681 122.461 121.759 118.534 120.604 121.009 117.736 118.681 117.076 118.294 119.179 121.241 118.994 118.659 119.516 116.324 114.904 116.686 114.796 116.024 115.184 115.224 115.584 114.216 114.114 113.981 113.891 113.819 113.736 113.621 113.516 113.503 113.508 113.503 113.526 113.506 113.468 113.461 113.491 113.483 113.488 113.456 113.426 113.341 112.846 112.258 111.943 111.796 111.706 111.603 111.443 110.966 110.501 110.276 110.101 109.988 109.873 109.841 110.478 111.703 111.118 117.986 114.731 115.278 113.313 108.656 107.653 107.688 107.701 110.013 109.921 107.836 107.666 107.603 107.511 107.348 107.251 107.638 115.101 113.728 110.411 108.733 117.336 113.516 106.208 106.296 106.386 105.958 105.843 105.763 105.821 107.211 106.946 105.371 105.233 105.058 104.811 104.638 104.511 104.411 104.678 105.728 104.371 104.476 104.128 103.948 103.876 103.773 103.661 103.483 103.341 103.168 103.001 102.818 102.646 102.496 102.348 102.236 102.118 102.028 101.966 101.981 102.011 102.046 102.123 102.226 102.418 104.013 104.738 108.128 103.218 103.636 105.191 104.016 107.601 109.123 106.181 109.956 108.821 108.056 109.896 113.376 108.571 105.273 104.706 104.273 104.261 104.311 104.578 105.146 105.398 105.446 105.441 105.351 104.291 109.313 110.621 111.261 112.088 108.868 104.543 103.708 103.731 103.771 103.671 103.668 103.643 103.588 103.593 103.561 103.531 103.473 103.466 107.986 107.478 109.723 113.131 115.308 114.283 110.316 108.378 112.303 112.033
111.241 111.281 111.266 111.261 111.211 111.226 111.751 112.891 113.049 113.034 112.801 112.741 113.259 114.836 115.399 115.791 116.204 116.331 117.051 117.826 118.539 119.256 120.001 121.509 121.554 121.651 121.996 123.896 124.901 125.961 131.494 135.594 138.496 139.556 140.334 140.409 140.561 141.629 140.919 140.691 140.284 140.326 139.291 137.806 136.896 126.459 125.139 125.366 125.186 125.061 125.384 126.029 125.804 125.854 126.079 125.009 124.949 124.944 124.926 124.961 125.376 125.329 124.926 124.944 125.019 126.074 125.489 125.721 126.081 125.821 124.889 125.241 126.944 132.769 132.719 131.519 130.184 129.084 126.524 125.811 125.829 125.899 125.924 125.984 126.034 126.044 126.156 126.179 127.349 129.656 130.241 128.436 126.519 126.821 126.534 127.086 126.591 126.624 128.601 133.404 128.121 126.949 133.671 134.139 132.714 128.909 127.236 126.721 126.751 126.911 126.989 128.599 129.299 129.466 126.996 126.581 126.516 126.499 126.456 126.361 127.314 134.624 132.621 126.696 126.216 126.076 126.651 128.166 127.196 132.261 132.094 129.854 131.721 134.699 133.759 134.276 132.601 129.301 125.156 125.094 125.041 124.969 124.834 124.671 124.551 124.706 124.754 127.381 127.899 125.939 124.986 125.291 124.156 123.936 124.619 125.104 124.796 125.171 124.054 124.241 125.649 126.446 126.801 128.606 127.469 125.224 125.309 125.526 126.319 125.911 124.069 124.816 125.789 123.011 122.684 122.684 127.064 127.239 127.341 125.409 122.889 123.554 123.799 120.356 119.974 123.601 120.644 118.656 127.186 127.879 124.114 122.331 123.534 123.199 121.444 122.949 124.611 120.286 118.901 120.686 124.021 119.781 120.114 120.729 119.624 120.616 121.994 124.224 122.311 122.636 117.451 118.549 118.654 116.849 118.801 117.669 117.289 115.744 115.756 116.051 114.489 119.596 116.479 115.251 115.259 115.504 114.091 113.956 113.881 113.811 113.666 113.569 113.533 113.518 113.518 113.506 113.496 113.486 113.493 113.486 113.471 113.476 113.473 113.456 113.183 112.603 112.071 111.861 111.828 111.693 111.573 111.303 110.713 110.373 110.201 110.068 109.976 109.898 109.973 110.351 110.521 112.371 114.523 111.456 117.988 113.081 108.521 107.186 107.276 107.163 108.428 113.298 114.281 107.976 107.768 107.721 107.603 107.326 107.048 109.878 109.906 106.683 107.561 109.646 111.568 110.126 105.973 105.853 105.778 105.771 105.718 105.731 105.546 105.441 106.278 105.191 104.941 104.726 104.566 104.423 104.343 104.196 105.671 109.653 109.721 110.371 108.316 103.743 103.636 103.536 103.408 103.246 103.068 102.898 102.726 102.578 102.421 102.256 102.113 101.968 101.863 101.751 101.683 101.693 101.716 101.731 101.793 101.938 102.138 105.246 103.323 103.623 102.931 103.098 103.283 103.753 106.563 106.796 106.053 105.526 109.998 108.858 112.066 112.543 111.063 106.773 104.748 104.211 104.173 104.171 104.201 104.521 105.328 105.371 105.313 104.166 104.923 110.818 111.231 111.263 111.821 109.623 106.456 103.723 103.716 103.708 103.638 103.628 103.588 103.641 103.598 103.586 103.488 103.428 104.291 112.016 109.731 107.211 117.533 115.421 116.131 113.721 109.436 111.173 109.748
111.279 111.314 111.261 111.266 111.256 111.249 112.189 113.004 115.881 117.006 112.796 112.781 114.376 115.414 115.244 115.781 116.119 116.531 117.299 118.091 118.796 119.541 120.271 121.624 121.554 121.599 121.839 122.071 124.429 124.926 129.711 131.681 137.471 138.654 140.414 140.964 140.471 140.764 141.201 141.266 140.621 140.414 140.139 139.424 138.414 130.301 128.231 126.231 125.181 125.094 125.049 125.154 125.081 125.299 125.404 124.946 124.946 124.971 124.974 124.959 125.674 126.761 125.464 124.931 125.034 125.096 124.931 124.944 125.039 125.091 125.014 125.264 124.999 127.756 130.136 128.626 128.386 125.896 125.684 125.754 125.816 125.879 125.874 125.939 125.976 126.039 126.126 126.186 126.241 126.549 126.456 126.749 126.504 126.501 126.529 126.909 127.029 129.411 135.409 136.881 134.064 126.256 127.479 132.834 129.494 126.796 126.751 126.594 126.571 126.411 126.134 126.109 128.439 130.454 127.331 128.066 126.466 126.409 126.371 127.371 135.764 146.041 145.929 133.426 128.396 131.874 132.144 126.246 126.234 125.619 125.946 128.571 130.441 133.246 133.174 129.229 128.454 129.049 127.241 125.466 126.871 127.354 124.861 124.694 124.556 124.551 124.951 125.829 127.956 126.626 125.564 125.829 124.949 124.711 125.639 126.294 124.861 124.669 125.119 124.959 125.794 125.109 128.066 127.416 128.079 127.629 126.071 126.001 127.524 122.751 121.481 122.519 124.506 125.771 125.796 121.891 123.866 124.971 123.121 127.884 122.471 125.441 126.746 118.999 119.626 119.996 118.349 121.834 124.116 125.936 122.486 119.769 121.164 120.609 121.306 124.101 124.881 118.031 116.911 121.241 122.216 123.214 119.474 121.921 125.601 119.124 119.931 122.561 123.484 122.211 119.934 117.591 118.019 118.766 118.731 121.254 117.504 116.484 117.279 117.969 116.066 115.444 116.636 114.854 115.411 115.546 115.159 114.216 113.786 113.689 113.601 113.596 113.638 113.561 113.503 113.526 113.513 113.483 113.486 113.501 113.513 113.483 113.381 112.941 112.338 111.901 111.801 111.771 111.698 111.526 111.081 110.541 110.281 110.643 110.043 110.013 112.383 110.688 111.661 109.751 111.943 117.763 114.293 109.726 113.336 110.411 107.253 107.053 107.111 107.013 109.043 109.818 114.831 110.973 108.081 107.616 107.491 107.118 106.811 106.756 106.611 106.481 106.346 107.141 110.301 109.591 105.901 105.806 105.728 105.651 105.586 105.478 105.411 105.271 105.108 104.836 105.483 106.403 106.248 105.991 105.043 104.013 106.668 108.621 109.523 108.098 109.411 104.603 103.391 103.261 103.138 103.003 102.868 102.668 102.491 102.323 102.176 102.028 101.878 101.748 101.608 101.491 101.433 101.408 101.418 101.446 101.501 101.623 102.846 103.863 106.681 105.098 102.581 102.798 102.988 103.873 107.961 110.796 107.283 103.891 105.993 113.148 108.173 110.671 110.496 107.718 103.816 104.036 104.126 104.113 104.061 104.086 104.226 104.968 104.521 105.691 106.033 108.336 111.146 110.576 111.188 110.161 104.546 103.716 103.733 106.113 109.033 104.021 103.583 103.676 103.626 103.603 103.551 103.378 103.353 107.066 112.243 112.253 117.138 116.378 115.391 112.726 108.563 106.473 102.473
111.239 111.324 111.256 111.234 111.246 111.311 112.501 112.836 113.244 113.009 112.904 113.301 115.331 115.256 115.314 115.794 116.144 116.811 117.564 118.304 119.034 119.759 120.609 121.744 121.601 121.706 121.834 122.386 122.404 124.126 125.541 131.071 132.849 137.069 139.189 140.741 140.381 140.579 140.991 141.411 140.814 140.536 140.401 140.176 139.151 137.176 130.314 128.164 125.176 125.191 125.084 125.139 125.209 125.844 125.099 124.966 124.969 125.219 125.229 125.361 125.369 126.389 125.461 124.949 125.116 125.026 124.991 124.961 125.189 124.966 125.204 125.241 125.021 126.184 127.346 127.314 125.791 125.634 125.664 125.704 125.766 125.766 125.786 125.856 125.951 126.016 126.386 126.744 126.244 126.304 126.359 126.416 126.776 126.981 126.524 127.644 132.301 136.044 137.449 138.001 136.804 131.076 125.909 128.136 129.104 129.109 127.116 126.569 126.414 126.174 126.076 125.989 126.349 128.299 128.941 130.259 127.884 126.329 126.279 130.204 144.774 153.639 152.961 146.761 136.226 135.284 134.581 131.329 125.721 125.046 125.281 125.989 126.726 130.194 132.894 132.096 132.066 126.979 125.011 125.449 129.109 130.056 126.116 124.739 124.614 124.859 124.976 126.099 126.311 128.104 126.616 126.916 125.361 126.396 126.379 125.681 124.496 124.034 126.071 125.331 124.061 125.196 126.049 123.726 124.909 127.336 126.979 123.461 122.764 121.241 122.081 123.036 125.476 127.941 127.316 122.374 127.944 126.924 122.699 122.096 120.619 123.589 123.674 122.989 123.484 121.449 118.441 124.629 123.309 125.056 122.184 122.731 120.501 124.376 123.999 125.259 123.346 120.964 116.936 116.729 122.956 124.114 120.791 122.696 123.499 117.976 119.369 120.779 118.476 121.454 119.659 118.716 118.516 116.966 120.566 121.071 119.436 117.996 116.804 119.894 120.691 114.976 114.511 116.969 118.979 116.519 116.149 118.206 113.664 113.604 113.596 113.641 113.673 113.631 113.508 113.481 113.523 113.511 113.493 113.503 113.521 113.291 112.713 112.096 111.816 111.756 111.721 111.681 111.478 110.831 110.458 111.591 112.551 114.931 110.123 110.926 114.928 117.196 117.003 112.618 110.068 109.981 116.408 111.128 110.711 108.786 107.083 107.066 107.106 107.058 107.683 109.173 109.426 109.308 110.123 107.466 107.376 106.861 106.608 106.553 106.431 106.313 106.173 106.396 107.423 107.788 105.976 105.691 105.593 105.546 105.458 105.338 105.188 104.993 104.741 105.793 107.296 108.106 107.773 107.768 104.398 103.811 106.363 104.338 108.853 104.648 107.443 104.736 103.151 103.026 102.888 102.756 102.641 102.448 102.253 102.106 101.956 101.776 101.621 101.481 101.351 101.216 101.138 101.111 101.128 101.146 101.233 101.366 102.218 105.093 102.978 102.236 102.266 102.488 102.728 103.173 105.361 109.646 104.196 103.463 103.746 107.956 107.968 105.743 103.788 103.531 103.533 103.921 104.428 104.041 103.986 103.956 103.966 103.958 103.886 104.586 107.278 104.978 105.831 105.196 105.858 104.601 103.723 103.648 104.391 110.458 103.646 105.533 103.521 104.653 103.906 103.541 103.536 103.423 105.396 108.368 112.188 112.896 114.966 115.363 111.181 110.463 109.623 104.113 102.458
111.229 111.249 111.241 111.221 111.236 111.496 112.751 113.014 112.999 112.776 113.086 114.131 115.641 115.306 115.516 115.744 116.344 117.001 117.744 118.534 119.291 119.999 120.904 121.599 121.621 121.674 121.736 121.904 121.644 123.731 124.929 128.206 131.739 133.761 138.311 139.669 140.306 140.414 140.724 141.326 141.131 140.589 140.459 140.361 139.846 138.594 135.151 129.516 127.356 125.104 125.166 125.194 125.199 125.086 125.041 124.936 124.991 125.144 125.559 125.336 125.551 127.184 128.804 125.981 124.994 125.089 124.999 125.026 124.929 125.084 124.944 125.129 125.714 126.219 125.976 125.494 125.486 125.526 125.631 125.611 125.686 125.744 125.816 126.049 126.824 126.001 125.889 126.826 126.469 126.304 126.386 126.406 126.541 127.434 129.491 135.041 136.921 137.821 138.766 139.014 137.799 136.076 128.874 125.609 126.504 127.191 127.636 126.859 126.184 126.071 125.976 125.904 125.834 125.959 129.066 129.951 127.484 127.431 126.384 127.084 140.074 154.401 154.021 145.656 140.229 138.056 135.349 134.516 132.054 125.511 125.451 125.296 128.096 133.244 134.644 134.149 133.946 129.981 125.601 124.934 126.249 126.879 125.201 125.811 124.616 129.179 126.671 127.994 127.804 129.509 130.014 128.544 127.656 125.311 126.609 126.039 124.669 124.046 123.899 123.844 124.009 125.066 126.536 126.391 124.926 125.111 125.631 127.084 127.711 125.056 124.501 121.536 124.881 126.601 128.894 124.951 126.024 127.591 123.391 122.036 120.139 122.886 121.849 124.271 125.066 123.061 121.731 118.764 124.891 122.521 120.811 118.924 121.784 122.689 122.801 120.364 122.569 117.981 116.964 116.586 119.774 123.996 124.209 124.756 125.119 121.996 122.436 122.469 124.401 122.309 117.476 119.909 120.369 120.466 117.731 124.284 119.111 117.016 120.886 120.724 116.149 114.759 115.459 121.054 121.256 123.036 118.779 119.049 113.571 113.489 113.546 113.611 113.621 113.611 113.556 113.541 113.501 113.523 113.508 113.466 113.148 112.523 111.993 111.778 111.711 111.706 111.641 111.306 110.728 110.383 112.703 113.508 112.251 115.503 112.476 115.936 117.676 118.063 115.291 116.263 114.183 109.348 110.858 107.936 107.101 107.028 107.076 107.158 107.198 107.128 108.718 109.233 110.178 108.468 108.163 107.596 107.313 106.623 106.361 106.348 106.271 106.151 106.018 105.886 106.683 108.396 105.873 105.526 105.426 105.373 105.233 105.043 104.821 104.676 105.173 106.991 109.208 110.863 110.223 107.263 106.616 103.903 107.383 106.811 105.691 107.581 104.793 103.111 102.938 102.791 102.671 102.583 102.451 102.291 102.063 101.898 101.743 101.561 101.396 101.233 101.078 100.971 100.876 100.818 100.838 100.868 100.983 101.106 101.278 101.418 102.316 101.786 102.006 102.208 102.416 102.611 104.226 107.188 105.296 103.121 103.138 103.181 103.816 103.188 103.166 103.256 103.331 103.316 103.581 104.381 104.033 103.926 103.843 103.816 103.778 107.453 105.221 106.353 103.663 103.778 103.678 103.621 103.571 103.601 103.626 106.463 103.593 103.498 106.178 107.471 104.153 104.393 103.473 103.286 106.408 111.121 110.941 112.836 110.891 111.603 108.221 106.823 104.883 101.861 100.486
111.291 111.249 111.241 111.224 111.221 111.811 112.799 112.811 112.844 112.714 112.764 115.381 115.504 115.449 115.636 115.871 116.581 117.264 117.996 118.751 119.536 120.291 121.301 121.631 121.669 121.741 122.014 121.964 121.709 122.364 124.066 124.929 127.241 131.726 135.789 139.024 139.984 140.354 140.564 140.596 140.659 140.636 141.084 140.399 140.246 139.481 138.251 131.269 127.856 125.184 125.144 125.101 125.096 125.089 125.061 124.999 125.221 125.491 125.969 126.684 128.429 129.571 129.529 128.841 125.054 125.239 125.184 125.206 125.046 125.026 125.051 125.526 125.876 125.646 125.374 125.391 125.426 125.484 125.571 125.591 125.629 125.694 126.564 128.309 127.254 128.171 125.956 125.624 126.411 126.316 126.359 126.396 126.784 130.639 135.591 137.211 138.204 139.006 138.759 138.781 138.769 137.456 134.224 126.401 125.496 125.991 127.534 129.011 128.349 126.084 125.899 125.844 125.741 125.674 126.936 131.704 131.009 128.866 126.216 126.699 130.206 142.074 144.666 140.564 139.954 139.084 137.176 135.161 134.506 129.261 124.944 125.159 128.144 133.271 133.599 134.166 135.779 133.094 125.409 124.861 124.964 126.709 127.819 133.134 127.121 126.201 130.694 129.291 128.761 129.236 132.974 132.121 131.331 128.014 126.959 124.309 124.014 123.886 123.829 123.784 123.881 125.834 127.824 130.041 129.479 124.426 123.311 127.879 130.734 128.341 127.631 127.004 128.214 125.446 125.029 124.364 122.704 123.691 122.239 124.071 125.766 125.016 122.169 124.761 123.439 120.799 120.326 121.479 125.536 124.071 123.474 121.944 120.339 120.881 118.854 128.924 132.704 125.596 121.806 121.086 123.971 127.591 126.781 126.116 120.881 119.111 122.816 120.216 123.719 124.249 123.919 122.431 120.246 123.559 115.934 118.544 117.686 116.829 120.691 116.741 116.156 113.821 116.064 116.116 118.651 120.921 121.556 121.481 113.541 113.319 113.279 113.424 113.413 113.356 113.491 113.541 113.518 113.536 113.386 112.936 112.311 111.936 111.791 111.726 111.678 111.583 111.083 110.601 110.343 110.201 111.376 112.786 118.021 114.466 112.271 114.333 119.596 120.258 114.861 113.843 110.518 109.658 107.558 107.693 107.036 107.056 107.083 107.121 107.086 107.188 111.796 108.213 108.741 108.221 107.311 107.338 106.963 106.346 106.158 106.138 106.068 105.941 106.911 109.383 105.571 106.403 105.778 105.331 105.223 105.091 104.941 104.743 104.518 104.386 104.798 105.556 110.853 107.261 111.341 108.826 109.478 106.121 103.678 105.276 104.468 104.046 103.376 102.841 102.708 102.568 102.461 102.366 102.251 102.131 101.926 101.693 101.493 101.351 101.161 100.973 100.836 100.733 100.651 100.573 100.563 100.598 100.706 100.858 101.023 101.293 101.456 101.531 101.741 101.933 102.116 102.918 108.001 110.908 111.886 104.751 105.471 104.466 104.688 104.676 103.243 103.003 103.036 103.206 103.211 103.643 104.161 103.958 103.818 103.771 103.703 103.728 103.716 103.946 103.608 103.583 103.681 103.558 103.533 103.538 103.536 103.511 103.858 107.781 111.011 112.866 107.568 106.593 103.278 104.196 106.121 112.988 110.526 110.743 111.363 109.961 107.876 105.258 103.253 100.123 99.941
111.271 111.224 111.216 111.296 111.349 112.369 114.114 114.184 112.741 112.974 113.081 115.851 115.689 116.141 115.784 116.119 116.836 117.534 118.286 119.016 119.914 120.631 121.519 121.621 121.676 121.764 121.951 121.906 122.994 124.106 124.914 124.789 124.749 129.049 132.676 137.154 139.189 140.261 140.379 140.516 140.641 140.861 140.469 140.264 139.716 139.901 139.094 136.871 127.156 125.024 125.084 125.091 125.049 125.539 125.134 125.044 125.126 125.604 125.819 129.199 129.669 129.586 129.539 129.489 127.819 125.814 125.929 125.729 125.161 125.219 125.826 125.756 125.236 125.201 125.274 125.364 125.444 125.436 125.456 125.539 125.769 126.639 128.051 127.284 126.469 128.544 127.644 126.391 126.464 126.441 126.324 128.481 133.911 136.676 137.584 138.534 139.151 138.466 137.489 137.936 139.074 138.439 137.106 133.491 125.439 125.054 125.046 127.124 130.376 125.869 125.791 125.736 125.676 125.596 125.539 126.846 127.546 128.366 126.129 126.751 131.364 137.169 139.989 140.304 140.494 139.909 139.104 136.931 135.054 134.159 129.506 125.176 125.356 129.999 132.386 134.411 131.191 133.104 128.229 124.769 128.046 128.379 126.554 129.369 133.079 128.906 134.216 130.076 126.711 131.226 132.654 133.904 132.061 128.821 127.019 123.909 123.896 123.884 123.844 123.869 123.896 126.814 125.799 129.321 128.794 126.176 127.009 128.381 128.776 126.576 127.689 126.501 125.934 124.251 123.621 121.536 125.179 124.646 128.554 125.394 127.456 129.224 123.109 121.676 122.611 122.481 123.364 122.219 123.269 123.251 126.374 125.106 123.134 122.659 122.914 131.831 139.594 135.624 125.244 118.481 121.061 122.001 121.836 120.804 119.411 122.819 119.234 119.464 122.141 124.051 121.899 118.121 118.261 122.314 119.049 118.786 115.824 119.076 121.569 120.659 119.581 118.454 115.284 116.124 115.049 119.261 120.009 118.416 115.831 113.514 113.094 113.069 113.028 113.043 113.203 113.473 113.516 113.261 112.643 112.126 111.861 111.801 111.763 111.688 111.448 110.911 110.548 110.336 110.221 111.246 112.868 113.311 115.656 110.966 110.921 113.783 117.343 111.181 119.471 116.736 116.066 119.486 116.076 113.578 108.348 107.023 107.191 107.243 107.416 108.536 110.498 108.226 108.616 107.391 107.031 106.953 106.673 106.098 105.966 105.943 105.863 105.748 109.078 116.141 108.863 106.176 107.726 105.146 105.011 104.823 104.676 104.526 104.376 104.208 106.478 107.998 107.351 104.766 106.051 107.561 107.736 104.023 103.021 102.876 103.263 103.588 102.708 102.583 102.453 102.363 102.226 102.136 102.023 101.923 101.721 101.496 101.291 101.116 100.953 100.751 100.643 100.523 100.418 100.331 100.306 100.321 100.466 101.503 102.686 103.681 104.856 102.368 101.461 101.666 101.858 102.758 110.943 113.181 114.003 112.113 113.583 111.956 111.748 110.811 105.428 102.796 102.808 102.836 102.833 102.813 103.131 103.973 103.948 103.706 103.643 103.628 103.603 103.581 103.543 103.513 103.503 103.501 103.488 103.443 103.496 103.461 106.071 111.931 106.326 109.048 105.676 103.651 103.906 105.933 109.281 110.318 111.393 109.643 108.221 105.456 101.201 100.671 100.273 99.908 99.898
