ncols 429
nrows 31
xllcorner    529008
yllcorner    188816
cellsize     2
NODATA_value -9999
77.104 76.712 71.349 70.074 65.824 65.657 65.694 65.382 65.102 64.894 66.849 70.159 70.029 65.502 63.367 63.064 63.057 62.899 61.917 61.729 61.577 61.399 61.197 61.024 60.777 60.517 60.917 65.944 66.744 66.627 66.582 66.007 61.067 58.977 58.619 58.459 57.929 57.252 57.307 57.197 57.182 57.044 57.124 58.107 57.909 57.672 57.589 62.542 63.739 65.097 65.482 64.764 62.182 57.139 56.264 54.787 54.622 55.394 55.704 53.577 53.937 55.294 53.642 53.749 52.624 53.112 52.554 52.082 52.057 51.689 55.589 54.884 53.887 52.222 50.919 50.764 50.622 50.992 55.427 51.727 50.132 49.912 49.759 49.609 49.447 49.359 49.169 49.007 48.824 48.629 49.289 48.382 48.347 48.172 52.027 52.504 51.791 51.804 49.094 47.221 47.231 47.169 47.171 47.106 47.084 47.064 47.034 46.994 46.881 46.851 46.844 47.024 47.529 51.371 58.751 61.969 63.681 62.156 56.534 46.821 45.464 46.771 46.039 46.081 45.891 46.821 45.829 45.944 46.454 46.261 45.481 46.131 48.236 46.919 46.571 45.649 45.254 45.214 45.169 45.164 45.134 45.114 45.066 45.076 45.036 45.009 44.964 44.989 44.959 44.921 44.869 44.856 44.589 43.989 43.726 43.661 43.624 43.691 43.629 43.614 43.629 43.629 43.611 43.629 43.684 44.364 45.631 45.886 45.764 45.016 43.826 45.381 46.904 47.501 44.159 43.591 48.546 43.914 47.254 44.439 45.081 44.619 47.579 45.386 44.829 44.826 43.569 43.539 43.516 43.469 43.444 43.444 43.426 43.416 43.389 43.381 43.359 43.331 43.296 43.269 43.249 43.224 43.211 43.189 43.204 43.196 43.159 43.116 43.084 43.046 43.029 43.021 43.004 42.946 42.916 42.874 42.851 42.841 42.839 42.839 42.856 42.876 42.866 42.856 42.844 42.831 42.821 42.826 42.814 42.806 42.809 42.784 42.771 42.781 42.779 42.771 42.764 42.786 42.791 42.806 42.841 43.064 43.184 43.091 44.881 45.666 45.401 45.253 44.173 44.171 44.613 43.546 43.578 44.381 43.438 43.831 44.236 43.306 43.746 42.978 42.843 42.851 43.253 43.476 44.683 45.813 43.653 43.541 43.491 43.248 43.181 43.296 43.451 44.191 45.078 43.663 43.141 43.188 43.726 44.473 52.213 53.233 53.243 53.238 53.208 53.243 53.226 53.238 53.398 45.466 43.898 44.533 42.873 42.863 42.848 42.826 42.811 42.856 42.888 42.973 42.911 41.798 41.073 42.301 47.548 49.416 49.453 46.996 43.881 41.803 41.446 42.018 41.453 41.001 41.771 40.948 41.203 40.526 40.043 39.858 39.791 39.796 39.776 39.703 39.581 39.463 39.661 44.556 41.893 39.831 39.278 39.251 39.208 39.661 45.528 43.881 46.071 46.036 45.751 45.141 43.161 42.061 41.078 43.473 40.201 40.001 38.826 38.831 39.438 39.251 38.528 38.631 38.841 39.798 38.791 38.971 39.561 38.771 40.436 41.698 39.158 39.348 38.858 39.288 38.506 38.613 39.276 39.203 39.893 42.431 44.443 42.953 38.318 42.851 47.463 48.176 47.696 47.153 47.403 47.913 47.403 46.698 45.271 43.143 39.671 39.523 38.821 38.093 37.921 37.873 37.896 37.903 37.881 38.243 38.036 37.898 37.776 38.446 38.251 39.296 42.653 44.046 44.496 45.408 46.061 45.826 45.526 44.708 42.258 38.323 37.626 37.266 37.221 37.146 38.051 37.131 37.098 37.061 37.021 37.453 37.018 37.608 37.363 38.383 41.243 44.471 45.251 46.238 45.886
76.204 75.524 72.862 71.254 66.157 65.862 65.657 65.417 65.129 65.019 67.464 70.232 70.122 66.369 63.329 63.029 62.727 62.369 61.917 61.747 61.604 61.409 61.209 61.152 60.782 60.299 59.677 66.119 67.407 68.179 67.322 65.984 61.392 59.089 58.774 58.464 57.824 57.404 58.087 57.207 57.197 57.189 57.114 57.394 57.034 57.039 56.887 63.272 63.794 64.939 65.344 65.154 62.599 57.054 55.577 54.207 53.969 53.784 54.222 53.324 53.489 52.972 53.549 53.042 52.579 52.979 52.159 52.339 52.144 52.672 61.874 62.559 54.799 51.362 51.139 50.999 50.604 50.669 50.649 50.232 50.037 49.914 49.812 49.642 49.494 49.382 49.484 49.007 48.834 48.617 49.029 48.682 48.874 49.697 49.304 51.377 52.486 48.234 52.534 47.256 47.189 47.166 47.131 47.089 47.066 47.056 47.011 46.984 46.884 46.844 46.849 46.876 48.376 50.671 59.466 62.084 62.689 63.014 59.714 50.266 49.489 47.476 47.654 49.589 47.414 46.066 46.646 45.651 46.264 46.096 45.581 46.841 46.731 45.314 45.339 45.291 45.266 45.211 45.201 45.179 45.126 45.126 45.111 45.076 45.049 45.011 44.976 44.984 44.971 44.951 44.924 44.971 44.761 44.424 43.864 43.694 43.639 43.596 43.619 43.646 43.651 43.644 43.664 43.651 44.851 46.004 45.919 45.836 45.719 46.064 45.996 46.636 47.119 47.806 45.751 44.601 45.566 44.299 44.261 45.106 45.206 44.284 51.219 46.316 44.959 47.054 45.441 43.614 43.579 43.541 43.521 43.496 43.491 43.486 43.474 43.421 43.411 43.379 43.364 43.334 43.311 43.289 43.271 43.236 43.249 43.231 43.226 43.169 43.144 43.099 43.071 43.054 43.031 43.026 42.976 42.926 42.926 42.914 42.936 42.959 42.956 42.949 42.964 42.959 42.929 42.926 42.906 42.894 42.886 42.871 42.871 42.849 42.869 42.871 42.861 42.864 42.864 42.861 42.851 42.864 43.254 44.209 47.444 43.299 43.374 44.226 44.946 43.641 43.731 43.983 43.896 43.598 43.831 43.638 43.731 44.343 43.251 43.158 43.431 43.311 42.883 42.901 42.918 43.306 44.236 43.681 43.483 43.893 43.528 43.456 43.298 43.196 43.618 43.983 43.963 43.166 43.056 43.306 43.951 46.733 52.308 53.238 53.216 53.221 53.221 53.326 53.351 53.301 46.348 43.523 45.238 43.143 42.823 42.831 42.823 42.841 42.866 42.883 42.923 43.228 42.096 41.211 40.998 45.588 49.433 49.446 49.443 49.421 49.433 47.078 43.021 41.478 41.636 41.198 41.183 40.971 40.623 40.688 40.126 39.876 39.703 39.683 39.636 39.623 39.581 39.473 39.831 43.088 41.211 39.506 39.288 39.261 39.231 39.141 39.098 43.388 46.068 46.668 46.391 45.901 44.181 42.458 44.661 46.576 44.078 40.166 38.771 38.848 39.426 38.916 38.643 40.036 38.913 38.491 38.438 39.528 39.571 38.891 40.128 41.956 40.788 40.613 40.603 39.261 39.403 40.098 38.471 38.316 38.941 39.326 41.491 38.633 37.996 46.813 47.838 47.968 47.331 43.683 46.363 47.076 47.913 47.606 46.958 46.178 44.231 40.421 38.406 38.223 38.748 37.863 37.791 37.816 37.901 37.788 37.781 38.746 38.283 37.636 38.083 39.111 38.881 44.253 45.338 46.076 45.833 45.041 44.701 38.936 38.323 38.466 38.043 37.403 37.223 37.588 37.321 37.133 37.113 37.811 37.076 36.993 37.781 37.358 39.466 42.288 44.323 45.106 45.791 45.473 45.221
74.984 74.684 71.394 67.622 67.094 67.657 67.904 66.807 65.352 65.544 66.689 69.944 70.232 66.572 63.757 63.154 63.624 63.289 62.159 61.779 61.599 61.407 61.202 61.087 60.752 60.492 60.044 66.139 67.392 68.382 67.414 66.897 63.794 60.077 58.819 58.334 57.662 57.294 57.689 57.232 57.177 58.259 57.147 57.272 56.987 56.832 56.647 60.004 63.597 64.884 65.367 65.132 62.999 59.829 56.662 54.209 54.007 53.782 53.557 53.374 53.149 52.962 52.762 52.587 54.352 52.307 52.427 52.144 52.787 52.849 57.557 57.352 51.524 52.427 55.694 51.794 50.679 50.467 50.297 50.187 50.079 49.944 49.792 49.674 49.557 49.367 49.207 49.044 48.832 48.652 48.472 48.517 48.694 48.747 48.187 49.449 48.976 48.499 50.929 48.459 47.161 47.154 47.114 47.091 47.061 47.026 47.009 46.984 46.949 46.859 46.854 47.189 49.226 50.026 54.099 59.349 61.771 62.246 63.049 55.146 50.379 49.174 48.429 50.571 51.619 46.831 45.631 46.976 46.509 48.101 45.621 47.521 46.576 45.356 45.359 45.299 45.269 45.261 45.224 45.191 45.159 45.156 45.116 45.094 45.054 45.024 45.016 45.006 45.016 44.979 44.909 44.894 45.106 44.659 44.164 43.781 43.701 43.664 43.624 43.706 43.674 43.801 43.776 43.986 46.084 45.956 45.869 45.809 46.076 46.309 46.556 45.454 45.099 44.331 44.229 44.379 44.284 44.534 44.401 44.489 44.459 48.134 50.371 46.819 46.824 47.399 45.296 44.336 43.664 43.646 43.569 43.574 43.559 43.544 43.521 43.486 43.469 43.469 43.449 43.396 43.361 43.334 43.346 43.304 43.284 43.249 43.251 43.226 43.206 43.154 43.129 43.094 43.086 43.051 43.031 43.009 42.986 42.994 43.009 43.024 43.034 43.029 43.029 43.019 42.999 42.999 42.986 42.949 42.919 42.911 42.909 42.901 42.921 42.916 42.914 42.916 42.919 42.936 42.946 42.939 44.549 48.769 46.604 46.154 45.121 43.451 43.716 43.708 43.763 43.571 43.878 43.816 43.353 43.273 43.213 43.233 43.231 43.243 43.256 43.613 43.166 42.868 42.866 42.993 43.358 43.518 43.588 43.243 43.476 43.388 43.476 43.608 44.423 43.281 43.088 43.051 43.256 44.066 44.741 46.038 45.993 50.896 53.288 53.198 53.248 50.313 47.576 46.413 43.046 43.518 43.243 42.816 42.811 42.818 42.843 42.836 42.876 42.941 43.071 42.123 41.488 41.943 44.951 49.443 49.446 49.461 49.473 49.456 50.253 49.753 49.253 43.991 40.963 40.941 41.776 40.906 41.331 40.296 40.058 39.858 39.721 39.581 39.518 39.523 39.526 39.466 39.383 39.313 39.248 39.256 39.233 39.218 39.118 39.066 39.106 45.033 46.066 46.581 46.928 46.648 46.128 46.153 46.623 45.836 44.366 41.946 38.911 38.861 40.233 40.696 40.226 40.198 38.463 38.406 38.843 38.808 38.481 38.458 38.633 38.663 38.596 40.101 39.858 40.153 40.368 40.296 38.291 38.556 39.683 38.348 38.393 38.501 37.863 39.666 45.191 47.396 44.168 37.568 44.531 47.536 48.133 47.846 47.821 47.256 47.083 45.028 39.193 38.873 39.781 38.951 38.296 37.803 38.758 37.963 37.731 37.681 37.778 37.893 37.698 37.638 40.191 40.308 44.986 45.771 44.946 43.263 38.753 37.396 37.496 38.308 37.406 37.633 38.243 37.226 38.831 37.491 37.136 37.123 37.003 37.506 37.891 40.671 45.108 44.703 44.933 46.041 45.553 44.518 42.878
76.632 76.224 72.897 69.582 67.234 66.559 65.897 65.689 65.242 64.944 66.269 67.504 66.267 65.689 63.882 63.257 64.177 63.639 62.644 63.514 62.097 61.854 62.419 62.494 61.907 61.502 60.302 65.949 67.457 68.919 67.444 66.197 62.387 59.232 59.532 58.927 57.927 57.297 57.224 57.237 57.274 57.854 57.952 57.907 57.154 57.552 57.057 60.299 63.442 64.627 64.437 64.262 61.977 59.834 55.827 54.922 54.747 54.262 53.902 53.849 53.217 53.757 52.929 52.817 52.762 53.424 53.404 52.322 51.872 51.697 51.582 51.469 52.134 53.704 59.217 51.842 50.609 50.482 50.319 50.522 50.059 49.932 49.774 49.632 49.537 49.402 49.227 49.084 48.834 48.637 48.854 49.122 49.217 49.189 48.759 47.777 49.484 48.314 50.044 49.126 47.139 47.131 47.119 47.069 47.034 47.011 46.961 46.964 46.946 46.886 46.879 47.354 47.914 48.934 49.234 54.659 62.159 62.026 63.861 60.326 51.414 52.091 47.721 51.554 52.271 48.291 46.741 47.419 48.431 45.721 45.381 45.434 45.419 45.364 45.356 45.296 45.289 45.269 45.234 45.216 45.151 45.149 45.134 45.109 45.091 45.056 45.026 45.009 45.001 44.946 44.919 44.916 44.954 45.354 44.634 43.924 43.751 43.666 43.689 43.734 43.874 43.809 43.761 45.341 47.959 46.896 47.426 46.991 46.369 47.071 45.764 45.586 45.361 43.884 44.729 44.076 43.581 43.606 43.694 43.766 43.849 43.941 46.286 47.316 46.389 45.824 45.599 44.446 43.736 43.696 43.656 43.624 43.626 43.614 43.586 43.536 43.531 43.504 43.514 43.461 43.424 43.404 43.391 43.366 43.339 43.331 43.301 43.291 43.266 43.219 43.181 43.144 43.126 43.134 43.109 43.096 43.084 43.056 43.084 43.099 43.101 43.086 43.089 43.076 43.066 43.064 43.059 43.016 42.989 42.976 42.974 42.991 42.976 42.969 42.966 42.951 42.964 43.009 42.999 43.151 48.931 47.659 48.176 49.501 46.311 44.651 43.626 44.796 44.973 44.986 43.356 43.448 43.261 43.313 43.371 43.288 43.261 43.308 43.341 43.258 43.638 43.066 42.946 42.956 42.953 43.221 43.401 42.996 43.041 43.171 43.348 44.323 44.483 43.146 43.118 43.073 43.273 43.418 43.638 44.701 45.878 46.121 49.896 53.263 51.618 46.448 44.893 42.993 42.926 42.826 42.843 42.778 42.813 42.781 42.831 42.821 42.891 43.353 42.556 41.496 41.046 46.778 48.728 49.573 49.471 49.491 49.511 49.571 49.913 49.621 47.571 43.956 41.703 40.843 41.226 41.981 41.366 40.203 40.001 39.871 39.726 39.613 39.491 39.393 39.431 39.411 39.356 39.336 39.263 39.181 39.168 39.146 39.043 39.043 38.961 40.023 42.693 45.938 46.513 47.883 46.898 46.901 46.711 45.111 43.486 38.738 38.788 40.168 40.878 40.938 40.906 39.461 38.378 38.536 39.096 38.478 38.623 38.518 38.316 38.246 38.298 38.433 38.263 38.453 39.918 39.838 39.581 39.696 38.856 39.111 39.243 38.273 38.003 39.243 39.633 42.073 38.353 41.698 47.338 47.986 47.876 47.223 47.423 48.261 47.546 46.708 40.726 38.158 37.566 38.606 39.258 38.563 37.833 37.828 38.136 37.691 37.646 37.726 38.536 37.658 37.871 38.608 39.081 45.761 44.876 38.736 38.356 37.753 37.201 37.158 37.093 37.458 37.178 37.163 39.738 41.256 37.316 37.053 37.256 37.301 42.106 44.561 44.896 45.641 46.108 46.146 45.178 43.386 41.391
77.764 77.389 72.824 69.859 67.862 66.432 65.834 65.562 65.684 65.714 67.239 67.887 66.867 65.434 63.727 64.409 63.009 64.177 64.259 62.604 62.214 63.072 61.329 63.307 63.789 60.324 59.847 68.127 68.327 68.364 67.219 65.994 61.889 59.837 59.759 58.719 58.107 57.309 57.554 57.232 57.234 57.094 58.422 57.787 58.064 57.744 56.942 58.839 62.259 63.669 64.287 62.947 60.047 58.822 57.044 54.064 54.152 54.027 53.729 53.634 53.124 53.077 52.764 52.779 53.224 53.304 52.279 52.114 51.872 51.712 51.632 51.684 51.947 52.764 54.742 50.937 50.617 50.512 50.377 50.174 50.142 49.934 49.754 49.584 49.507 49.447 49.289 49.072 49.132 48.952 51.187 50.222 48.572 48.682 48.807 47.697 47.691 48.046 48.284 48.156 47.166 47.119 47.086 47.061 47.039 46.999 46.984 46.976 46.931 46.919 46.869 47.226 47.794 47.689 48.069 47.601 54.646 61.891 63.361 55.446 52.826 51.176 51.129 51.486 51.209 49.621 46.694 48.629 46.184 45.471 45.469 45.439 45.399 45.386 45.349 45.319 45.299 45.271 45.249 45.206 45.186 45.151 45.159 45.129 45.099 45.099 45.076 45.024 45.009 44.981 44.956 44.944 44.899 44.986 44.881 44.451 43.779 43.741 43.881 43.864 43.814 43.831 44.319 48.166 48.871 49.184 50.699 50.016 45.444 46.911 46.509 44.931 44.966 43.834 44.341 43.616 43.639 43.659 43.659 43.686 43.681 44.674 45.351 45.996 46.044 45.929 44.704 43.989 43.956 43.756 43.741 43.714 43.691 43.669 43.646 43.606 43.591 43.571 43.574 43.531 43.506 43.459 43.424 43.424 43.401 43.354 43.349 43.341 43.314 43.261 43.269 43.226 43.204 43.169 43.166 43.154 43.141 43.154 43.159 43.156 43.159 43.166 43.146 43.144 43.139 43.116 43.109 43.079 43.044 43.024 43.031 43.039 43.049 43.039 43.019 43.014 43.021 43.061 43.034 43.921 47.376 47.946 48.679 44.921 45.864 44.371 45.071 45.018 45.676 43.908 43.321 43.251 43.596 43.336 43.328 43.296 43.258 43.266 43.338 43.296 43.281 43.763 43.218 42.946 43.001 42.953 42.953 43.016 43.046 43.393 43.253 43.843 43.788 43.521 43.186 43.038 43.578 43.061 43.108 46.396 47.668 45.833 45.983 48.143 46.298 45.396 43.113 42.988 42.826 42.763 42.731 42.781 42.776 42.781 42.848 42.846 43.131 42.846 41.736 41.063 41.841 49.523 49.463 49.591 49.556 49.518 49.796 49.483 49.483 49.211 44.111 43.001 40.818 42.033 43.341 42.821 43.601 40.121 40.008 39.858 39.841 39.636 39.501 39.398 39.311 39.308 39.286 39.276 39.256 39.176 39.056 39.003 38.976 38.963 38.968 38.938 38.976 43.173 45.751 46.301 46.823 47.061 46.566 45.871 43.263 38.763 39.393 41.003 43.238 41.658 40.003 38.311 38.336 39.016 38.731 38.473 39.451 38.226 38.208 38.243 38.263 38.198 38.123 38.346 38.888 38.443 38.978 39.578 38.438 39.631 38.288 37.976 38.638 38.923 37.831 37.806 37.761 45.248 47.711 47.978 47.428 44.288 46.066 47.121 47.823 45.221 40.366 37.771 37.538 38.696 39.448 39.448 38.116 38.751 42.146 40.786 37.608 37.561 37.543 37.496 37.406 37.361 37.428 40.621 40.336 38.808 39.046 37.353 37.131 37.088 37.156 37.161 37.173 37.068 40.996 41.688 37.513 37.088 37.136 40.491 44.091 45.278 46.073 46.423 46.136 46.036 43.771 42.576 42.498
78.012 77.899 73.372 69.699 67.634 66.667 65.777 65.524 65.334 67.217 67.352 65.922 65.327 65.559 66.732 68.389 63.839 64.472 62.632 61.967 62.647 62.792 61.039 60.782 60.534 59.757 59.674 67.857 68.367 68.314 67.284 65.992 61.662 59.354 58.932 58.662 58.492 57.869 58.269 57.239 57.212 57.944 57.152 57.787 57.329 56.742 56.579 59.644 63.422 64.604 65.167 64.972 62.257 58.304 58.152 56.007 54.349 53.719 53.492 53.289 53.109 52.939 52.747 52.619 52.502 52.409 52.307 52.147 51.882 52.182 51.849 51.559 51.384 51.037 51.687 50.809 50.662 50.514 50.312 50.169 50.059 49.934 49.749 49.599 49.562 49.442 49.267 49.059 48.884 50.622 54.712 50.507 48.949 48.979 49.874 48.649 47.704 48.159 47.786 50.171 48.404 48.439 47.479 47.074 47.039 47.016 46.981 46.949 46.946 46.909 46.816 46.984 47.486 48.256 48.884 47.806 55.261 58.059 61.011 57.001 51.261 49.391 49.834 48.719 48.826 48.119 46.599 45.939 45.531 45.516 45.489 45.469 45.444 45.411 45.364 45.326 45.339 45.269 45.281 45.221 45.204 45.186 45.169 45.136 45.111 45.086 45.071 45.016 45.024 44.989 44.976 44.941 44.931 44.889 44.996 44.731 45.131 45.739 44.641 43.946 43.856 43.846 45.251 49.491 50.091 49.651 48.261 50.119 47.879 47.216 44.854 45.841 46.631 44.469 43.666 43.696 43.706 43.739 43.736 43.744 43.714 43.731 44.044 45.701 44.221 44.039 44.106 44.024 44.054 43.869 43.836 43.791 43.774 43.719 43.689 43.674 43.661 43.646 43.636 43.604 43.594 43.546 43.519 43.489 43.456 43.419 43.411 43.374 43.346 43.346 43.336 43.316 43.271 43.244 43.226 43.221 43.226 43.226 43.241 43.244 43.254 43.231 43.209 43.196 43.201 43.174 43.161 43.131 43.116 43.106 43.114 43.126 43.114 43.099 43.076 43.071 43.101 43.119 43.119 43.079 44.776 45.216 44.391 46.051 48.251 45.399 45.093 45.398 43.746 43.296 43.323 43.398 43.371 43.341 43.288 43.296 43.306 43.278 43.253 43.303 43.223 43.481 43.471 43.323 43.008 43.013 43.048 43.008 43.056 43.046 43.086 43.423 44.396 44.863 43.236 43.063 43.013 43.593 47.456 47.048 47.563 48.126 45.346 44.186 43.986 43.098 43.871 44.463 42.766 42.701 42.713 42.728 42.733 42.721 42.803 42.876 43.148 41.761 41.663 43.451 47.453 48.663 49.486 49.556 49.651 49.648 49.573 49.466 49.456 49.431 47.553 41.313 42.191 42.621 44.453 46.768 43.403 40.073 39.993 39.976 39.776 39.651 39.516 39.431 39.311 39.198 39.161 39.193 39.228 39.131 39.076 38.968 38.906 38.893 39.043 38.878 38.883 40.238 40.718 45.043 46.158 46.686 46.751 46.058 43.086 41.056 42.166 43.008 44.118 44.433 40.921 38.296 38.613 38.401 38.428 38.461 38.468 38.173 38.183 38.563 38.353 38.041 38.013 38.808 38.703 38.141 38.153 38.476 39.116 38.943 38.318 38.136 38.516 37.918 37.883 38.058 37.611 39.863 44.806 47.576 45.726 37.921 42.686 47.636 46.721 40.671 39.761 38.211 39.573 40.718 38.443 37.808 39.736 43.563 41.658 42.991 40.091 38.451 37.618 37.546 37.463 37.373 37.468 37.581 37.993 37.773 37.568 37.643 37.126 37.188 37.181 37.146 37.066 37.031 37.121 37.748 37.098 37.046 37.066 39.318 45.208 45.993 46.221 46.031 44.216 41.166 42.636 42.681 39.173
78.019 77.347 73.532 69.952 67.314 66.139 65.849 65.717 65.249 67.244 67.609 67.777 66.964 67.992 69.872 66.934 63.049 62.817 62.457 62.827 61.704 61.502 61.039 60.794 60.504 59.639 59.584 67.177 68.329 68.292 67.329 66.089 61.504 59.192 59.139 59.157 58.212 58.549 58.922 57.232 57.204 57.067 57.097 57.314 57.527 57.327 56.557 58.662 63.364 64.569 65.169 65.022 63.057 59.024 57.022 56.272 53.717 54.177 53.529 53.294 53.114 52.937 52.749 52.609 52.492 52.392 52.314 52.252 52.474 51.837 51.517 51.292 51.114 51.024 50.992 50.897 50.602 50.502 50.384 50.192 50.072 49.944 49.787 49.652 49.554 49.467 49.277 49.097 49.017 48.827 49.999 50.474 48.347 52.977 53.792 50.549 47.704 47.751 48.631 48.636 51.241 50.154 47.054 47.049 47.036 46.971 46.966 46.949 46.914 46.906 46.859 46.869 46.999 47.729 47.929 46.919 50.221 50.589 54.571 54.746 50.181 49.026 48.594 48.516 49.814 48.869 46.749 45.584 45.554 45.541 45.516 45.481 45.444 45.419 45.401 45.359 45.321 45.306 45.251 45.266 45.216 45.206 45.201 45.159 45.149 45.091 45.081 45.049 45.039 45.006 44.994 44.971 44.919 44.919 44.869 45.054 46.064 49.454 47.894 44.361 43.926 43.921 44.016 47.354 49.019 47.594 48.181 49.479 48.754 44.884 44.256 45.411 45.931 43.729 43.714 43.746 43.761 43.794 43.786 43.804 43.811 43.784 43.784 43.789 43.801 43.809 43.981 44.266 44.136 44.141 43.911 43.894 43.836 43.786 43.786 43.761 43.734 43.716 43.699 43.664 43.641 43.626 43.579 43.541 43.531 43.476 43.474 43.441 43.419 43.384 43.396 43.386 43.366 43.319 43.291 43.306 43.316 43.324 43.341 43.349 43.329 43.316 43.276 43.256 43.236 43.224 43.209 43.211 43.186 43.201 43.219 43.211 43.219 43.171 43.176 43.364 43.281 43.254 43.166 43.174 44.086 43.611 44.366 45.756 46.844 45.394 44.578 43.701 43.306 43.316 43.331 43.446 43.506 43.436 43.336 43.236 43.488 43.283 44.008 43.286 43.263 43.268 43.703 43.641 43.581 43.278 43.028 43.091 43.071 43.003 43.053 43.061 43.851 44.286 43.341 43.036 42.983 42.983 45.683 46.531 45.908 43.816 47.866 43.913 43.603 43.346 44.833 43.081 42.691 42.733 42.716 42.693 42.713 42.776 42.833 42.988 42.016 41.126 43.688 47.156 49.436 49.568 49.566 49.516 49.678 49.586 49.656 49.448 49.438 49.076 46.003 41.283 44.711 44.098 44.176 45.526 43.481 40.988 41.018 39.911 39.751 39.706 39.523 39.438 39.288 39.118 39.043 39.086 39.066 39.063 39.058 38.998 38.901 38.821 38.766 39.416 39.811 39.523 39.063 39.756 43.893 45.938 46.181 44.031 40.171 46.506 47.348 45.141 44.648 44.156 41.841 38.533 38.238 38.323 38.401 38.271 38.158 38.128 39.338 42.523 39.783 37.958 38.426 40.693 39.066 37.963 38.076 38.071 38.033 38.473 39.436 39.281 38.036 37.963 38.551 37.941 37.641 39.031 38.278 42.901 38.978 40.161 46.911 47.573 41.446 39.303 37.111 37.526 43.061 45.148 41.056 37.946 39.253 42.598 43.061 44.333 37.928 37.901 37.773 37.708 37.483 37.423 37.536 38.118 37.673 37.296 37.871 37.718 37.201 37.203 37.436 37.238 37.033 37.088 37.661 37.453 37.068 39.701 38.153 37.041 39.813 46.053 45.848 42.731 37.143 36.428 41.151 38.041 36.878
78.094 78.072 74.017 69.312 67.727 65.709 65.712 65.714 65.959 68.357 68.159 70.074 69.084 68.847 67.587 63.047 62.942 62.349 62.064 61.887 61.549 61.289 61.064 60.789 60.522 59.882 59.584 65.407 67.442 66.259 65.272 63.884 60.334 58.909 58.824 58.124 57.902 58.137 58.934 57.214 57.184 57.077 57.079 57.074 57.209 57.509 56.682 59.682 62.369 64.547 65.199 64.767 62.617 59.227 58.699 56.324 54.627 54.824 54.222 53.927 54.362 53.289 53.444 53.497 52.707 52.847 52.657 52.389 52.134 51.814 51.477 51.274 51.147 51.064 51.577 50.934 50.682 50.524 50.382 50.189 50.094 49.929 49.859 49.684 49.527 49.442 49.327 49.204 49.184 48.857 51.504 52.472 50.017 52.117 53.812 50.912 50.549 47.671 48.989 49.566 50.479 50.894 47.019 47.009 47.021 46.984 46.956 46.956 46.926 46.881 46.839 46.834 46.709 46.751 47.074 47.176 47.144 47.501 51.306 49.211 49.814 49.766 48.809 50.349 49.301 48.349 45.781 45.626 45.566 45.554 45.531 45.509 45.476 45.446 45.419 45.386 45.354 45.331 45.301 45.286 45.254 45.226 45.211 45.149 45.136 45.116 45.091 45.061 45.034 45.029 45.019 44.981 44.961 44.954 44.906 44.891 45.206 47.229 48.551 47.144 44.036 43.994 43.979 44.584 45.849 47.009 47.269 48.546 46.721 44.031 44.576 44.151 43.816 43.799 43.816 43.834 43.846 43.851 43.866 43.866 43.871 43.864 43.871 43.864 43.869 43.871 43.886 44.034 44.204 44.171 44.049 43.924 43.919 43.869 43.846 43.811 43.799 43.769 43.736 43.729 43.699 43.671 43.644 43.629 43.581 43.546 43.506 43.491 43.471 43.474 43.474 43.459 43.436 43.399 43.389 43.379 43.386 43.406 43.409 43.401 43.401 43.376 43.351 43.334 43.314 43.301 43.264 43.264 43.284 43.276 43.289 43.271 43.284 43.261 43.366 43.559 43.281 43.254 43.221 43.276 43.381 43.341 43.546 46.259 44.924 45.209 44.573 43.313 43.348 43.318 43.366 43.431 43.423 43.463 43.336 43.271 44.183 43.556 43.743 43.553 43.236 43.236 43.586 44.983 43.513 43.531 43.288 43.023 43.086 42.998 42.988 43.038 43.056 44.148 43.546 43.028 43.001 43.161 44.841 45.911 46.988 44.636 43.918 43.663 43.011 42.868 42.878 42.721 42.701 42.736 42.723 42.691 42.706 42.783 43.218 42.073 41.311 41.578 45.906 49.438 49.538 49.503 49.646 49.536 49.591 49.593 49.603 49.516 49.473 44.758 42.803 40.923 43.968 44.458 46.266 46.406 43.713 40.046 40.006 39.851 39.821 40.218 39.821 39.411 39.266 39.101 39.018 38.976 38.961 38.991 38.973 38.951 38.926 38.848 38.711 38.691 39.343 39.113 38.873 39.796 39.098 43.116 45.416 39.706 45.796 47.953 48.163 47.683 45.911 42.636 38.643 38.256 42.291 39.206 38.466 38.196 38.158 38.211 38.441 39.691 37.926 37.928 38.256 43.658 39.371 37.913 37.993 38.008 38.016 38.181 40.158 39.306 38.053 38.213 38.046 37.901 38.038 39.008 37.726 37.938 38.258 43.498 47.601 44.013 41.286 37.756 37.038 38.356 45.628 46.043 44.951 43.548 42.863 42.716 41.428 38.846 37.911 38.081 37.643 38.431 37.761 37.371 37.333 37.336 37.306 37.286 37.291 37.253 37.176 37.536 38.206 37.326 37.096 37.161 37.158 37.091 41.988 45.866 43.018 38.571 36.941 42.611 43.178 41.603 36.721 36.858 36.268 36.253 36.376
78.129 78.117 75.459 67.167 66.509 65.694 65.699 65.699 65.069 68.534 69.592 70.219 70.552 68.094 65.112 63.742 63.112 62.412 62.077 61.777 62.257 62.207 61.524 60.984 60.657 60.312 60.334 65.412 66.404 63.692 61.659 61.692 58.712 59.469 59.319 57.884 57.689 57.272 57.162 57.179 57.182 57.099 57.047 57.549 57.252 56.879 56.739 58.022 63.299 64.664 65.652 64.629 62.079 57.649 56.622 55.304 54.767 54.422 53.604 53.337 53.434 54.244 52.802 52.687 52.509 53.184 52.429 52.092 51.814 51.669 53.242 51.957 51.362 50.997 50.827 50.922 51.174 50.612 50.359 50.222 50.087 49.949 49.812 49.657 49.577 49.484 49.602 49.182 49.027 49.134 50.504 52.514 51.904 52.229 53.472 53.304 49.804 48.536 47.719 49.246 49.561 49.851 47.399 47.016 47.009 46.964 46.949 46.949 46.886 47.144 47.341 46.694 46.741 47.031 46.996 46.959 46.859 48.956 49.676 51.729 48.481 49.886 48.349 47.431 46.979 46.714 46.186 45.669 45.596 45.559 45.536 45.524 45.466 45.454 45.419 45.391 45.369 45.321 45.324 45.306 45.256 45.221 45.191 45.194 45.164 45.131 45.111 45.074 45.071 45.056 45.029 45.011 44.996 44.934 44.921 44.896 44.876 45.876 48.756 49.479 46.031 44.049 44.046 44.396 45.924 48.161 48.599 46.319 44.136 44.076 43.946 43.901 43.896 43.849 43.869 43.891 43.901 43.926 43.936 43.929 43.949 43.926 43.934 43.944 43.931 43.936 43.959 43.981 44.176 44.224 44.199 43.959 43.969 43.976 43.926 43.881 43.859 43.839 43.819 43.781 43.769 43.711 43.691 43.674 43.639 43.576 43.566 43.559 43.566 43.554 43.519 43.506 43.509 43.486 43.466 43.459 43.466 43.481 43.469 43.471 43.481 43.441 43.411 43.391 43.399 43.359 43.349 43.339 43.334 43.346 43.341 43.321 43.291 43.299 43.306 43.299 43.344 43.279 43.291 43.316 43.384 43.396 43.466 44.714 44.416 43.886 43.358 43.403 43.401 43.361 43.423 43.433 43.471 43.381 43.306 43.228 43.301 44.068 44.056 43.258 43.211 43.233 43.213 43.561 43.351 43.353 43.098 43.036 43.036 43.038 42.971 42.953 43.011 43.543 43.733 43.303 43.261 43.346 43.601 46.493 47.833 44.193 43.183 42.773 42.726 42.716 42.706 42.708 42.683 42.683 42.653 42.686 42.723 42.991 42.283 41.373 41.771 45.158 49.451 49.433 49.598 49.536 49.633 49.598 49.506 49.623 49.486 49.431 43.343 40.943 40.916 41.591 44.391 45.911 47.628 41.913 40.361 40.081 39.926 39.836 39.611 39.643 39.788 39.511 39.351 39.093 39.018 38.908 38.848 38.831 38.883 38.853 38.928 38.866 38.768 38.686 38.651 38.711 40.321 39.761 38.781 39.631 39.513 42.968 47.758 48.331 48.783 48.356 47.756 45.573 38.571 41.566 46.146 46.236 41.043 38.573 38.211 38.258 38.098 37.971 37.916 37.983 37.921 38.011 39.148 39.203 38.083 38.031 37.991 39.333 40.746 40.718 39.008 38.861 38.701 38.018 39.733 39.511 37.696 38.238 38.386 40.186 43.558 41.673 39.233 37.048 37.026 45.021 46.033 46.868 46.958 45.398 45.076 44.028 40.576 38.481 37.148 37.371 37.581 37.431 37.278 37.273 39.273 37.443 37.246 37.288 38.716 37.768 37.721 37.131 37.188 37.113 37.116 37.163 38.693 42.253 45.866 46.708 47.486 44.861 37.771 37.226 41.891 42.533 39.266 36.371 36.873 36.408 36.288
78.039 77.814 74.377 67.039 66.939 65.839 65.672 65.884 65.817 65.572 69.432 70.007 70.119 67.467 64.959 65.724 64.404 62.957 63.037 62.914 63.384 63.302 61.984 62.092 61.714 60.627 61.004 63.322 64.199 63.032 60.614 60.874 58.617 58.662 58.249 58.209 57.679 57.257 57.137 57.184 57.132 57.032 57.032 57.884 57.759 57.344 57.367 59.427 63.202 64.407 65.294 65.087 60.594 57.779 56.849 54.369 54.384 53.749 53.417 53.259 53.092 53.267 52.777 52.599 52.387 52.302 52.262 52.122 52.557 52.304 51.809 51.849 52.242 51.327 51.277 51.769 52.687 50.984 50.349 50.222 50.074 50.822 49.774 49.684 50.357 49.674 49.349 49.194 49.084 49.679 53.362 52.969 51.404 53.087 55.437 53.707 52.196 47.854 47.729 47.841 50.266 48.586 48.041 46.986 46.994 46.974 46.944 47.084 46.969 46.696 46.711 47.939 50.969 49.256 47.224 48.486 46.376 47.854 49.954 50.424 48.821 48.394 47.511 46.346 46.599 46.439 46.431 45.984 45.599 45.569 45.549 45.546 45.499 45.481 45.426 45.424 45.414 45.374 45.329 45.309 45.294 45.239 45.224 45.199 45.164 45.149 45.141 45.099 45.091 45.069 45.051 44.999 44.976 44.974 44.889 44.786 44.746 44.911 46.209 50.799 51.874 46.689 44.146 45.219 46.916 48.244 47.439 44.191 44.166 44.011 43.996 43.979 43.979 43.969 43.961 43.981 43.986 43.971 43.994 44.014 43.981 43.999 44.001 43.981 43.989 43.994 44.016 44.031 44.134 44.229 44.259 44.151 44.041 44.064 43.999 43.956 43.909 43.896 43.879 43.849 43.824 43.786 43.761 43.721 43.674 43.664 43.659 43.651 43.631 43.601 43.586 43.569 43.546 43.559 43.549 43.554 43.549 43.549 43.534 43.526 43.529 43.516 43.471 43.466 43.459 43.434 43.394 43.401 43.374 43.349 43.349 43.331 43.339 43.349 43.344 43.321 43.314 43.296 43.391 43.429 43.419 43.396 43.406 43.349 43.289 43.361 43.433 43.458 43.408 43.393 43.386 43.451 43.391 43.351 43.331 43.263 43.283 43.336 43.603 43.638 44.141 43.221 44.273 43.411 43.496 43.261 43.096 43.013 42.991 43.036 42.948 42.943 43.008 43.026 44.016 43.308 43.516 43.423 43.288 43.478 43.438 42.641 42.613 42.636 43.326 43.096 43.693 44.821 42.678 42.628 42.648 42.683 42.911 42.758 41.538 41.001 45.478 49.521 49.386 49.466 49.546 49.616 49.601 49.638 49.478 49.503 49.436 48.516 40.993 40.966 41.741 42.458 42.021 41.613 42.043 40.138 40.151 40.008 39.876 39.646 39.561 39.463 39.416 39.361 39.286 39.191 39.413 39.246 38.933 39.233 38.746 38.793 38.851 38.881 38.843 38.756 38.651 38.491 38.483 38.656 39.526 40.768 39.248 40.608 45.261 47.828 48.443 48.813 48.501 48.101 46.638 46.491 46.146 46.071 44.878 38.356 38.108 38.003 38.001 37.963 38.151 37.978 37.831 38.333 39.173 38.043 38.316 38.858 38.263 38.758 39.503 40.733 40.366 38.338 38.778 39.088 38.471 37.778 38.056 39.123 39.516 38.073 38.348 42.401 41.221 38.643 37.038 44.881 45.848 46.513 47.013 46.783 46.168 45.738 43.766 42.583 37.178 37.213 38.311 37.943 37.823 43.873 41.898 39.083 38.923 38.123 40.011 40.668 38.541 37.136 37.116 37.113 37.141 37.941 43.288 45.693 46.676 47.441 47.363 46.553 41.781 37.006 37.646 38.321 36.518 36.256 36.416 37.071 36.323
71.259 71.659 69.029 67.727 67.084 66.082 65.559 67.414 68.957 68.049 69.457 66.717 66.497 66.927 64.729 64.092 63.719 62.294 62.129 62.312 61.752 61.199 60.992 60.737 60.972 60.372 62.109 64.892 66.249 63.569 61.579 61.617 58.519 58.887 58.644 57.709 57.434 57.287 57.129 57.142 57.097 57.022 56.994 57.237 56.962 57.002 56.549 58.412 63.182 64.222 65.224 65.077 62.609 60.017 56.389 54.429 54.582 53.724 53.597 53.279 53.042 53.049 54.394 52.529 52.404 53.137 52.157 52.179 52.414 51.767 51.497 53.244 52.044 53.199 52.099 53.537 52.397 50.697 50.349 50.164 50.069 51.099 51.484 50.577 50.012 49.892 49.297 49.164 49.079 49.877 53.292 54.099 53.427 53.967 53.257 51.039 51.274 47.896 47.861 47.709 48.876 48.109 49.619 49.381 46.989 46.974 47.489 47.194 46.746 46.889 48.621 50.101 51.051 51.271 49.934 51.681 49.134 47.791 49.894 51.861 49.039 47.781 46.321 46.209 47.769 46.526 46.856 46.659 45.784 45.601 45.559 45.549 45.504 45.504 45.461 45.439 45.431 45.366 45.371 45.331 45.286 45.254 45.264 45.211 45.189 45.139 45.156 45.114 45.101 45.081 45.046 45.026 44.986 44.859 44.781 44.791 44.766 44.739 47.729 49.651 48.981 45.059 44.279 45.581 47.874 46.216 44.229 44.464 44.091 44.064 44.051 44.069 44.046 44.031 44.024 44.004 44.021 44.046 44.041 44.041 44.046 44.051 44.069 44.069 44.051 44.059 44.091 44.086 44.109 44.311 44.291 44.304 44.169 44.144 44.074 44.026 44.004 43.971 43.954 43.919 43.889 43.844 43.819 43.784 43.776 43.749 43.746 43.729 43.706 43.669 43.634 43.614 43.629 43.651 43.634 43.634 43.614 43.609 43.609 43.586 43.591 43.569 43.544 43.534 43.494 43.469 43.441 43.416 43.394 43.386 43.386 43.374 43.386 43.384 43.359 43.394 43.339 43.409 43.529 43.476 43.451 43.466 43.419 43.439 43.409 43.439 43.466 43.461 43.398 43.416 43.356 43.406 43.436 43.403 43.291 43.298 43.561 43.591 43.226 43.218 43.961 45.921 43.236 43.628 43.616 43.313 43.076 43.033 42.991 42.971 42.968 42.946 42.958 42.998 43.263 43.838 43.168 42.786 42.763 42.888 42.683 42.646 42.608 42.603 42.603 45.288 45.436 50.191 43.708 42.648 42.686 42.703 43.193 41.706 40.983 41.473 46.696 49.446 49.468 49.481 49.528 49.588 49.526 49.631 49.503 49.421 48.763 46.003 41.016 41.053 42.943 41.116 41.083 40.243 40.188 40.166 40.096 39.936 39.688 39.551 39.531 39.468 39.411 39.361 39.313 39.241 39.216 39.581 39.646 39.056 38.811 38.711 38.703 38.768 38.881 38.781 38.661 38.538 38.426 38.373 39.536 39.923 38.378 38.386 38.923 43.768 47.351 48.186 48.848 48.868 48.008 47.556 46.856 45.466 40.026 38.211 39.036 37.673 37.811 38.061 39.123 37.933 37.938 37.963 38.183 37.993 37.973 39.063 39.023 38.321 37.983 39.121 38.961 38.548 39.073 38.571 39.468 38.238 40.853 38.856 38.431 37.776 40.018 39.668 42.051 40.783 37.008 38.878 42.643 45.526 46.198 46.823 47.013 46.631 46.066 45.491 42.351 38.333 38.391 37.871 40.306 42.003 44.533 43.426 39.896 40.593 42.756 41.971 41.643 37.171 37.126 37.116 37.411 41.031 45.203 46.953 47.483 47.658 46.563 45.738 37.881 36.828 36.953 37.758 37.461 36.248 36.243 37.228 38.081
69.837 72.094 70.652 67.927 66.889 66.282 65.677 68.932 69.354 65.552 68.474 65.409 68.037 64.974 63.674 62.462 62.577 62.199 62.074 61.884 61.467 61.087 60.819 60.599 60.384 59.822 61.664 64.009 66.364 66.514 65.647 65.072 61.797 59.094 58.654 58.464 57.939 57.247 57.097 57.107 57.059 56.987 56.922 57.004 57.594 57.502 56.709 59.587 63.119 64.399 65.267 65.092 62.789 59.939 55.487 54.724 54.302 54.297 54.544 54.254 54.964 53.512 53.342 53.007 52.539 52.907 53.322 52.069 51.757 51.774 51.577 52.739 54.249 53.237 54.399 52.382 50.634 50.459 50.292 50.202 50.212 50.564 50.842 49.912 49.509 49.367 49.262 49.192 49.844 49.749 50.642 54.659 51.069 54.617 51.342 53.387 50.826 49.349 47.906 47.749 48.769 47.939 48.964 48.969 49.119 47.139 46.869 46.821 47.026 47.171 49.884 50.976 50.029 49.724 52.199 49.809 50.061 47.899 49.606 51.634 48.751 47.184 46.951 46.409 46.671 48.679 48.186 48.284 46.164 47.284 45.589 45.556 45.541 45.526 45.489 45.486 45.434 45.386 45.364 45.336 45.314 45.269 45.249 45.216 45.221 45.201 45.166 45.141 45.119 45.079 45.069 45.024 44.889 44.831 44.811 44.789 44.779 44.741 44.989 48.604 48.041 46.609 44.524 44.931 44.996 44.334 44.344 44.206 44.176 44.161 44.136 44.139 44.124 44.109 44.061 44.074 44.091 44.109 44.114 44.096 44.131 44.101 44.131 44.149 44.154 44.151 44.166 44.156 44.156 44.249 44.339 44.336 44.264 44.166 44.171 44.104 44.074 44.056 43.991 43.991 43.966 43.936 43.896 43.864 43.851 43.811 43.824 43.799 43.771 43.744 43.709 43.714 43.694 43.706 43.704 43.676 43.659 43.659 43.656 43.661 43.659 43.619 43.606 43.559 43.531 43.506 43.479 43.456 43.526 43.416 43.416 43.434 43.416 43.406 43.366 43.431 43.514 43.479 43.489 43.506 43.521 43.509 43.514 43.506 43.481 43.496 43.318 43.446 43.421 43.398 43.381 43.353 43.358 43.426 43.343 43.363 43.746 43.468 43.223 43.408 44.881 44.383 44.128 43.486 43.523 43.671 43.088 42.966 42.938 42.956 42.968 42.958 42.901 42.943 42.971 42.976 42.833 42.793 42.768 42.733 42.683 42.646 42.601 43.291 42.741 45.676 45.048 48.696 44.341 42.831 42.666 43.171 42.488 41.133 40.946 44.691 49.446 49.463 49.478 49.523 49.546 49.528 49.486 49.501 49.493 48.551 42.203 41.473 41.023 42.641 41.343 40.766 40.248 40.223 40.296 40.188 40.028 39.778 39.591 39.551 39.491 39.458 39.416 39.361 39.313 39.253 39.218 39.243 40.203 39.578 38.918 38.708 38.661 38.591 38.663 38.733 38.736 38.603 38.468 38.328 38.271 39.353 38.526 38.931 38.593 38.368 42.248 47.221 48.298 48.536 48.751 48.368 47.668 45.491 39.666 38.428 42.066 41.923 37.838 39.213 38.241 37.908 38.151 37.968 38.026 37.843 37.896 38.673 37.673 37.731 37.988 37.966 37.608 37.836 38.463 38.548 39.486 39.856 40.741 38.876 38.316 37.871 40.596 37.363 37.111 38.261 37.371 37.271 37.518 39.846 45.371 45.891 46.541 47.058 46.998 46.651 45.691 44.078 39.273 38.058 38.436 42.013 43.776 43.968 40.951 41.866 41.146 41.358 40.696 37.551 37.126 38.441 43.173 45.821 46.641 47.496 47.366 46.573 45.646 38.076 36.756 36.803 36.911 36.883 38.886 36.666 36.253 36.948 37.638
70.984 68.539 67.942 67.147 66.474 66.214 65.167 67.384 67.637 68.029 69.172 66.107 70.579 70.539 63.599 62.367 62.287 62.132 62.012 61.817 61.344 61.029 60.759 60.517 60.319 59.819 59.319 63.459 67.149 68.202 67.327 66.079 62.232 59.259 58.932 58.239 57.897 57.217 57.914 57.092 57.047 56.949 56.912 56.992 57.112 57.234 56.837 58.674 62.912 64.434 65.227 64.594 62.947 58.577 56.017 54.579 54.179 53.732 53.724 53.314 53.229 53.394 52.669 52.529 52.452 52.414 52.584 52.172 51.792 51.692 51.987 52.572 52.054 52.372 51.512 51.067 50.609 50.467 50.374 50.394 51.917 50.724 49.804 49.652 49.564 49.447 49.249 49.209 49.627 49.502 51.632 54.229 54.449 55.839 53.804 54.787 51.089 48.679 47.904 47.784 48.321 48.636 50.826 52.651 50.219 48.054 48.409 47.821 47.339 48.191 50.491 51.629 49.719 52.739 50.609 50.299 50.261 48.526 50.976 48.491 47.214 46.751 46.699 46.534 46.446 48.299 49.801 49.461 48.116 47.466 46.249 45.549 45.554 45.539 45.489 45.479 45.449 45.376 45.381 45.356 45.326 45.309 45.269 45.249 45.216 45.191 45.171 45.149 45.124 45.079 44.961 44.909 44.881 44.841 44.834 44.804 44.784 44.746 44.734 44.764 46.281 46.406 44.739 44.494 44.414 44.399 44.331 44.266 44.254 44.266 44.244 44.206 44.211 44.179 44.129 44.149 44.169 44.184 44.196 44.191 44.189 44.194 44.194 44.204 44.216 44.211 44.221 44.209 44.224 44.224 44.356 44.384 44.374 44.271 44.254 44.204 44.161 44.124 44.091 44.061 44.021 43.956 43.949 43.939 43.924 43.901 43.881 43.869 43.834 43.801 43.774 43.756 43.754 43.754 43.751 43.731 43.739 43.739 43.719 43.709 43.704 43.669 43.629 43.621 43.581 43.536 43.516 43.501 43.496 43.461 43.466 43.446 43.439 43.489 43.524 43.566 43.526 43.489 43.496 43.529 43.581 43.579 43.574 43.619 43.564 43.526 43.368 43.418 43.398 43.378 43.348 43.341 43.323 43.303 43.308 43.371 43.348 43.283 43.163 43.163 43.566 44.536 43.238 43.188 43.206 43.758 43.431 43.013 42.908 42.931 42.928 42.948 42.863 42.921 43.118 43.076 42.868 42.806 42.748 42.753 42.681 42.651 42.576 42.828 46.696 45.256 46.528 50.196 44.658 44.093 43.058 42.901 42.283 41.398 43.603 49.006 49.466 49.486 49.738 50.921 50.026 49.628 49.468 49.458 49.276 46.006 41.318 41.233 42.163 42.266 41.001 40.333 40.241 40.233 40.276 40.056 39.861 39.613 39.591 39.561 39.503 39.471 39.443 39.386 39.281 39.241 39.241 39.231 39.251 39.363 39.548 39.056 38.668 38.583 38.531 38.578 38.923 38.556 38.508 38.408 38.261 38.233 38.218 38.536 38.781 38.298 41.721 42.626 45.883 47.823 48.528 48.716 48.091 46.703 39.106 42.116 43.043 40.513 37.666 38.903 37.933 37.876 38.113 37.926 38.126 37.853 38.506 37.638 37.623 37.676 38.238 37.758 37.486 37.708 38.206 38.666 38.501 39.471 40.173 39.936 39.321 37.806 38.968 36.981 36.923 37.273 37.268 37.803 37.756 38.788 43.188 41.648 45.343 46.178 46.803 47.171 46.716 46.051 44.948 42.913 38.868 38.933 39.363 39.911 40.463 38.446 39.811 39.666 38.068 37.063 37.306 41.643 45.783 46.646 47.656 47.413 46.578 45.753 39.058 36.723 36.753 36.863 36.916 36.913 37.366 38.803 37.901 36.753 36.311
74.434 73.944 68.657 67.182 66.454 65.744 65.054 67.204 69.832 70.737 68.707 69.784 72.177 73.532 64.829 62.332 62.237 62.117 62.044 61.792 61.297 60.922 60.699 60.467 60.247 59.884 59.269 63.219 68.202 68.242 67.012 66.072 62.004 59.142 58.882 58.437 57.897 57.142 57.854 57.037 56.999 56.909 56.872 56.922 56.962 57.057 56.639 57.497 62.874 64.312 65.124 64.782 63.202 58.489 56.202 54.422 54.219 53.629 53.352 53.147 52.977 52.822 52.594 52.457 52.572 52.247 52.084 51.902 51.759 53.087 55.644 51.822 52.349 51.027 50.839 51.157 51.559 51.577 50.729 50.219 50.114 49.907 49.819 49.672 49.577 49.414 49.219 49.559 49.812 50.189 52.327 51.094 54.204 51.847 53.654 51.184 48.336 48.124 48.029 47.816 47.616 48.951 52.611 52.224 52.024 49.926 48.179 48.074 47.354 50.211 50.406 51.594 51.229 51.504 49.331 52.899 50.571 48.829 48.661 46.879 46.804 46.779 46.751 46.626 47.776 49.261 49.219 49.706 47.816 47.266 46.389 45.591 45.559 45.529 45.506 45.471 45.441 45.419 45.389 45.381 45.334 45.301 45.291 45.271 45.239 45.196 45.181 45.169 45.119 45.026 44.944 44.926 44.911 44.871 44.831 44.824 44.791 44.771 44.766 44.716 45.119 45.569 44.739 44.501 45.091 44.446 44.336 44.344 44.336 44.326 44.321 44.294 44.266 44.251 44.201 44.239 44.246 44.264 44.266 44.259 44.256 44.251 44.271 44.269 44.284 44.301 44.279 44.281 44.286 44.266 44.326 44.416 44.421 44.381 44.289 44.269 44.241 44.199 44.151 44.114 44.056 44.029 44.009 43.991 43.989 43.951 43.926 43.899 43.869 43.861 43.846 43.831 43.804 43.774 43.789 43.801 43.809 43.796 43.776 43.759 43.741 43.706 43.689 43.666 43.661 43.621 43.579 43.541 43.521 43.494 43.499 43.486 43.519 43.601 43.526 43.529 43.514 43.514 43.614 43.571 43.546 43.596 43.631 43.641 43.569 43.506 43.371 43.441 43.393 43.376 43.411 43.391 43.336 43.308 43.293 43.288 43.318 43.241 43.998 45.411 45.041 43.608 43.206 43.071 43.031 43.276 43.546 43.201 42.963 42.946 42.913 42.941 42.941 42.953 43.028 42.926 42.848 42.806 42.751 42.723 42.653 42.611 42.553 43.328 44.246 47.776 48.803 47.701 45.768 43.753 42.958 42.338 41.626 41.103 43.671 48.576 49.473 49.523 51.393 52.836 52.606 52.448 50.053 49.433 46.906 42.633 41.466 41.603 42.888 41.026 40.466 40.151 40.228 40.568 40.098 39.971 39.671 39.641 39.601 39.568 39.541 39.496 39.441 39.353 39.283 39.271 39.251 39.258 39.248 39.223 39.378 39.496 39.353 38.781 38.541 38.443 38.433 38.448 38.488 38.393 38.311 38.233 38.121 38.138 39.628 39.781 42.011 39.333 39.331 43.533 47.786 48.138 47.623 41.556 44.158 46.873 43.551 37.626 38.568 42.191 41.686 38.116 37.778 37.693 37.696 38.251 38.248 37.628 37.781 38.071 38.736 37.641 37.651 37.691 38.593 39.271 40.573 40.046 40.268 40.363 40.011 39.003 39.231 37.366 36.933 36.916 37.678 37.398 37.683 36.978 36.961 37.016 39.131 43.271 45.851 46.468 47.021 47.036 46.821 45.698 44.001 40.043 38.138 37.581 37.476 37.311 39.051 40.033 37.061 37.061 38.776 45.791 46.633 47.463 47.363 46.591 45.718 39.976 36.661 36.716 36.706 36.823 36.903 36.831 40.098 41.671 40.168 36.598 35.876
74.784 75.357 74.597 69.574 65.802 65.207 65.019 66.442 68.189 70.254 69.784 68.972 71.244 71.859 65.084 62.369 62.249 62.134 61.977 62.117 61.459 60.952 60.847 60.479 60.619 60.607 59.807 63.164 68.207 68.464 67.457 66.144 62.217 59.022 59.439 58.544 57.979 57.092 56.999 56.964 56.952 56.854 56.809 57.754 57.512 56.529 56.362 57.719 63.009 63.282 65.127 64.792 63.587 58.089 55.544 54.127 53.944 53.487 53.447 53.144 53.119 52.909 52.664 52.972 53.797 52.399 52.289 55.059 51.957 51.707 52.192 52.934 52.519 50.969 50.899 51.467 51.474 52.212 50.839 50.137 50.039 49.924 49.812 49.682 49.562 49.412 49.212 49.619 50.017 51.174 52.737 50.757 51.099 51.452 48.749 51.267 48.399 48.196 48.004 47.796 47.616 47.554 49.776 51.594 53.461 53.244 48.881 49.166 48.684 48.344 51.959 50.649 51.706 53.739 51.239 52.006 51.384 48.264 47.401 46.799 46.811 46.806 46.756 46.716 46.631 46.759 49.081 48.419 51.036 47.046 48.964 45.626 45.554 45.539 45.551 45.509 45.474 45.406 45.414 45.399 45.364 45.324 45.314 45.286 45.244 45.231 45.196 45.066 45.009 44.989 44.956 44.949 44.904 44.866 44.881 44.821 44.826 44.794 44.779 49.021 47.366 46.046 44.559 45.171 45.521 44.484 44.626 44.391 44.384 44.389 44.414 44.394 44.354 44.296 44.301 44.304 44.301 44.321 44.324 44.324 44.309 44.321 44.344 44.369 44.349 44.359 44.344 44.349 44.354 44.329 44.346 44.479 44.514 44.466 44.419 44.341 44.306 44.256 44.214 44.191 44.114 44.089 44.071 44.051 44.036 43.994 43.964 43.936 43.924 43.924 43.904 43.871 43.839 43.814 43.834 43.849 43.871 43.834 43.814 43.789 43.754 43.729 43.741 43.761 43.766 43.694 43.639 43.564 43.536 43.514 43.534 43.614 43.634 43.551 43.534 43.541 43.551 43.656 43.621 43.579 43.559 43.564 43.586 43.516 43.499 43.491 43.486 43.518 43.496 43.511 43.546 43.386 43.293 43.318 43.298 43.296 43.273 43.286 46.221 46.866 46.813 45.478 43.836 43.608 43.333 43.406 44.596 44.313 43.048 42.921 42.858 42.888 42.916 42.921 42.896 42.896 42.886 42.801 42.793 42.741 42.671 43.608 46.546 46.816 48.211 48.966 48.886 44.866 43.766 42.966 42.193 41.676 42.066 41.166 38.471 42.916 48.206 51.033 52.868 52.841 52.821 52.786 52.533 46.731 40.973 41.031 41.138 41.476 41.078 40.763 39.941 40.063 40.618 40.433 40.023 39.723 39.638 39.611 39.596 39.558 39.508 39.483 39.446 39.376 39.328 39.311 39.301 39.283 39.261 39.233 39.226 39.366 39.493 39.541 38.963 38.491 38.438 38.366 38.311 38.368 38.341 38.243 38.226 38.146 38.056 38.991 39.941 38.778 39.271 38.093 42.386 47.166 43.356 42.268 47.086 47.548 47.023 43.053 41.963 43.056 39.581 40.096 40.218 38.161 38.336 38.231 37.631 38.418 39.378 38.338 38.656 41.296 38.478 37.601 38.723 40.388 40.216 38.841 38.873 40.091 39.461 40.333 40.571 39.591 38.556 36.958 36.966 37.051 36.971 36.948 36.981 37.036 37.296 37.893 42.431 45.521 46.151 46.798 47.111 46.638 45.923 45.236 41.261 37.338 36.978 37.141 37.953 37.796 37.018 38.236 45.793 46.603 47.466 47.526 46.636 45.058 39.133 36.621 36.643 36.676 36.641 36.658 36.911 39.463 40.316 39.786 37.571 36.243 35.831
75.492 76.354 75.737 72.922 71.849 65.322 65.174 66.379 66.207 65.427 66.227 70.089 72.742 70.364 65.852 64.637 63.807 63.247 62.247 62.709 63.209 61.899 62.114 62.107 61.374 60.059 61.464 63.802 66.732 68.269 67.664 66.774 64.302 59.149 58.497 58.269 58.197 57.009 56.902 56.902 56.919 56.802 56.747 57.832 57.382 56.482 56.327 57.249 63.072 64.162 65.694 64.647 63.224 58.362 56.007 55.232 54.054 54.712 54.669 53.434 53.754 53.569 54.549 53.659 56.002 56.672 54.742 60.469 52.519 51.694 51.397 51.237 51.112 50.992 51.774 51.989 51.752 50.514 50.292 50.189 50.047 49.914 49.757 49.639 49.499 49.387 49.222 49.447 50.084 54.044 52.134 49.184 49.697 49.972 48.439 48.409 48.374 48.526 48.909 48.554 48.171 47.839 49.931 52.094 52.081 51.141 50.586 49.374 48.789 49.554 50.466 51.379 52.416 51.371 52.886 51.951 49.581 47.164 46.851 46.819 46.791 46.774 46.786 46.764 46.936 47.034 46.544 49.109 50.574 49.729 51.099 47.321 45.809 45.534 45.544 45.509 45.476 45.461 45.424 45.429 45.376 45.354 45.321 45.296 45.274 45.206 45.091 45.069 45.026 44.986 44.989 44.934 44.939 44.921 44.879 44.864 44.829 44.816 46.941 48.584 45.484 47.904 44.609 44.829 45.734 44.454 44.451 44.441 44.439 44.441 44.441 44.454 44.429 44.376 44.414 44.399 44.381 44.401 44.394 44.389 44.396 44.379 44.411 44.436 44.414 44.401 44.399 44.419 44.406 44.401 44.379 44.399 44.544 44.586 44.566 44.611 44.409 44.319 44.311 44.264 44.184 44.146 44.139 44.119 44.071 44.039 43.999 43.976 43.971 43.974 43.959 43.934 43.881 43.869 43.861 43.884 43.896 43.876 43.816 43.801 43.794 43.781 43.819 43.816 43.784 43.731 43.681 43.601 43.579 43.609 43.666 43.606 43.576 43.616 43.571 43.599 43.599 43.591 43.576 43.559 43.576 43.589 43.524 43.526 43.494 43.494 43.496 43.506 43.521 43.508 43.513 43.423 43.343 43.313 43.276 43.276 43.383 43.561 46.498 45.718 46.201 46.348 43.358 44.633 44.106 45.201 46.151 45.106 43.178 42.933 42.936 42.871 42.923 42.926 42.888 42.911 42.823 42.796 42.771 42.953 46.011 48.751 47.706 48.036 48.878 47.391 44.798 42.638 42.946 42.466 41.798 41.876 42.348 42.431 39.851 40.518 46.208 52.863 52.813 52.851 52.848 52.833 50.998 40.916 40.958 41.328 41.291 41.253 40.633 39.716 39.868 40.491 41.111 40.061 39.881 39.656 39.638 39.631 39.568 39.511 39.488 39.476 39.461 39.391 39.381 39.351 39.351 39.293 39.226 39.191 39.181 39.191 39.311 39.618 39.758 39.203 38.698 38.403 38.311 38.253 38.263 38.208 38.166 38.191 38.248 37.996 38.271 39.178 38.091 38.276 38.263 38.996 39.406 45.001 47.613 48.173 48.478 47.188 46.356 41.406 39.698 44.181 42.533 37.991 38.293 37.813 37.641 39.518 38.903 38.443 38.916 40.426 38.036 37.481 37.728 39.886 39.198 38.621 37.943 38.071 38.151 39.926 41.273 41.738 39.343 37.001 36.993 37.003 36.941 36.943 36.968 37.713 37.381 37.451 37.021 39.526 42.688 45.816 46.466 46.983 46.758 46.088 45.418 42.881 37.876 36.941 38.808 38.533 37.186 37.303 41.451 47.443 47.443 46.611 45.063 38.846 36.641 36.613 36.616 36.628 36.738 36.933 36.383 36.373 36.693 35.808 35.801 36.698 36.108
76.347 76.802 75.787 74.579 67.302 66.112 65.427 67.407 66.362 67.802 66.079 70.602 73.669 72.517 62.967 62.192 62.137 61.767 61.777 61.309 61.292 61.637 61.502 60.304 60.229 59.079 60.049 63.739 67.244 67.819 67.802 67.632 64.027 59.289 58.479 58.174 57.982 56.977 56.797 56.879 56.849 56.779 56.709 58.219 60.797 57.362 56.767 59.802 62.889 63.797 65.032 64.692 64.354 58.909 57.322 54.909 53.902 53.499 53.312 53.067 52.934 53.729 57.197 53.947 53.859 53.949 52.404 53.352 51.839 51.517 51.322 51.214 51.057 52.159 52.539 51.102 50.509 50.377 50.292 50.189 50.052 49.847 49.707 49.612 49.454 49.337 49.759 50.202 52.899 51.647 52.097 49.164 49.419 49.059 48.404 48.429 48.569 50.581 52.404 50.381 48.014 47.756 49.364 47.374 50.659 50.271 49.086 49.691 50.784 48.434 52.586 51.216 52.956 52.706 50.649 50.326 47.184 46.869 46.844 46.794 46.781 46.781 46.779 46.766 46.714 47.164 46.941 48.169 48.809 49.991 47.461 49.164 45.861 45.566 45.539 45.529 45.471 45.461 45.444 45.431 45.391 45.341 45.339 45.311 45.204 45.139 45.111 45.076 45.044 44.994 45.016 44.981 44.949 44.946 44.906 44.889 46.481 44.901 44.891 49.024 47.694 48.734 45.989 45.316 44.521 44.479 44.491 44.479 44.479 44.484 44.504 44.511 44.484 44.471 44.516 44.509 44.456 44.451 44.449 44.464 44.461 44.454 44.459 44.476 44.474 44.484 44.466 44.459 44.471 44.471 44.471 44.449 44.539 44.624 44.614 44.546 44.506 44.409 44.389 44.311 44.271 44.201 44.186 44.161 44.129 44.079 44.046 44.026 43.996 43.994 43.989 43.944 43.926 43.911 43.911 43.899 43.906 43.886 43.844 43.846 43.831 43.854 43.844 43.844 43.821 43.756 43.694 43.666 43.679 43.684 43.664 43.616 43.596 43.586 43.624 43.656 43.594 43.591 43.566 43.539 43.526 43.536 43.559 43.524 43.531 43.504 43.548 43.581 43.528 43.593 43.506 43.461 43.366 43.306 43.303 43.446 44.113 43.481 45.681 46.803 46.506 45.598 44.666 44.786 46.926 47.158 45.483 45.896 43.393 42.928 44.368 42.898 42.896 42.916 42.888 42.871 42.791 43.608 46.173 46.968 48.738 46.741 45.496 48.333 48.626 48.131 43.276 42.531 42.476 41.921 42.048 41.911 42.328 41.918 43.903 43.738 48.986 52.803 53.061 53.261 52.841 52.886 41.283 41.836 43.553 41.443 41.103 39.858 39.396 39.568 40.106 40.921 40.103 39.946 39.708 39.676 39.658 39.603 39.538 39.471 39.448 39.433 39.563 39.438 39.438 39.376 39.328 39.271 39.188 39.176 39.138 39.143 39.171 39.251 39.698 40.126 39.798 38.673 38.363 38.278 38.186 38.151 38.133 38.111 38.058 37.963 37.898 37.893 37.981 38.278 38.171 38.058 37.713 43.593 47.116 48.658 48.088 47.498 46.733 39.188 44.293 45.103 39.526 39.213 39.128 37.703 37.881 39.848 37.691 37.506 37.776 38.046 37.511 37.583 38.088 39.351 38.031 39.391 38.741 39.753 37.993 38.088 40.408 40.631 37.943 37.028 37.048 37.033 36.993 36.956 36.953 37.281 37.556 37.166 37.041 37.283 37.373 42.161 44.663 46.153 46.816 46.978 46.476 45.746 43.691 40.696 38.416 38.621 36.941 36.918 36.803 40.211 45.428 45.823 39.918 36.641 36.593 36.616 36.616 37.663 38.963 36.541 36.118 36.093 36.508 36.066 35.861 36.636 37.231
76.889 76.069 74.929 70.017 65.452 65.249 65.347 65.644 67.529 66.884 68.097 71.104 74.329 72.452 66.664 62.109 61.904 61.697 62.672 61.239 60.934 60.682 60.464 60.229 60.114 59.112 60.369 63.619 66.204 67.422 67.287 66.004 63.467 59.344 58.389 58.027 57.877 56.947 56.739 56.769 56.792 56.704 56.642 58.154 58.487 56.344 56.294 61.202 62.864 64.289 64.784 64.702 64.687 58.939 57.829 54.214 53.947 53.477 53.174 53.054 52.939 53.297 55.217 53.234 52.354 52.129 51.902 51.819 51.567 51.504 51.287 51.589 52.519 52.212 50.749 50.629 50.524 50.384 50.622 50.227 50.034 49.839 49.697 49.567 50.769 51.197 49.554 49.917 50.089 48.957 51.934 49.594 49.379 49.214 48.549 48.527 48.484 49.914 50.511 51.864 50.779 48.551 50.916 52.626 51.759 49.261 51.096 48.256 50.204 49.889 48.221 49.399 48.816 50.206 48.396 49.774 46.874 46.851 46.826 46.826 46.821 46.819 46.786 46.796 46.774 46.674 46.584 46.514 47.411 49.584 48.174 49.954 47.046 47.286 45.561 45.531 45.519 45.494 45.459 45.444 45.399 45.356 45.301 45.226 45.194 45.159 45.124 45.081 45.059 45.021 44.999 44.984 44.976 44.944 44.949 44.924 46.516 45.014 45.284 49.191 45.694 45.741 45.726 44.601 44.566 44.529 44.556 44.534 44.529 44.544 44.566 44.569 44.546 44.549 44.594 44.589 44.574 44.529 44.509 44.509 44.536 44.529 44.506 44.511 44.536 44.559 44.541 44.531 44.526 44.489 44.526 44.509 44.546 44.609 44.611 44.604 44.571 44.529 44.471 44.404 44.341 44.254 44.214 44.181 44.171 44.139 44.119 44.094 44.041 44.009 43.989 43.974 43.941 43.944 43.961 43.946 43.961 43.939 43.904 43.876 43.896 43.884 43.886 43.866 43.816 43.776 43.734 44.171 43.906 43.686 43.706 43.689 43.699 43.601 43.669 43.651 43.659 43.576 43.571 43.531 43.591 43.551 43.559 43.544 43.516 43.511 43.541 43.513 43.506 43.448 43.443 43.423 43.756 43.786 43.266 44.576 45.816 44.681 43.561 44.236 44.868 44.376 45.766 46.123 46.196 48.568 46.336 44.863 44.483 43.906 44.193 46.111 42.958 42.896 42.858 45.653 47.238 46.873 49.256 48.758 46.411 46.351 48.733 48.043 49.283 45.838 42.216 42.131 42.018 42.123 42.158 41.588 41.623 49.093 51.786 52.718 52.773 52.803 53.253 53.973 53.063 47.006 44.561 44.508 47.586 44.281 39.018 39.068 39.276 39.881 41.196 40.193 40.036 39.723 39.698 39.648 39.638 39.568 39.486 39.453 39.373 39.383 39.421 39.438 39.426 39.378 39.298 39.243 39.176 39.118 39.081 39.106 39.156 39.156 39.273 39.731 39.966 38.573 38.471 38.373 38.248 38.168 38.106 38.071 38.031 37.978 37.896 37.851 37.813 37.931 38.226 38.031 37.696 37.766 41.721 46.946 47.336 46.761 39.463 46.336 46.843 45.021 39.213 39.818 42.961 41.598 39.106 38.713 37.703 37.658 38.148 37.713 37.478 38.331 40.523 40.806 37.671 39.593 39.858 39.098 38.213 37.908 40.883 37.708 37.003 37.081 37.086 37.068 37.008 36.953 36.933 36.893 36.861 36.866 37.776 37.483 37.466 37.141 40.738 45.258 45.826 46.491 46.991 46.393 45.871 42.233 38.828 36.876 36.848 36.826 36.821 36.721 40.743 40.788 36.641 36.606 36.561 37.171 38.153 36.956 36.213 36.806 36.161 36.148 36.898 36.238 35.908 35.881 37.978
76.384 75.257 71.794 66.587 66.264 65.154 65.812 68.164 67.482 67.284 67.719 68.617 70.739 69.714 66.627 62.062 61.832 61.597 61.402 61.152 60.922 60.647 60.417 60.154 60.057 59.267 60.454 63.632 66.062 66.757 66.914 65.757 63.604 58.252 57.934 57.532 57.432 56.879 56.707 56.727 56.717 56.672 56.582 56.814 57.702 57.889 56.909 58.352 62.307 64.374 64.749 64.709 64.702 58.704 58.177 54.317 53.949 54.049 53.187 52.989 52.934 52.782 52.729 52.399 52.647 52.179 51.952 51.719 51.589 51.459 51.892 52.747 51.754 50.869 50.774 50.622 50.527 50.404 51.577 51.047 50.002 49.854 49.687 49.534 50.069 51.297 50.847 50.842 49.372 50.439 52.174 50.199 48.812 48.927 48.659 48.564 48.504 49.086 50.604 52.224 49.721 50.174 50.869 53.686 52.019 50.081 49.926 50.141 49.636 47.884 46.929 46.931 46.926 48.381 49.349 46.894 46.859 46.844 46.824 46.844 46.814 46.806 46.796 46.814 46.776 46.736 46.684 47.326 47.106 50.186 49.521 51.199 50.171 46.436 46.839 45.559 45.551 45.499 45.481 45.449 45.414 45.329 45.276 45.231 45.214 45.199 45.166 45.119 45.081 45.031 45.014 45.014 44.991 44.989 45.014 45.449 47.139 46.829 47.491 46.311 44.891 46.366 44.639 44.626 44.631 44.624 44.616 44.599 44.591 44.606 44.624 44.614 44.584 44.631 44.666 44.684 44.674 44.621 44.634 44.599 44.589 44.599 44.599 44.584 44.601 44.609 44.586 44.579 44.586 44.556 44.559 44.579 44.581 44.726 44.601 44.619 44.581 44.561 44.554 44.546 44.424 44.321 44.256 44.221 44.206 44.166 44.149 44.116 44.071 44.056 44.011 44.009 44.006 44.001 44.011 43.996 43.979 43.969 43.961 43.936 43.921 43.909 43.901 43.861 43.816 43.906 45.084 44.926 44.014 43.771 43.699 43.706 43.726 43.659 43.659 43.664 43.631 43.594 43.601 43.581 43.584 43.561 43.541 43.551 43.524 43.574 43.518 43.486 43.493 43.461 43.441 43.493 43.938 44.203 44.823 44.316 45.323 43.386 43.191 43.143 43.061 45.098 44.948 45.138 44.856 47.448 47.051 44.818 43.286 45.398 45.971 45.296 47.516 44.023 45.671 49.226 49.456 45.801 46.511 45.911 48.623 46.676 47.698 44.553 42.281 42.156 42.013 41.896 42.308 42.056 42.101 42.613 43.631 50.096 51.886 50.973 52.796 52.826 52.836 52.866 50.653 44.518 47.653 52.791 52.813 50.883 38.903 38.998 40.136 40.963 40.261 40.126 39.778 39.728 39.683 39.636 39.633 39.546 39.488 39.431 39.383 39.373 39.393 39.421 39.393 39.333 39.268 39.208 39.148 39.081 39.068 39.096 39.121 39.143 39.168 39.298 38.918 38.696 38.606 38.493 38.318 38.233 38.123 38.031 37.983 37.958 37.933 37.868 37.821 37.776 37.783 37.836 37.733 38.536 38.783 40.413 45.746 40.516 43.278 47.143 47.548 47.618 44.811 43.406 42.971 38.401 38.178 37.728 37.648 38.768 38.791 37.478 37.481 38.101 37.953 37.556 37.756 39.391 40.801 40.826 37.691 38.748 38.291 37.008 37.066 37.096 37.098 37.308 37.271 36.996 36.943 36.886 36.841 36.911 37.358 38.003 37.453 37.686 38.623 42.423 40.503 45.071 46.126 45.913 43.703 37.318 36.906 36.978 36.778 36.811 36.771 36.698 36.828 39.261 40.193 38.566 37.388 36.741 37.501 36.351 36.098 36.346 36.251 36.406 36.283 36.666 35.928 36.251 37.933
75.522 74.432 67.107 65.247 65.432 65.129 65.252 66.149 69.004 67.994 65.567 67.017 68.877 66.494 63.884 62.027 61.797 61.654 61.507 61.739 62.197 60.599 60.364 60.782 59.447 59.107 61.252 62.047 66.027 65.182 62.369 61.969 60.139 57.832 57.782 58.234 57.147 56.794 56.642 56.692 56.672 56.587 56.589 56.969 58.737 58.499 56.927 58.222 62.099 63.437 63.777 63.037 62.849 58.074 56.327 53.839 53.662 54.022 53.189 53.019 52.917 52.967 52.547 52.279 52.452 53.122 55.574 52.962 51.817 51.387 51.202 51.214 50.934 50.859 50.754 50.629 50.692 50.339 50.214 50.999 50.482 49.794 49.712 50.862 49.959 52.519 54.969 49.047 48.974 49.989 49.724 49.232 48.749 48.692 48.662 48.829 51.321 52.394 49.604 49.024 47.801 48.771 50.526 52.841 51.666 53.176 49.376 49.634 48.434 46.924 46.896 46.931 46.906 46.931 46.894 46.866 46.831 46.829 46.836 46.841 46.816 46.834 46.831 46.851 46.761 46.764 46.729 46.781 47.361 47.319 47.701 48.676 50.439 47.589 46.844 45.586 45.549 45.524 45.499 45.426 45.354 45.654 45.306 45.269 45.224 45.209 45.191 45.121 45.084 45.061 45.031 45.044 45.026 45.224 45.166 45.131 46.954 47.379 46.849 47.031 47.529 45.744 44.709 44.684 44.681 44.661 44.656 44.679 44.646 44.654 44.656 44.669 44.656 44.724 44.734 44.729 44.749 44.736 44.726 44.704 44.696 44.666 44.651 44.681 44.674 44.681 44.671 44.646 44.639 44.604 44.609 44.619 44.631 44.636 44.624 44.581 44.981 44.581 44.551 44.621 44.544 44.496 44.371 44.319 44.234 44.204 44.196 44.146 44.111 44.079 44.066 44.056 44.061 44.061 44.066 44.029 44.004 44.021 43.991 43.969 43.959 43.924 43.881 43.874 44.909 45.671 44.671 44.226 43.891 43.791 43.734 43.771 43.746 43.741 43.686 43.629 43.604 43.621 43.626 43.614 43.576 43.579 43.566 43.566 43.556 43.571 43.568 43.511 43.486 43.443 43.463 43.511 43.428 43.801 47.228 45.326 48.341 43.198 43.348 43.173 44.138 46.903 45.641 48.238 48.231 44.558 43.068 42.986 44.861 47.301 48.536 46.791 46.146 46.643 49.698 48.773 46.473 44.811 47.818 50.106 48.943 45.598 42.436 42.171 42.001 41.873 41.833 42.228 41.971 46.078 51.993 51.866 47.928 52.786 52.791 52.833 52.926 52.921 52.908 52.856 52.903 50.888 52.851 52.818 52.798 52.871 46.043 41.273 41.431 40.296 40.196 39.943 39.746 39.726 39.676 39.648 39.621 39.571 39.501 39.453 39.446 39.398 39.418 39.388 39.356 39.283 39.236 39.163 39.141 39.111 39.093 39.111 39.138 39.153 39.188 39.093 38.956 38.833 38.713 38.498 38.266 38.178 38.178 38.033 37.953 37.906 37.883 37.896 37.836 37.786 37.726 37.766 37.803 38.658 37.881 37.776 38.293 38.473 46.836 47.478 48.471 48.381 47.198 46.656 40.138 39.363 41.391 38.201 37.816 39.371 38.636 37.473 37.776 37.928 37.421 37.403 38.568 38.076 39.728 38.243 40.431 39.173 37.063 37.081 37.128 37.123 37.143 37.181 37.668 37.261 36.943 36.918 36.873 36.848 36.846 37.016 37.198 36.981 36.863 37.318 36.936 38.518 44.331 45.306 38.331 36.833 38.908 39.656 37.808 39.091 36.708 37.693 41.246 42.483 43.053 38.523 36.261 36.226 36.831 36.373 36.131 36.186 38.246 38.578 36.211 36.841 35.993 38.211 40.173
74.659 70.162 65.304 65.124 65.082 64.972 64.914 66.909 68.812 68.397 70.892 66.154 66.254 65.229 62.902 62.042 61.787 61.682 61.599 62.499 64.534 61.567 61.404 62.672 59.782 59.137 59.717 61.319 65.312 63.462 60.307 60.134 58.927 58.262 58.624 58.189 57.907 56.792 56.569 56.579 56.612 56.504 56.437 56.614 56.509 57.054 56.687 56.134 62.289 63.477 62.547 59.347 58.862 57.112 56.774 54.554 54.962 54.259 53.934 54.039 54.974 58.104 54.267 52.394 52.587 55.502 62.519 59.274 52.664 51.352 51.264 51.154 50.929 50.817 50.692 50.697 50.587 50.347 50.174 51.307 50.532 49.984 50.102 49.912 49.739 49.762 52.974 48.994 48.929 49.039 48.982 49.532 48.874 48.699 48.649 49.204 49.459 49.954 47.984 48.464 50.409 51.781 52.529 49.691 51.329 47.429 48.011 46.954 46.951 46.934 46.931 46.926 46.896 46.904 46.851 46.844 46.874 46.849 46.846 46.844 46.876 46.829 46.826 46.799 46.851 46.781 46.766 46.866 46.696 47.266 47.161 48.841 49.056 48.469 47.894 49.776 45.589 45.606 45.416 45.419 45.969 47.871 46.729 45.284 45.266 45.214 45.191 45.129 45.116 45.094 45.089 45.226 45.349 45.276 45.256 45.206 45.304 45.409 47.969 46.004 45.516 44.751 44.741 44.739 44.741 44.719 44.724 44.726 44.711 44.729 44.716 44.706 44.724 44.771 44.801 44.814 44.824 44.819 44.819 44.816 44.779 44.776 44.756 44.769 44.736 44.741 44.704 44.691 44.694 44.671 44.651 44.671 44.679 44.666 44.644 46.039 47.696 46.364 44.661 44.579 44.711 44.569 44.586 44.554 44.521 44.371 44.286 44.254 44.206 44.174 44.131 44.124 44.119 44.091 44.074 44.059 44.036 44.031 43.999 43.964 43.926 43.926 44.291 45.204 45.764 45.159 44.559 44.166 43.899 43.811 43.839 43.776 43.781 43.754 43.729 43.639 43.599 43.626 43.634 43.611 43.606 43.571 43.584 43.594 43.589 43.554 43.561 43.583 43.563 43.451 43.483 43.451 43.358 44.571 45.866 46.921 48.426 44.341 43.096 43.108 43.211 44.866 46.173 48.048 45.908 44.593 44.716 44.083 46.178 45.176 44.188 45.811 48.686 49.473 47.606 47.763 49.068 50.081 48.541 46.331 43.601 42.178 42.081 41.868 41.666 41.796 41.676 43.236 42.988 51.173 52.586 52.781 52.783 51.413 52.876 52.913 53.003 52.978 52.933 52.826 52.831 52.816 52.801 52.776 51.871 49.273 42.193 41.623 40.631 40.173 40.188 40.016 39.766 39.726 39.936 40.151 39.933 40.011 40.088 39.536 39.448 39.408 39.378 39.333 39.306 39.226 39.191 39.168 39.158 39.138 39.108 39.118 39.148 39.231 39.246 39.181 39.078 38.981 39.501 38.553 38.378 38.286 38.218 38.158 38.188 37.988 37.856 37.811 37.831 37.793 37.776 37.683 37.691 39.136 38.768 38.093 39.068 37.776 42.218 46.011 48.136 47.856 47.263 42.858 40.313 45.266 42.078 38.333 38.126 39.081 39.406 38.951 38.323 37.438 37.476 37.721 37.696 37.318 37.751 37.941 38.273 37.113 37.108 37.103 37.111 37.133 37.158 37.118 37.096 39.623 38.068 37.111 37.008 36.888 36.851 36.841 36.856 36.848 37.118 37.678 37.671 36.938 37.706 39.998 36.841 37.281 40.166 40.761 42.448 38.993 38.766 40.396 42.871 42.706 40.491 36.228 36.211 36.226 36.296 36.333 36.166 36.251 37.896 39.588 36.711 36.763 36.088 38.643 41.523
69.312 65.437 65.237 65.099 65.024 64.927 65.234 68.049 69.447 69.672 69.777 66.779 68.514 68.282 65.194 64.157 62.284 62.367 61.934 63.017 63.182 61.994 61.509 61.164 61.052 60.719 59.917 61.907 64.762 63.924 60.794 60.687 59.312 58.257 57.974 57.642 57.637 56.712 56.499 56.552 56.539 56.482 56.357 56.424 56.392 56.647 56.509 56.012 61.164 63.399 63.107 55.252 55.149 55.142 55.569 54.414 53.962 53.427 53.634 53.194 53.872 57.117 53.132 52.622 52.529 53.347 56.767 54.404 51.424 51.357 51.412 51.369 50.964 50.759 50.579 50.482 50.382 50.259 50.132 50.232 50.137 49.762 49.624 49.444 50.262 52.719 49.234 48.969 49.042 49.184 48.824 49.894 48.754 48.652 49.699 49.892 48.416 47.939 50.841 52.449 51.501 52.984 54.564 49.289 47.046 46.959 46.984 46.999 46.964 46.949 46.924 46.924 46.909 46.879 46.891 46.869 46.866 46.861 46.851 46.846 46.841 46.839 46.831 46.829 46.819 46.794 46.754 46.776 47.071 46.561 46.479 47.084 49.549 49.844 49.019 48.651 46.244 45.436 45.459 46.861 48.136 48.171 48.236 45.634 45.271 45.209 45.211 45.184 45.139 45.131 45.451 45.421 45.426 45.411 45.289 45.194 45.104 45.189 45.489 46.029 44.831 44.829 44.809 44.814 44.816 44.799 44.801 44.801 44.801 44.781 44.779 44.771 44.786 44.824 44.854 44.864 44.856 44.871 44.906 44.919 44.901 44.866 44.846 44.836 44.809 44.806 44.781 44.761 44.759 44.741 44.729 44.754 44.744 44.739 44.696 45.571 47.881 47.021 45.009 44.586 44.724 44.611 44.751 44.556 44.569 44.676 44.469 44.569 44.416 44.336 44.274 44.191 44.129 44.116 44.066 44.041 44.054 44.041 43.999 43.989 44.241 44.936 44.956 44.786 45.186 44.651 44.214 43.861 43.944 44.074 43.961 43.844 43.849 43.784 43.729 43.664 43.636 43.621 43.641 43.654 43.641 43.651 43.606 43.606 43.671 43.644 43.641 43.616 43.568 43.511 43.441 43.423 43.331 44.058 44.031 44.656 45.713 44.588 43.068 43.683 44.586 48.168 44.891 48.666 45.473 45.451 42.916 44.056 48.208 47.256 46.631 46.966 49.206 48.338 49.158 48.761 48.886 47.196 43.343 42.111 42.021 41.903 41.811 42.011 42.193 43.823 50.096 51.113 51.703 52.386 52.253 52.793 52.818 53.051 52.988 52.998 53.051 52.963 52.923 52.803 52.781 52.781 52.773 50.821 43.378 41.098 40.818 40.806 40.196 40.401 39.968 39.823 39.776 39.706 39.918 39.551 39.838 40.281 39.831 40.651 39.486 39.396 39.343 39.266 39.208 39.173 39.158 39.178 39.166 39.141 39.136 39.206 39.203 39.241 39.228 39.208 39.251 40.403 41.406 40.791 38.803 38.396 38.296 38.286 38.223 38.746 39.013 37.828 37.746 37.758 37.741 37.736 37.666 37.621 37.601 39.286 38.318 37.611 37.666 41.123 45.316 47.126 45.458 39.973 46.146 46.941 44.161 39.366 39.183 42.496 37.878 38.383 37.871 37.508 37.626 37.921 37.798 37.558 38.711 38.633 38.016 37.106 37.086 37.101 37.176 37.516 37.628 37.876 43.681 45.951 42.203 38.571 37.181 36.911 36.886 36.861 36.868 36.843 36.983 37.251 37.298 37.476 37.236 36.833 41.503 42.183 43.218 42.916 42.673 43.018 39.618 36.851 38.261 39.308 37.863 36.251 36.203 36.201 36.291 37.101 37.333 40.183 42.221 41.911 39.306 36.188 36.641 37.881 41.246
65.852 65.352 65.197 65.057 64.989 64.874 64.807 65.019 71.397 70.482 69.389 68.754 69.772 67.864 65.334 64.872 61.772 61.434 61.304 61.689 60.687 60.324 60.039 59.872 59.789 59.732 59.109 59.462 65.564 64.982 62.294 62.794 61.082 57.984 57.487 57.299 56.924 56.677 56.462 56.494 56.494 56.407 56.284 56.314 56.197 56.034 55.824 55.672 60.354 63.182 62.134 58.052 56.859 55.189 54.104 53.537 53.372 53.204 53.014 52.837 52.677 52.477 52.307 52.247 52.304 51.829 52.642 51.554 51.504 51.522 51.387 51.054 50.827 50.667 50.567 50.677 50.344 50.199 50.312 51.417 50.264 49.694 49.579 49.494 50.772 50.157 49.152 48.954 49.059 48.922 48.747 50.274 49.444 49.642 49.552 48.494 49.324 50.799 51.089 51.676 51.981 50.496 51.101 50.766 48.709 46.966 47.004 47.006 46.966 46.956 46.949 46.916 46.901 46.926 46.904 46.889 46.859 46.864 46.836 46.856 46.859 46.856 46.861 46.841 46.831 46.806 46.789 46.764 47.406 47.951 46.274 46.474 47.176 48.321 50.669 49.649 47.044 47.371 47.614 48.151 48.194 48.254 48.299 46.814 45.284 45.246 47.119 45.201 48.706 49.556 48.409 45.534 45.484 45.401 45.289 45.211 45.769 45.734 45.789 45.729 44.874 44.889 44.881 44.904 44.866 44.864 44.894 44.874 44.834 44.839 44.834 44.834 44.846 44.879 44.899 44.894 44.931 44.921 44.929 44.959 44.989 44.959 44.941 44.914 44.896 44.874 44.856 44.829 44.831 44.821 44.806 44.791 44.786 44.756 44.729 45.439 48.461 44.621 44.601 44.616 45.874 47.564 47.944 45.224 44.551 44.569 44.646 44.639 44.559 44.594 45.471 44.654 44.171 44.124 44.084 44.079 44.071 44.036 44.051 44.831 45.531 45.346 45.151 44.631 44.484 44.229 43.926 43.991 44.076 44.026 43.981 43.954 43.946 43.894 43.779 43.729 43.694 43.671 43.681 43.669 43.681 43.669 43.671 43.636 43.626 43.729 43.741 43.678 43.543 43.511 43.468 43.393 43.256 43.373 47.013 44.718 45.501 47.166 45.876 45.768 44.591 43.693 47.488 45.103 43.486 43.086 43.386 46.463 48.086 47.723 45.963 46.376 47.803 49.163 49.591 47.193 44.951 42.128 42.066 41.961 41.851 41.926 41.593 41.526 42.516 48.086 52.791 52.781 52.778 52.123 52.878 52.878 52.871 53.031 53.016 53.003 52.921 52.863 52.841 52.786 52.486 52.771 50.981 45.186 40.806 40.861 40.628 40.216 40.096 40.803 40.151 39.801 39.756 39.623 39.458 40.173 41.648 41.461 44.583 45.303 41.881 39.401 39.273 39.223 39.158 39.158 39.146 39.153 39.151 39.156 39.213 39.243 39.228 39.218 39.241 39.571 40.118 44.073 44.351 41.651 41.046 38.801 38.886 38.448 38.986 40.458 38.453 38.753 37.906 37.686 37.681 37.698 37.711 37.596 37.541 37.618 38.146 38.668 38.001 37.676 39.548 43.091 39.801 45.868 47.171 47.636 47.783 46.023 45.546 44.093 38.711 39.288 39.303 37.521 37.836 38.231 40.031 38.813 40.161 38.128 37.136 37.098 37.076 37.466 37.638 40.741 37.838 42.428 46.116 46.768 46.256 43.511 39.113 37.031 36.848 36.848 36.843 36.818 36.746 36.783 36.786 37.678 36.946 37.888 42.876 43.476 43.148 42.871 43.151 42.653 37.393 36.218 36.821 36.288 37.533 36.588 37.328 38.776 36.223 36.361 36.768 39.821 41.886 42.148 40.953 36.271 36.641 36.178 40.208
65.637 65.404 65.202 65.037 64.874 64.777 64.709 64.702 66.519 68.572 71.327 70.732 68.094 67.232 65.742 61.889 61.729 61.654 61.892 60.992 60.839 60.337 59.954 59.744 59.529 59.442 58.674 60.049 65.582 66.059 66.097 65.704 63.654 59.599 58.082 58.157 58.407 57.557 57.017 56.714 56.412 56.332 56.247 56.277 56.387 56.109 55.867 56.774 61.517 63.107 62.684 61.647 61.389 57.947 55.157 53.477 53.344 53.154 52.964 52.812 52.652 52.467 52.274 52.139 52.222 51.887 51.667 51.549 51.494 51.342 51.117 50.874 50.784 50.719 50.799 51.652 50.612 51.257 51.137 50.639 50.577 49.794 49.757 49.479 49.322 49.489 49.112 48.932 48.897 48.932 49.047 49.597 49.652 48.747 48.449 50.069 52.104 51.896 51.111 51.331 49.399 51.371 53.006 52.006 49.561 46.981 46.996 47.009 47.006 46.946 46.924 46.931 46.929 46.894 46.884 46.876 46.839 46.839 46.889 46.854 46.869 46.861 46.819 46.804 46.846 46.816 46.824 46.776 46.791 46.816 46.481 46.206 47.849 48.991 48.719 49.446 49.564 49.609 48.159 48.191 48.244 48.119 46.271 45.786 47.174 45.389 45.739 49.264 47.949 50.024 47.874 45.524 45.411 45.364 45.271 45.256 45.486 47.189 47.419 44.944 44.926 44.966 44.949 44.961 44.929 44.951 44.951 44.929 44.934 44.896 44.876 44.879 44.889 44.926 44.956 44.946 44.974 44.966 44.991 45.006 45.049 45.036 45.019 44.966 44.984 44.961 44.914 44.916 44.901 44.911 44.899 44.836 44.854 44.796 44.756 46.581 45.496 45.366 45.426 46.999 49.539 49.211 48.386 47.231 44.599 44.556 44.571 44.549 44.771 46.689 47.431 46.219 44.191 44.124 44.101 44.101 44.084 44.366 45.566 45.766 45.646 45.664 45.544 44.674 44.144 44.124 44.064 44.106 44.104 44.031 43.946 43.956 43.949 43.974 43.841 43.781 43.736 43.709 43.699 43.681 43.669 43.686 43.756 43.866 43.771 43.761 43.558 43.606 43.563 43.543 43.483 43.373 43.278 44.396 44.528 45.938 45.788 45.843 45.536 46.046 43.083 43.296 44.551 43.361 42.966 43.378 45.108 45.156 46.496 47.356 46.381 49.938 48.256 46.821 42.616 42.256 42.128 42.023 41.906 41.756 42.183 41.626 42.226 44.321 47.971 51.088 52.783 52.801 52.813 52.848 53.003 52.998 52.916 52.996 52.896 52.928 52.798 52.778 52.781 52.123 50.908 47.733 44.108 40.971 40.721 40.763 40.258 40.121 39.938 39.973 39.813 39.768 39.651 39.306 39.901 40.171 44.006 46.783 46.648 46.613 44.318 39.348 39.253 39.188 39.141 39.126 39.128 39.146 39.188 39.228 39.206 39.206 39.198 39.188 39.608 40.446 43.928 44.871 44.898 44.451 41.593 41.293 38.951 39.323 41.503 44.551 41.876 38.048 38.408 38.801 37.663 37.631 37.646 37.603 37.566 37.528 37.531 37.881 38.476 38.288 37.558 38.463 39.691 45.828 47.358 48.353 48.208 47.283 46.661 41.498 39.681 41.988 39.523 37.773 37.876 39.641 40.026 39.291 37.816 37.711 37.101 37.521 37.586 37.708 40.986 43.488 43.858 45.253 46.581 47.288 47.178 46.431 45.401 39.271 40.843 37.256 36.828 36.831 38.473 36.808 36.858 36.818 36.828 38.138 43.321 43.978 43.368 42.298 41.646 42.501 39.803 37.111 36.988 36.513 37.768 37.083 39.036 41.423 38.408 36.343 36.376 37.808 41.621 42.216 41.503 37.016 38.181 41.573 44.881
65.637 65.457 65.154 64.934 64.797 64.729 64.659 65.019 67.097 68.682 68.967 66.079 68.732 66.309 64.174 61.697 61.502 61.387 60.927 60.494 61.047 60.622 59.922 59.677 59.489 59.394 58.679 61.579 65.479 66.804 67.122 65.837 64.412 59.609 58.367 58.012 57.712 56.524 56.672 56.462 56.334 56.272 56.154 56.254 56.529 56.982 55.874 57.092 61.444 63.242 64.172 63.864 62.689 58.517 56.094 53.427 53.307 53.089 52.914 52.759 52.624 52.422 52.222 52.092 52.204 51.804 51.687 54.589 53.802 51.264 50.994 50.899 52.069 50.672 50.739 51.299 50.732 50.399 50.212 50.117 49.937 50.432 49.474 49.562 49.402 49.227 49.172 48.954 48.849 48.947 49.364 49.034 48.549 48.979 48.912 51.329 51.804 51.804 52.186 51.754 51.901 48.554 51.319 49.959 46.951 47.011 46.986 47.019 46.999 46.961 46.946 46.929 46.931 46.911 46.911 46.881 46.914 46.879 46.846 46.854 46.836 46.869 46.819 46.831 46.804 46.811 46.806 46.789 48.096 46.796 46.704 46.881 46.221 48.684 48.681 47.884 49.936 49.979 48.686 48.089 47.204 45.984 46.466 45.951 46.259 50.484 53.244 49.799 49.034 49.751 48.296 45.524 45.449 45.376 45.306 45.636 45.999 46.129 46.006 44.994 45.021 45.029 45.029 45.019 45.019 45.011 45.001 45.006 44.984 44.976 44.946 44.944 44.959 44.989 44.996 45.004 44.981 45.011 45.034 45.074 45.094 45.094 45.084 45.056 45.039 45.056 45.019 44.994 44.966 44.956 44.919 44.899 44.881 44.839 44.804 46.184 46.174 45.799 47.219 48.309 49.136 49.556 48.866 48.046 45.764 44.579 44.616 45.746 47.201 48.029 48.499 48.616 45.229 44.156 44.141 44.309 45.446 45.634 45.339 45.179 45.771 45.641 45.311 44.504 44.346 44.101 44.164 44.079 43.981 43.956 43.991 43.961 43.956 43.914 43.894 43.866 43.741 43.779 43.701 43.734 43.689 43.761 43.801 43.836 43.809 43.576 43.376 43.503 43.528 43.436 43.388 43.311 43.248 43.703 46.581 45.293 47.093 47.408 48.576 44.098 42.813 42.831 42.793 43.066 43.473 42.926 44.036 46.011 44.946 44.733 46.163 45.571 45.126 43.741 42.281 42.256 42.071 41.906 41.938 42.001 46.678 46.793 46.001 49.181 52.841 52.821 52.831 52.823 52.836 52.881 53.008 52.926 52.896 52.826 52.801 52.798 52.766 52.408 50.113 41.498 42.523 41.263 41.581 40.943 40.653 40.243 40.151 39.858 39.791 39.828 39.648 39.501 39.466 43.758 45.383 46.008 46.728 46.701 46.658 46.638 46.588 43.876 39.261 39.196 39.171 39.166 39.158 39.161 39.243 39.223 39.206 39.186 39.216 39.303 40.216 41.343 44.428 44.916 44.861 44.873 44.298 41.888 38.686 40.966 45.033 45.701 45.191 43.121 38.906 38.578 39.783 37.971 37.611 37.581 37.603 37.608 37.521 37.478 37.763 38.366 39.361 39.628 37.503 42.323 46.696 47.638 47.548 47.041 42.123 39.763 44.838 41.243 37.738 37.713 39.296 40.036 39.738 37.711 37.186 37.121 37.116 37.641 37.713 40.683 43.361 44.233 44.651 44.613 45.858 46.801 47.248 47.256 46.586 45.826 45.593 38.558 36.861 39.866 41.928 40.136 36.811 36.828 36.813 38.518 42.198 43.708 43.053 38.791 38.663 37.763 37.873 36.286 36.316 36.308 37.033 37.821 37.973 41.766 40.321 37.478 37.298 37.753 42.583 41.506 41.301 44.931 44.126 44.173 44.896
65.479 65.237 65.074 64.869 64.694 64.629 64.582 64.857 67.332 66.229 66.567 66.969 65.014 63.429 63.062 62.399 61.342 61.374 62.644 60.984 60.574 60.037 59.942 59.627 59.574 59.399 58.547 61.212 65.437 66.747 67.192 66.007 65.787 60.889 58.782 58.649 58.059 57.002 56.269 56.212 56.279 56.259 56.344 56.107 56.247 56.152 55.909 56.954 62.379 63.974 64.557 64.467 64.427 58.962 55.779 53.357 53.194 53.019 52.819 52.672 52.522 52.342 52.169 52.149 52.102 51.729 51.747 57.169 55.352 51.099 50.974 53.037 53.439 52.474 51.644 50.552 50.232 50.089 49.987 49.869 49.739 49.554 49.627 49.527 49.377 49.272 49.202 48.899 49.022 49.179 49.164 49.334 48.937 49.502 50.219 49.997 50.866 52.269 52.999 51.186 51.869 51.599 49.914 48.549 46.989 46.994 47.014 46.986 46.991 46.966 46.969 46.946 46.941 46.924 46.911 46.901 46.869 46.866 46.859 46.839 46.859 46.849 46.844 46.831 46.844 46.806 46.801 46.784 46.756 46.754 47.204 48.214 46.781 46.339 46.474 46.954 47.844 47.321 50.049 46.646 45.846 46.024 46.001 45.984 45.991 49.026 46.771 46.436 47.394 49.889 48.819 45.551 45.511 45.436 45.404 45.551 45.531 45.321 46.094 45.081 45.096 45.104 45.076 45.076 45.076 45.069 45.046 45.049 45.021 45.026 45.029 45.004 45.016 45.039 45.044 45.054 45.044 45.036 45.104 45.119 45.134 45.114 45.121 45.089 45.101 45.071 45.069 45.039 45.044 45.004 44.976 44.941 44.894 44.874 44.824 44.776 44.709 46.241 45.869 47.364 48.661 49.459 49.311 48.481 47.644 45.431 47.356 47.966 48.369 48.666 48.449 47.996 45.919 44.214 44.909 45.869 45.869 45.761 45.751 45.449 45.264 44.574 44.589 44.199 44.141 44.201 44.144 44.046 43.976 43.984 44.034 44.046 43.994 44.129 43.986 43.834 43.864 43.804 43.749 43.739 43.741 43.779 43.841 43.801 43.676 43.566 43.961 43.463 43.376 43.331 43.361 43.346 43.268 43.961 44.993 43.863 44.863 45.658 48.123 46.348 45.446 43.813 43.426 42.541 42.451 42.326 42.768 43.198 45.513 46.196 43.713 45.626 44.986 44.551 42.903 42.318 42.253 41.833 42.073 44.886 49.431 50.236 52.836 48.306 52.828 52.838 52.853 52.856 52.846 52.851 52.976 52.868 52.846 52.796 52.773 52.833 52.421 50.678 44.888 40.983 41.008 42.013 41.196 40.341 40.291 39.993 39.808 39.738 39.771 39.606 39.811 41.148 45.236 46.493 47.703 47.371 46.753 46.728 46.676 46.661 46.633 45.633 40.536 39.223 39.226 39.223 39.231 39.256 39.248 39.241 39.218 39.211 39.213 40.073 41.243 43.036 43.938 44.921 44.951 44.866 44.751 40.743 38.536 42.551 45.111 45.838 46.111 45.391 44.261 40.416 40.886 38.466 37.823 37.556 37.538 37.566 37.541 37.508 37.431 37.451 38.743 37.536 37.481 37.918 39.498 45.118 46.953 44.591 37.853 46.703 47.058 46.246 40.153 40.958 42.301 40.466 37.936 37.168 37.136 37.098 37.173 37.468 38.838 43.178 44.068 44.686 44.133 43.028 40.708 45.393 46.356 47.058 47.341 46.748 46.041 41.378 37.903 37.923 42.216 42.376 37.868 36.823 37.241 37.736 38.768 40.098 38.856 36.758 36.518 36.773 38.958 36.566 36.723 36.203 36.953 39.393 36.888 40.893 41.531 41.708 42.881 44.768 44.261 41.863 38.378 44.463 44.716 43.723 44.683
65.309 65.077 64.934 65.314 64.957 65.922 66.484 66.882 64.744 64.367 67.749 65.749 65.317 65.577 64.507 63.159 61.554 61.482 61.477 62.554 61.089 60.222 60.184 60.117 60.154 59.664 59.289 61.272 65.334 66.647 67.384 65.817 64.024 58.599 59.117 58.114 57.939 56.422 56.172 56.187 56.164 56.122 56.424 56.049 56.444 56.729 55.912 57.282 62.662 64.359 64.627 64.474 64.324 59.592 55.974 53.722 53.772 53.879 53.307 53.457 53.219 53.057 52.984 53.064 52.827 51.732 51.574 52.142 51.299 51.087 51.057 51.372 53.464 51.459 52.439 50.254 50.454 50.089 49.972 49.862 49.649 49.572 49.499 49.402 49.262 49.209 49.379 49.702 48.999 49.172 52.539 53.534 53.272 50.174 50.294 51.027 51.991 52.726 52.864 52.829 54.316 50.664 50.216 47.809 47.011 47.004 47.029 47.011 47.004 46.984 46.974 46.949 46.939 46.931 46.919 46.921 46.884 46.896 46.869 46.851 46.866 46.861 46.884 46.836 46.849 46.836 46.796 46.784 46.779 46.761 47.164 46.551 47.171 46.266 46.311 46.786 46.381 49.576 45.886 46.004 46.116 46.079 46.036 46.016 45.986 46.584 48.746 49.229 48.441 49.216 48.171 46.789 45.511 45.476 45.449 46.351 46.769 45.534 45.101 45.141 45.146 45.136 45.124 45.131 45.121 45.126 45.121 45.126 45.089 45.091 45.084 45.059 45.049 45.086 45.089 45.111 45.096 45.114 45.116 45.136 45.141 45.126 45.134 45.156 45.129 45.134 45.116 45.094 45.051 45.009 45.006 44.964 44.899 44.886 44.874 44.809 44.759 44.756 44.834 46.361 48.171 49.054 49.609 48.926 48.136 47.831 48.281 48.624 48.544 48.091 47.631 46.044 44.964 45.384 45.041 45.169 45.329 45.761 45.784 45.631 44.896 44.424 44.239 44.106 44.184 44.206 44.129 44.144 44.024 44.046 44.024 44.109 43.986 43.961 43.996 43.919 43.891 43.969 43.856 43.784 43.731 43.691 43.671 43.609 43.589 44.954 45.913 43.996 43.321 43.293 43.328 43.333 43.946 43.438 45.313 44.463 43.976 46.233 45.043 43.268 44.526 45.393 44.878 42.398 42.323 42.283 42.171 42.721 43.456 42.936 41.513 42.071 41.923 41.978 42.521 42.048 41.956 41.788 41.866 41.378 49.246 52.043 52.808 49.993 51.303 52.693 52.446 52.988 52.913 52.823 52.821 52.786 52.761 52.806 51.548 46.201 44.808 41.216 41.178 41.603 41.291 40.411 40.353 40.223 39.926 39.936 40.128 39.811 39.858 41.098 44.958 45.743 47.133 47.391 47.426 47.633 47.221 46.718 46.691 46.663 46.653 46.613 44.606 39.881 40.433 40.131 39.296 39.278 39.253 39.283 39.221 39.238 39.288 40.393 42.966 43.846 44.731 44.668 44.261 44.813 42.866 41.211 38.186 41.488 44.216 44.973 45.506 45.403 43.143 40.748 40.558 38.396 37.966 37.756 37.611 37.516 37.511 37.546 37.446 37.413 37.396 37.853 38.268 39.453 38.561 38.516 43.971 38.641 44.423 47.286 47.573 47.858 46.693 45.558 43.846 38.863 37.131 37.136 37.148 37.133 38.291 39.431 42.983 43.903 44.673 44.108 43.803 39.541 37.918 43.898 45.596 46.183 47.343 47.371 46.886 46.166 42.143 39.086 40.041 42.708 40.683 37.023 36.798 36.768 36.793 37.481 37.106 36.876 36.466 36.561 37.603 37.191 36.333 36.303 40.376 42.878 39.411 36.713 43.401 45.318 45.656 45.846 45.336 42.736 38.113 43.973 45.063 44.388 44.158
65.194 65.342 64.984 64.769 64.934 65.819 65.362 66.034 63.697 63.582 64.217 65.659 64.339 64.052 63.969 62.864 61.354 62.322 61.992 60.684 60.077 60.559 60.199 59.697 59.234 59.032 58.607 59.459 65.104 66.422 67.029 65.739 64.504 58.362 57.907 57.419 57.084 56.249 56.339 56.477 56.099 56.064 56.249 55.979 56.482 56.417 56.147 56.712 61.457 63.084 64.564 63.832 62.177 58.717 56.324 54.082 54.487 53.762 52.992 53.247 53.537 52.839 52.619 52.384 52.334 52.112 52.257 52.372 51.962 51.029 51.069 51.169 51.037 51.974 50.374 50.412 51.344 50.094 49.882 49.782 49.702 49.604 49.442 49.374 49.217 49.274 49.564 49.299 51.269 53.322 53.404 52.824 50.947 50.677 50.529 50.287 50.431 49.936 51.224 54.729 52.954 50.019 48.946 48.359 46.994 47.014 47.029 46.991 47.019 46.986 46.981 46.986 46.954 46.931 46.926 46.906 46.911 46.884 46.886 46.886 46.869 46.866 46.856 46.814 46.836 46.824 46.814 46.771 46.771 46.751 46.641 46.476 46.374 46.321 46.269 46.216 46.219 46.491 46.641 46.206 46.171 46.106 46.051 45.976 45.949 47.954 51.124 50.094 50.499 53.049 49.456 47.951 47.206 45.566 45.529 45.446 46.179 45.226 45.214 45.199 45.206 45.184 45.184 45.201 45.196 45.161 45.159 45.171 45.141 45.121 45.116 45.116 45.096 45.114 45.141 45.161 45.144 45.166 45.151 45.146 45.161 45.171 45.181 45.159 45.161 45.174 45.149 45.094 45.079 45.074 45.041 45.001 44.961 44.909 44.891 44.816 44.764 44.739 44.751 44.694 47.631 48.569 49.379 49.404 48.629 48.604 48.591 48.204 47.466 46.839 45.244 45.346 45.406 45.009 45.064 45.364 45.581 45.679 44.826 44.781 44.374 44.204 44.229 44.304 44.244 44.251 44.139 44.201 44.064 44.074 44.061 44.076 44.049 44.084 43.901 44.046 44.151 43.979 43.926 43.776 43.751 43.766 43.671 43.616 43.561 45.421 46.138 45.198 43.353 43.321 43.466 43.316 43.546 44.261 44.243 43.838 46.483 43.866 47.271 43.948 46.643 45.106 44.591 42.378 42.278 42.176 41.988 41.783 41.503 41.376 41.356 41.398 41.821 42.403 42.083 42.038 41.803 41.756 41.658 41.288 45.196 50.628 52.826 52.298 52.938 52.883 52.838 52.871 52.821 52.798 52.791 52.786 52.871 48.121 44.596 41.048 41.116 40.986 40.766 40.783 40.451 40.521 40.066 39.926 39.861 40.661 40.613 40.333 44.371 46.076 47.103 47.583 47.358 47.436 47.438 47.473 47.506 46.756 46.708 46.676 46.653 46.623 46.593 43.551 41.921 41.803 40.478 41.781 43.668 39.308 39.238 39.241 38.846 42.583 43.811 44.681 44.668 43.821 42.891 39.891 41.066 39.446 39.918 43.618 44.103 43.896 44.701 44.941 41.173 44.953 44.741 41.973 38.091 38.028 38.243 37.813 37.458 37.436 37.448 37.426 37.381 37.448 38.011 39.288 38.201 37.543 38.576 40.541 45.523 47.281 48.226 48.226 47.248 46.638 41.321 37.663 37.156 37.143 37.136 37.483 39.956 42.893 43.703 44.558 44.306 43.393 41.413 37.076 37.113 38.858 41.416 45.421 46.051 46.761 47.343 47.041 46.361 43.666 41.328 38.598 37.666 36.758 36.766 36.718 36.718 36.776 37.426 36.678 36.468 36.456 36.706 37.823 36.451 37.013 39.858 44.261 43.831 36.906 40.463 44.913 45.603 45.686 45.588 44.363 39.373 41.563 44.671 42.976 41.301
66.482 65.654 66.047 65.437 65.342 64.432 64.242 63.582 64.157 64.312 63.817 64.062 63.397 62.914 62.002 61.374 61.012 61.667 63.764 61.737 59.959 59.729 59.492 59.254 59.082 59.007 58.614 58.627 65.092 66.397 67.032 65.739 64.062 57.972 57.609 57.554 57.774 56.274 56.257 56.887 56.074 55.962 55.864 55.907 56.399 55.742 55.709 56.072 61.444 62.689 63.949 63.374 62.037 59.457 55.892 53.727 53.037 52.802 52.754 52.862 52.354 52.149 52.007 51.812 51.792 51.797 51.484 51.467 52.549 52.524 51.127 51.182 50.922 50.569 50.474 50.539 50.089 50.002 49.957 49.814 49.687 49.564 49.459 49.417 49.422 49.692 51.544 53.362 53.794 53.469 51.902 51.479 49.814 50.884 50.634 51.347 52.281 51.984 48.629 48.414 49.174 47.749 47.794 47.519 47.101 47.029 47.021 47.014 46.994 46.999 47.016 46.971 46.956 46.944 46.931 46.921 46.899 46.896 46.889 46.906 46.874 46.869 46.856 46.849 46.829 46.824 46.801 46.799 46.951 46.641 46.659 46.644 48.229 47.004 46.451 46.899 46.224 46.236 46.196 46.154 46.114 46.101 46.044 46.006 45.939 46.076 47.324 48.299 48.949 53.019 52.114 50.544 50.381 45.881 46.076 46.661 45.356 45.319 45.301 45.296 45.266 45.254 45.256 45.244 45.254 45.249 45.249 45.214 45.211 45.191 45.156 45.124 45.151 45.184 45.184 45.201 45.174 45.191 45.184 45.206 45.199 45.214 45.216 45.216 45.201 45.199 45.186 45.169 45.119 45.086 45.064 45.024 44.971 44.926 44.899 44.844 44.809 44.781 44.761 44.849 45.664 48.094 48.934 49.599 49.074 48.439 47.824 47.061 44.951 45.306 45.329 45.614 45.704 45.684 46.141 45.974 45.641 44.529 44.284 44.296 44.394 44.211 44.296 44.329 44.264 44.476 44.149 44.154 44.126 44.146 44.126 44.199 44.111 43.866 43.959 44.294 44.394 44.164 43.964 43.799 43.776 43.784 43.634 43.626 43.901 45.031 47.073 44.023 43.941 43.358 43.383 43.253 43.191 44.083 44.833 47.911 44.101 47.968 44.516 45.546 45.731 44.851 42.656 42.283 42.123 41.903 41.706 41.511 41.373 41.391 41.343 41.353 41.651 42.243 41.786 42.456 41.778 41.693 41.656 41.666 41.308 45.376 46.858 52.796 52.838 52.843 52.823 52.796 52.781 50.506 52.376 49.276 46.226 43.241 41.348 41.106 41.143 40.593 40.476 40.543 40.373 40.031 39.971 40.003 40.721 40.273 41.513 45.423 46.246 47.336 47.376 47.411 47.428 47.463 47.511 47.913 47.793 47.506 46.718 46.701 47.676 49.423 46.671 46.708 45.823 45.188 45.873 45.076 45.081 41.353 39.331 39.266 40.651 41.746 43.248 44.808 43.883 42.973 40.373 38.711 38.406 38.098 41.638 44.176 44.223 42.408 39.678 41.623 43.348 45.206 45.621 45.216 42.376 38.871 38.508 39.368 38.503 37.451 37.383 37.411 37.438 37.343 37.333 38.116 38.308 38.321 38.088 37.441 39.651 44.876 47.731 47.513 46.933 42.061 38.348 37.543 37.178 37.186 37.431 37.553 40.356 43.576 44.476 44.453 43.531 42.813 41.163 37.621 37.088 37.178 37.243 39.496 44.406 45.871 46.591 47.273 47.163 46.413 43.643 37.083 36.776 36.756 36.733 36.726 36.708 36.796 38.793 37.258 37.721 36.688 37.123 38.071 38.671 43.683 44.758 45.228 45.336 40.013 37.576 44.318 45.468 44.571 44.753 43.291 38.938 38.391 37.931 37.056 37.958
68.362 66.102 64.944 66.209 64.319 65.134 65.119 63.237 63.374 64.222 63.817 62.764 62.254 62.052 61.577 60.924 60.864 63.012 64.669 62.347 59.912 59.659 59.519 59.412 59.512 59.244 58.772 59.317 65.037 66.357 66.972 65.789 63.782 59.287 58.042 57.504 57.154 56.554 55.972 56.094 55.944 55.887 55.772 55.839 55.862 55.682 55.524 55.377 59.789 62.674 63.894 63.372 62.074 59.234 56.342 53.237 53.014 52.812 52.642 52.462 52.332 52.267 52.152 51.844 51.699 51.584 51.989 52.677 52.074 51.227 51.312 51.174 50.539 50.534 50.352 50.144 50.102 50.039 49.949 49.789 49.652 49.529 49.689 49.604 50.444 52.557 53.377 53.207 52.957 51.524 50.702 50.197 49.894 50.777 51.584 52.094 52.459 48.981 48.669 47.991 48.356 48.494 48.009 47.644 47.356 47.076 47.006 47.031 47.011 46.984 46.976 46.949 46.929 46.939 46.924 46.944 46.916 46.916 46.884 46.871 46.879 46.889 46.854 46.821 46.821 46.856 47.224 46.849 46.754 46.879 48.189 47.629 48.254 47.421 47.596 47.589 46.214 46.214 46.156 46.161 46.124 46.094 46.121 46.054 46.429 47.264 48.711 48.201 48.646 50.969 48.079 48.194 49.196 48.846 45.951 46.231 45.604 45.404 45.374 45.341 45.316 45.336 45.306 45.306 45.311 45.291 45.266 45.261 45.274 45.206 45.219 45.191 45.199 45.229 45.239 45.251 45.249 45.241 45.236 45.241 45.234 45.249 45.244 45.269 45.254 45.216 45.214 45.199 45.139 45.126 45.094 45.049 44.999 44.964 44.929 44.896 44.836 44.814 44.806 44.819 44.846 47.101 48.476 49.266 49.496 47.216 45.281 45.526 45.391 45.466 45.751 45.856 45.884 45.854 45.976 45.531 45.151 44.224 44.311 44.239 44.526 44.259 44.236 44.221 44.204 44.336 44.256 44.206 44.104 44.106 44.201 44.236 44.544 43.986 44.154 44.491 44.541 44.344 44.076 43.789 43.711 43.686 43.644 43.581 43.769 43.461 43.841 44.198 44.113 43.316 43.251 43.216 43.156 45.718 46.181 46.501 45.241 45.206 46.213 46.621 43.961 42.536 42.546 42.478 42.251 41.921 41.686 41.538 41.391 41.381 41.403 41.391 41.336 41.521 41.683 41.938 42.486 41.928 41.648 41.576 41.553 42.036 47.636 50.496 52.841 52.816 52.801 52.776 50.453 46.398 45.268 41.538 40.926 41.263 40.963 40.888 40.551 40.438 40.623 40.283 40.011 39.946 40.018 39.971 40.058 41.266 45.576 47.348 47.601 47.436 47.428 47.428 47.483 47.491 47.668 48.168 47.963 47.791 47.111 48.688 50.418 50.376 49.043 46.596 46.553 46.556 46.516 46.483 46.456 43.298 39.581 39.401 38.998 40.406 41.708 42.811 43.091 40.413 38.598 38.281 38.241 38.038 38.098 42.563 42.936 38.978 38.376 38.286 42.733 44.821 45.678 45.698 45.038 43.251 38.653 38.066 38.361 38.058 37.468 37.406 37.403 37.388 37.323 37.268 37.323 37.783 37.443 37.541 38.013 38.801 44.261 46.888 43.398 37.368 37.671 37.213 37.196 37.348 37.266 40.371 43.366 44.261 44.526 43.718 42.896 40.646 37.256 37.116 37.136 37.118 37.046 37.043 41.988 44.613 45.713 46.638 46.776 45.996 41.738 36.921 36.843 36.781 36.753 36.716 36.708 36.748 37.446 38.626 42.698 40.023 40.168 43.526 45.556 45.308 45.748 45.903 45.308 44.291 38.043 42.643 43.291 39.771 38.141 38.336 37.061 37.563 37.038 37.468 37.523
66.294 65.124 64.497 65.827 63.719 64.022 63.489 62.772 65.842 65.384 64.704 63.439 62.762 61.602 61.534 61.229 61.164 60.447 60.709 60.632 60.369 60.614 59.894 60.249 60.917 60.254 60.364 60.857 64.839 66.154 66.874 65.622 63.932 59.532 57.977 57.694 57.254 56.612 55.904 55.954 55.842 55.777 55.664 55.734 56.047 55.639 55.619 55.744 60.742 62.584 63.874 63.417 62.152 58.524 56.327 53.464 53.262 53.229 53.332 52.957 53.199 53.787 53.432 52.999 51.862 52.099 53.192 52.854 51.094 52.277 51.252 50.629 50.607 50.402 50.284 50.202 50.174 50.034 49.892 49.769 49.737 49.724 49.547 51.502 53.042 53.369 52.494 50.472 51.214 50.507 50.059 49.507 49.199 50.179 51.854 50.654 48.519 47.969 47.906 47.849 47.806 47.874 47.731 47.694 47.626 47.161 47.084 47.001 47.034 47.021 46.976 46.956 46.964 46.951 46.941 46.941 46.926 46.911 46.889 46.916 46.849 46.859 46.849 47.466 47.624 47.619 47.174 48.314 49.934 47.371 48.559 48.069 50.934 49.619 47.556 47.059 48.904 46.191 46.161 48.346 48.029 46.086 46.209 46.691 46.646 46.721 47.124 46.846 48.691 49.351 49.961 49.009 51.394 45.686 45.666 45.964 45.481 45.429 45.409 45.399 45.366 45.376 45.376 45.379 45.326 45.321 45.331 45.319 45.299 45.276 45.276 45.236 45.246 45.289 45.304 45.316 45.291 45.291 45.276 45.281 45.259 45.286 45.264 45.266 45.279 45.244 45.216 45.206 45.166 45.166 45.101 45.086 45.029 45.006 44.944 44.906 44.866 44.816 44.781 44.801 44.891 45.309 47.999 48.341 45.894 45.371 45.774 45.174 45.611 45.354 46.181 45.661 45.671 45.216 45.229 45.186 44.769 44.296 44.271 44.279 44.251 44.344 44.309 44.214 44.276 44.511 44.434 44.449 44.216 44.149 44.501 44.486 45.026 45.076 44.794 44.874 44.599 44.404 44.146 43.801 43.726 43.664 43.624 43.479 43.406 43.289 43.373 43.538 43.791 44.926 43.096 42.966 42.858 43.721 46.446 47.133 45.108 43.761 44.593 44.876 43.033 42.553 42.551 42.521 42.361 42.053 41.718 41.531 41.431 41.396 41.393 41.898 41.353 41.363 41.636 41.686 42.261 42.206 41.731 41.563 41.746 40.456 44.641 50.006 51.591 52.778 51.553 49.136 41.603 41.446 41.641 41.008 41.611 41.133 40.716 40.548 40.678 40.678 40.103 40.103 40.046 39.996 39.971 39.773 39.596 42.676 47.751 47.443 47.763 47.548 47.511 47.571 47.808 47.668 47.521 47.666 48.948 47.771 48.243 49.278 50.353 50.388 50.241 47.818 46.593 46.563 46.531 46.513 46.478 46.426 43.568 39.326 39.133 38.758 40.491 41.806 43.506 43.466 40.688 38.268 38.198 38.138 39.368 38.433 38.826 38.703 38.503 38.916 43.273 44.158 44.713 45.171 44.666 42.336 43.621 41.411 37.701 37.616 37.783 37.593 37.368 37.383 37.403 37.326 37.261 37.288 37.351 37.681 39.416 38.921 38.393 40.768 37.546 37.211 37.161 37.146 37.263 38.416 38.868 43.213 44.108 44.593 43.853 42.993 40.793 37.431 37.111 37.143 37.151 37.108 37.083 37.098 37.068 38.646 42.006 45.521 45.993 41.593 36.946 36.886 36.861 36.776 36.761 36.726 36.713 36.728 36.758 37.783 44.186 45.946 46.246 46.281 46.253 46.551 45.363 44.948 44.381 42.623 37.728 37.723 36.926 37.166 37.513 37.656 37.118 37.113 36.706 36.858 36.603
