ncols 426
nrows 32
xllcorner    529068
yllcorner    186834
cellsize     2
NODATA_value -9999
88.096 84.308 80.788 66.788 66.278 66.528 66.388 66.583 67.481 72.906 80.686 84.093 87.823 87.933 85.088 82.118 82.098 82.113 82.148 82.158 82.216 81.603 67.513 61.916 63.381 63.533 63.241 63.121 64.013 63.236 63.133 63.151 63.183 63.216 63.243 63.251 63.296 63.301 63.343 63.293 63.278 63.228 63.181 63.113 63.066 63.013 62.976 62.998 63.126 63.156 63.278 63.326 63.513 63.593 63.636 63.723 63.356 62.878 66.371 73.666 73.656 73.648 73.263 73.023 70.456 67.708 65.331 63.966 63.768 64.066 65.426 63.001 62.433 62.638 62.221 62.138 61.628 61.511 61.456 61.413 61.371 61.351 61.046 60.651 61.313 62.551 61.341 61.118 61.631 63.183 61.071 61.591 63.031 61.441 60.778 61.368 59.598 62.853 70.213 70.241 70.311 70.316 70.318 67.808 64.023 59.646 59.516 59.938 60.076 60.101 60.176 60.023 59.898 59.781 59.696 59.681 59.661 59.748 59.668 59.448 59.371 59.293 59.176 59.131 59.151 59.128 59.053 58.888 58.823 58.761 58.698 58.683 58.553 58.598 58.638 58.673 58.673 58.693 58.701 58.691 58.711 59.486 64.168 65.721 65.738 65.916 65.963 63.356 58.696 58.193 58.203 58.213 58.276 58.238 58.126 58.071 63.601 68.248 68.938 68.398 67.798 67.161 62.246 61.591 61.296 60.713 60.578 60.461 59.001 57.548 57.511 65.531 68.136 70.391 71.283 72.008 72.721 72.451 71.168 70.598 68.053 67.228 67.063 66.856 66.873 59.188 56.028 55.868 55.836 55.851 55.898 55.941 55.916 55.938 55.901 55.906 56.018 56.301 56.308 60.773 64.191 63.646 63.643 64.248 61.563 57.181 55.781 55.798 56.041 56.193 55.338 55.698 56.841 58.116 59.426 61.008 62.383 63.281 63.501 62.341 57.843 54.403 54.581 55.073 54.101 54.083 54.456 54.728 53.978 54.001 54.026 55.358 57.986 58.903 54.201 54.686 58.103 56.151 53.511 53.496 53.453 53.781 55.363 56.038 57.106 54.311 53.541 52.721 52.308 52.186 52.136 52.083 52.076 52.118 52.513 51.863 53.946 56.843 52.743 52.121 52.141 51.756 51.808 52.198 55.841 58.458 58.046 57.198 57.201 58.558 58.111 57.341 57.151 58.541 58.258 57.418 56.726 59.021 61.973 62.631 63.838 64.723 63.788 61.156 62.103 55.826 51.293 50.238 50.653 49.708 49.466 49.511 49.961 49.383 50.013 49.453 49.523 49.228 49.111 49.428 49.406 51.103 55.066 55.363 56.208 55.858 55.138 54.923 54.976 54.303 51.748 49.063 48.686 48.338 48.303 48.286 48.331 48.386 48.381 48.528 51.101 49.488 48.853 49.098 55.791 56.943 57.386 56.943 56.358 55.786 55.181 50.436 48.491 48.561 48.436 48.321 50.783 51.613 50.248 48.901 48.838 48.903 49.068 48.033 48.456 48.506 50.168 52.733 53.393 53.501 56.168 58.676 59.628 59.981 59.808 58.983 57.451 48.998 47.561 48.421 48.348 48.448 46.748 46.596 46.618 46.606 46.501 46.461 46.391 46.353 46.288 46.221 46.583 46.128 46.326 47.896 51.426 53.963 54.903 55.126 50.176 45.573 45.488 45.518 45.496 45.598 46.143 45.906 46.976 49.283 53.446 54.428 54.096 53.041 49.293 46.693 44.951 46.093 45.031 44.793 48.111 49.381 49.181 46.303 49.818 52.723 53.273 53.313 52.536 51.358 46.463 44.113 43.768 43.798 43.656 43.653 43.583 43.533 44.498 46.156 44.028 48.626 51.736 52.883 53.108 52.221
88.186 87.963 80.396 68.423 66.731 67.748 68.966 76.366 87.313 79.186 84.916 87.993 88.086 88.163 87.706 82.101 83.373 84.568 84.523 82.183 82.218 82.226 71.596 63.076 63.048 63.108 63.141 63.121 63.118 63.128 63.158 63.176 63.198 63.223 63.241 63.263 63.303 63.306 63.308 63.251 63.198 63.158 63.058 63.033 62.983 62.938 62.978 63.056 63.158 63.243 63.321 63.416 64.978 64.276 63.671 63.528 62.941 63.293 71.633 73.663 73.696 73.688 73.128 71.426 69.678 67.668 64.151 62.698 64.321 66.476 64.416 62.411 62.296 62.053 62.643 62.158 61.521 61.448 61.373 61.358 61.378 61.333 60.931 60.683 60.706 60.743 61.471 61.313 60.861 60.826 60.763 62.543 61.581 60.501 60.893 63.066 63.978 69.006 70.236 70.186 70.216 70.271 69.146 65.338 59.963 59.488 59.561 59.923 60.408 60.561 60.048 59.943 59.843 59.808 59.681 59.608 59.533 59.591 59.646 59.578 59.433 59.278 59.151 59.126 59.026 58.948 59.011 58.798 58.698 58.686 58.613 58.576 58.628 58.616 58.656 58.681 58.723 58.668 58.656 58.636 58.681 60.716 64.203 65.736 65.716 65.856 66.041 65.426 59.676 58.198 58.118 58.151 58.133 58.163 58.071 58.011 58.706 65.183 67.763 67.541 67.873 68.438 64.618 63.633 63.358 61.068 60.611 60.503 59.843 58.378 57.843 63.118 67.238 67.921 70.271 71.318 71.473 71.171 70.473 67.483 67.253 67.326 64.881 66.528 63.338 56.433 56.028 55.816 55.853 55.888 55.888 55.903 55.938 55.891 55.876 55.976 56.053 56.138 59.111 63.681 64.198 64.291 63.763 62.238 57.546 57.698 57.113 56.276 56.678 55.406 54.883 55.471 56.766 56.726 58.138 62.513 63.106 63.693 62.703 58.803 55.278 54.271 54.388 54.226 54.106 54.023 54.248 54.093 54.036 54.108 54.203 56.473 60.373 58.683 55.161 56.888 56.843 54.808 55.808 54.458 53.586 55.173 54.521 54.888 61.403 60.236 54.726 53.496 52.728 52.226 52.448 52.108 51.951 51.858 52.018 51.718 51.676 52.378 52.388 52.538 51.921 51.886 52.008 55.761 58.691 58.038 57.233 57.183 58.446 58.148 57.306 57.038 58.471 58.261 57.458 56.756 58.793 62.016 62.783 63.831 64.836 64.288 62.833 62.176 58.306 49.931 50.256 50.946 49.708 49.471 49.508 49.478 49.446 49.413 49.468 49.416 49.883 49.241 50.273 50.486 51.666 55.816 56.313 55.551 55.393 56.241 53.313 52.856 54.238 53.301 51.051 49.263 49.966 49.168 48.316 48.321 48.333 48.373 48.388 48.408 49.283 50.618 48.941 52.876 56.126 57.013 56.908 56.343 55.756 54.773 50.456 48.821 48.438 48.376 48.618 49.821 50.676 49.298 49.303 49.826 50.068 48.723 48.021 50.851 51.321 48.288 48.696 51.033 53.423 56.143 58.593 59.693 60.248 60.326 58.788 56.221 50.493 47.333 47.458 47.683 47.096 47.826 47.306 46.708 46.658 46.618 46.523 46.386 46.291 46.278 46.196 46.223 46.488 46.233 46.128 46.476 48.218 51.401 54.208 50.871 46.561 45.758 45.543 45.528 45.443 45.458 45.608 46.561 45.851 46.596 49.973 52.448 53.411 49.746 47.706 45.418 45.968 46.518 45.178 45.466 49.231 49.328 49.548 51.218 52.358 53.413 53.596 52.851 51.693 45.746 43.953 43.751 44.331 43.678 43.638 43.618 44.066 44.863 43.883 44.703 49.418 52.578 52.706 53.226 52.353 51.093
88.296 88.046 86.111 81.591 80.993 82.486 87.846 87.998 87.933 88.038 88.136 88.203 88.201 88.276 88.113 82.383 80.288 86.176 86.003 82.618 81.128 76.391 71.343 65.748 63.051 63.668 63.123 63.118 63.178 63.188 63.168 63.203 63.228 63.256 63.281 63.286 63.308 63.273 63.231 63.198 63.133 63.106 63.061 63.033 62.988 62.978 62.978 63.101 63.148 63.226 64.083 63.501 65.488 63.878 63.478 62.806 62.606 68.741 73.486 73.568 73.588 73.643 71.753 69.748 67.938 63.563 64.763 64.631 65.766 65.413 62.511 62.406 62.041 62.413 63.196 62.878 61.726 61.381 61.371 61.338 61.373 61.261 61.016 60.723 60.703 60.673 60.681 61.111 61.016 60.651 60.493 60.788 60.458 60.848 60.603 61.636 68.858 70.326 70.321 70.328 70.223 69.981 65.526 62.428 60.701 60.683 61.813 61.468 59.968 60.146 59.926 59.856 59.771 59.733 59.606 59.516 59.473 59.406 59.368 59.413 59.428 59.381 59.236 59.141 59.038 58.968 58.853 58.788 58.721 58.681 58.676 58.663 58.651 58.618 58.638 58.656 58.638 58.588 58.596 58.613 59.676 60.843 62.803 63.871 65.803 66.208 66.391 66.096 63.388 58.173 58.048 58.056 58.058 58.098 58.043 57.956 57.996 62.478 67.906 68.608 69.518 69.703 67.436 63.826 63.771 61.483 60.528 60.646 60.543 59.153 57.978 56.818 66.656 67.266 68.236 70.658 71.081 69.666 67.701 67.281 67.328 66.046 64.251 63.003 56.293 56.003 55.933 55.866 55.861 55.921 55.901 55.878 55.873 55.886 55.981 56.008 55.976 57.121 63.471 63.876 63.598 63.991 64.408 60.643 59.796 56.181 56.113 57.433 55.403 56.051 57.848 59.263 58.098 54.948 59.576 62.926 63.656 62.916 61.703 56.271 54.328 54.793 54.568 54.133 54.051 53.933 53.956 54.311 55.298 54.476 55.373 58.778 58.993 58.556 54.846 57.643 60.388 59.503 55.186 54.323 53.858 55.308 56.593 61.573 62.326 62.356 62.228 54.586 53.498 52.823 52.451 52.788 52.021 51.853 51.793 51.648 51.591 51.568 51.631 51.673 51.598 52.083 55.838 58.706 58.101 57.273 57.101 58.611 58.158 57.361 56.986 58.548 58.296 57.473 56.678 59.088 62.061 62.738 63.993 64.886 64.081 62.748 60.693 55.093 49.851 49.868 50.178 49.678 49.538 49.508 49.481 49.573 49.551 49.518 50.038 50.761 49.236 50.278 50.323 51.528 55.648 55.286 55.831 56.281 55.466 53.766 49.181 50.386 52.288 51.108 49.663 48.673 49.151 50.298 48.636 48.361 48.373 48.408 48.443 48.456 48.498 48.433 48.431 51.013 51.331 55.848 56.356 55.748 54.766 51.888 48.641 49.311 49.503 49.093 50.291 53.733 50.991 48.828 49.458 49.123 48.896 48.783 49.068 53.358 53.218 51.178 48.506 50.683 56.748 59.216 59.668 60.143 59.646 58.796 55.876 51.616 47.476 47.283 47.111 46.941 47.158 47.201 46.798 46.808 46.728 46.663 46.526 46.416 46.343 46.271 46.398 46.231 46.178 46.198 47.001 46.218 46.238 46.883 49.081 45.746 46.278 45.731 45.596 45.506 45.393 45.431 47.416 50.373 48.686 45.023 45.588 46.658 50.348 45.823 46.003 46.211 46.743 45.973 44.446 45.808 47.538 49.253 50.603 52.321 53.093 53.423 53.026 52.408 48.726 44.128 43.746 43.846 43.878 43.706 43.628 43.988 44.596 43.713 44.603 48.538 52.126 52.641 53.331 52.508 51.656 49.043
88.363 88.141 87.846 87.756 87.806 87.911 87.988 88.158 88.181 88.196 88.131 88.046 87.968 87.868 86.843 83.678 80.396 85.796 84.746 80.766 74.183 68.853 65.116 63.561 63.911 63.121 63.118 63.138 63.178 63.198 63.223 63.238 63.268 63.288 63.308 63.291 63.301 63.243 63.196 63.128 63.071 63.056 63.073 63.053 62.983 63.036 63.103 63.166 63.778 64.186 64.126 63.601 64.128 63.843 63.263 63.148 65.326 72.448 73.276 73.421 73.573 72.183 70.466 68.291 66.278 64.031 63.061 65.036 65.803 62.713 62.376 62.353 62.388 62.153 62.818 62.501 61.556 61.341 61.328 61.351 62.306 61.186 60.978 60.708 60.693 60.651 60.601 60.598 60.621 60.703 60.333 60.341 60.508 60.626 59.733 64.161 70.206 70.276 70.346 70.316 70.276 67.341 63.031 59.528 60.408 60.658 62.841 64.218 60.798 60.616 59.821 59.741 59.711 59.636 59.528 59.473 59.411 59.348 59.326 59.301 59.288 59.308 59.276 59.178 59.093 59.043 58.916 58.853 58.793 58.748 58.746 58.728 58.661 58.681 58.688 58.636 58.591 58.581 58.526 58.683 61.621 62.818 62.701 64.686 65.593 69.563 67.793 66.461 66.011 60.031 58.006 57.983 57.971 57.963 57.978 57.916 57.848 59.713 66.901 69.633 69.666 69.646 68.931 64.501 64.023 63.941 60.706 60.598 60.576 59.753 58.613 57.456 63.641 67.301 67.446 69.481 69.823 67.268 67.261 67.323 67.746 67.511 65.843 58.008 56.006 56.001 55.876 55.841 55.876 55.891 55.878 55.886 55.833 55.843 55.941 56.151 57.003 62.456 63.961 64.561 64.216 63.543 60.508 59.263 57.256 54.613 54.791 57.256 55.213 55.073 59.846 60.341 59.763 60.358 63.021 63.866 63.716 61.828 58.273 55.171 54.188 54.341 54.118 54.078 54.311 54.056 54.703 56.756 61.171 59.701 57.431 57.703 56.788 56.128 56.296 55.083 58.353 56.541 55.201 54.491 53.896 54.888 61.321 62.533 62.373 63.591 62.781 61.338 53.538 52.813 53.088 52.038 51.866 51.811 51.773 51.696 51.543 51.461 51.433 51.498 52.668 55.293 58.073 58.043 57.228 57.048 58.391 58.146 57.328 55.756 57.156 58.428 59.486 59.473 57.983 62.091 62.716 64.168 64.853 64.041 62.821 62.041 55.233 50.408 49.798 49.761 49.663 49.618 49.606 49.696 49.678 49.631 49.521 49.411 49.703 49.746 50.426 49.778 52.173 56.893 58.131 55.951 55.328 55.938 55.181 54.103 51.136 49.628 50.458 49.176 48.851 49.476 48.918 49.666 50.628 48.653 48.638 48.466 48.476 48.476 48.481 48.538 49.296 49.148 49.416 53.198 55.358 54.461 50.913 50.448 49.953 48.538 51.011 53.398 55.838 57.701 53.118 48.828 48.916 49.888 48.426 48.116 52.696 53.718 53.461 53.616 52.848 57.838 59.481 60.358 60.156 59.583 58.428 56.301 49.308 47.841 47.621 47.318 47.091 46.943 46.918 46.956 46.858 46.821 47.296 46.891 46.593 47.381 47.591 46.336 47.118 46.276 46.128 46.043 46.201 46.126 45.981 46.091 45.878 45.626 45.643 45.571 45.568 45.896 45.681 46.863 49.636 50.288 46.911 44.593 44.626 44.781 45.533 45.673 46.138 46.603 47.233 48.168 47.883 45.106 44.913 50.411 52.673 53.021 53.468 52.866 52.788 49.341 44.741 43.976 44.403 43.733 43.701 43.711 43.711 43.778 43.653 43.558 45.586 51.153 52.613 53.421 53.388 51.763 50.248 48.438
86.151 87.848 87.848 87.943 88.041 88.118 88.201 88.186 88.086 87.996 87.906 87.801 86.573 82.533 73.548 80.553 77.478 80.706 80.841 74.928 67.391 66.906 66.746 66.698 65.031 63.301 63.153 63.173 63.211 63.241 63.223 63.271 63.268 63.288 63.301 63.271 63.258 63.186 63.098 63.083 63.053 63.028 63.043 62.993 62.998 63.063 63.176 63.733 65.783 66.118 63.656 63.651 63.638 63.158 62.611 63.171 72.453 73.373 73.376 73.278 72.871 70.726 68.333 67.193 63.948 62.893 62.813 63.078 62.871 62.348 62.376 62.253 62.071 62.238 61.783 61.481 61.336 61.306 61.313 61.308 61.323 61.031 60.868 60.748 60.631 60.626 60.581 60.643 60.643 61.013 60.171 60.216 60.428 61.136 62.713 69.636 70.216 70.171 70.286 70.301 69.291 65.261 60.471 59.756 59.998 60.028 60.861 62.718 62.251 60.816 59.706 59.696 59.616 59.516 59.498 59.436 59.341 59.316 59.318 59.283 59.223 59.151 59.153 59.136 59.121 59.028 58.948 58.911 58.826 58.811 58.778 58.713 58.748 58.713 58.598 58.593 58.506 58.493 58.513 60.881 61.966 62.136 63.638 65.526 70.038 73.216 72.591 68.561 66.506 62.361 58.016 57.903 57.866 57.856 57.891 57.853 57.811 57.776 60.981 69.153 69.633 69.788 69.443 67.621 63.826 63.818 62.198 60.171 59.221 57.801 57.376 56.756 59.698 65.551 67.526 68.401 67.236 67.271 67.361 67.588 67.933 67.593 60.573 56.056 56.021 55.933 55.876 55.863 55.863 55.881 55.853 55.851 55.783 55.968 55.971 56.433 60.391 63.903 63.428 63.666 64.386 62.781 56.948 57.463 54.998 55.018 55.003 55.843 55.401 55.718 59.228 59.808 60.813 62.001 63.156 63.533 62.491 59.408 55.373 54.476 54.111 54.126 54.166 54.066 55.041 54.013 55.463 60.726 61.981 62.808 60.961 59.588 56.731 56.183 55.441 55.583 55.358 55.403 54.603 54.793 53.978 55.888 58.613 61.636 63.033 63.186 62.108 61.601 61.931 55.731 53.588 53.026 51.868 52.051 52.261 51.706 51.638 51.513 51.393 51.358 54.196 56.823 58.041 57.231 55.958 58.488 58.163 57.331 55.783 51.463 52.326 58.416 60.648 61.238 62.151 62.826 63.726 64.633 62.811 62.721 62.076 56.776 49.866 49.846 49.746 49.718 49.651 49.706 49.676 49.741 49.756 49.628 49.503 49.386 49.371 51.183 50.348 53.076 57.051 58.231 58.273 57.783 55.783 54.463 54.808 54.653 52.441 49.588 50.016 48.981 48.816 49.418 49.383 48.986 51.116 51.258 50.493 48.963 48.513 48.536 48.528 48.488 48.776 48.628 50.451 50.261 52.923 50.556 48.848 48.708 50.521 49.766 50.133 50.371 54.761 54.606 51.558 48.928 48.836 49.203 50.133 48.988 49.876 52.816 53.651 54.808 58.936 60.313 60.398 60.718 58.616 58.471 54.418 47.778 48.531 48.981 47.936 48.663 48.058 47.063 46.978 46.968 46.888 47.003 47.371 46.821 47.728 47.588 47.788 47.566 46.821 46.603 46.948 46.096 46.023 45.943 45.841 45.833 45.731 45.676 45.618 45.568 45.571 46.118 47.683 52.168 52.376 48.036 44.983 45.133 48.718 46.886 45.528 45.511 45.256 45.501 48.071 49.641 49.263 49.088 47.596 52.308 52.971 53.443 52.791 52.018 47.618 44.346 44.113 44.413 45.293 43.771 43.728 43.801 44.478 43.556 44.228 45.938 51.508 52.216 53.073 52.928 52.193 49.701 44.776 48.163
83.643 87.973 88.086 88.166 88.201 88.118 88.041 87.968 86.841 87.778 86.143 83.781 82.493 80.406 74.363 67.663 63.431 70.591 80.206 77.663 67.443 67.076 66.643 66.341 66.966 67.111 65.903 64.808 63.221 63.238 63.286 63.291 63.293 63.301 63.261 63.228 63.173 63.073 63.061 63.023 63.056 63.026 62.986 62.908 63.058 65.056 65.676 66.021 67.131 66.641 64.233 63.711 63.646 62.558 62.966 68.643 73.383 73.383 73.338 73.161 71.286 69.056 67.143 64.708 62.816 62.788 62.731 62.536 62.326 62.618 63.868 64.493 63.306 61.756 62.061 62.308 61.373 61.288 61.283 61.306 61.281 60.911 60.763 60.721 60.613 60.551 60.576 60.578 60.703 60.233 60.068 60.263 59.863 61.061 68.233 70.328 70.373 70.263 70.228 70.246 64.863 61.326 60.541 59.793 59.756 59.943 60.666 60.163 59.706 60.453 59.636 59.591 59.546 59.481 59.403 59.393 59.413 59.431 59.388 59.376 59.226 59.126 59.091 59.078 59.076 59.146 59.063 58.993 58.863 58.826 58.866 59.768 58.756 58.686 58.581 58.546 58.456 58.446 58.428 61.418 61.971 65.331 67.903 66.793 73.151 73.508 73.753 72.613 70.413 58.516 57.996 57.886 57.801 57.793 57.808 57.863 57.736 57.673 59.181 65.106 69.741 69.798 69.636 68.766 65.041 64.141 61.866 63.511 68.913 66.403 57.076 56.803 58.411 66.651 67.653 67.241 66.751 66.731 67.376 67.081 67.613 64.783 56.703 56.023 55.981 55.866 55.858 55.871 55.906 55.893 55.886 55.826 55.931 55.981 55.748 56.671 63.821 64.111 64.046 63.461 62.923 56.573 55.343 55.358 54.756 54.951 55.108 54.593 55.171 55.416 55.956 59.711 61.563 62.896 63.673 62.756 61.038 55.543 55.318 55.626 54.418 54.168 54.096 54.776 54.026 54.356 58.076 61.996 62.748 62.496 61.993 58.078 54.771 55.318 54.938 55.456 57.586 57.408 55.398 54.561 55.943 54.853 56.806 55.903 60.948 61.863 61.591 61.671 62.206 61.746 55.826 52.641 52.603 51.806 52.548 51.643 51.621 51.531 51.423 51.616 51.626 53.763 56.426 56.956 58.416 58.171 57.338 55.043 51.696 50.473 50.563 56.243 61.266 62.158 62.951 64.166 63.238 63.828 62.661 60.808 54.438 49.958 49.926 49.873 49.771 49.678 49.738 49.761 49.788 49.703 49.696 50.293 49.553 49.478 49.533 50.003 53.618 55.703 56.683 58.163 58.271 57.756 52.511 50.998 53.911 52.646 50.983 49.356 48.701 50.313 49.326 49.783 50.263 50.353 50.396 49.751 50.368 48.686 48.591 48.581 48.541 48.541 48.513 49.478 49.243 48.716 50.698 51.348 48.371 48.358 48.853 50.863 49.351 49.581 50.261 50.486 48.978 48.981 49.541 50.926 48.758 49.473 48.518 51.591 56.153 58.758 59.533 60.221 59.776 59.413 57.793 53.126 48.456 47.518 47.786 48.771 47.636 47.786 47.128 47.078 47.081 47.523 49.833 47.108 47.748 47.308 47.218 51.118 53.593 49.543 48.368 46.438 46.963 46.636 45.968 45.923 45.863 45.778 45.693 45.666 45.658 45.568 45.481 45.541 52.611 54.813 54.551 52.613 46.011 49.331 50.411 48.833 44.921 44.701 45.223 45.303 46.666 49.248 49.386 50.503 52.621 53.151 54.523 53.223 52.481 46.486 44.201 44.108 44.731 44.211 44.931 43.706 43.768 43.801 43.781 43.903 45.511 50.858 52.716 52.968 53.088 52.028 50.553 47.231 43.463 44.276
82.681 87.656 88.158 88.061 87.978 87.873 87.776 86.373 84.133 83.188 81.923 78.556 76.488 74.026 62.831 63.266 65.823 67.058 80.586 78.056 67.808 66.731 66.646 66.591 66.698 66.723 66.736 67.118 66.146 63.241 63.266 63.286 63.298 63.201 63.161 63.116 63.108 63.041 62.998 63.076 63.036 62.918 62.938 63.101 64.603 65.296 66.706 68.338 67.206 66.763 64.458 63.661 62.838 62.568 66.001 73.348 73.363 73.393 73.031 71.828 69.603 67.606 65.361 63.016 63.448 62.803 62.478 62.266 62.286 64.091 65.148 64.946 64.823 64.321 61.561 61.398 61.918 61.758 61.283 61.276 61.288 60.846 60.693 60.601 60.541 61.096 60.658 60.621 60.243 59.953 60.173 60.051 59.893 66.238 70.268 70.341 70.316 70.311 70.273 68.151 64.568 59.506 60.276 60.458 59.661 60.128 60.371 59.626 59.643 59.848 59.553 59.528 59.503 59.461 59.373 59.408 59.406 59.426 59.408 59.351 59.313 59.218 59.071 58.958 58.993 58.881 58.936 58.978 58.921 58.888 58.881 59.488 58.766 58.638 58.498 58.448 58.438 58.353 58.376 62.326 62.133 68.306 72.728 71.498 73.206 73.471 73.603 73.523 73.448 71.648 62.021 57.876 57.778 57.756 57.723 57.908 57.716 57.598 57.731 60.611 69.436 69.653 69.668 69.211 67.118 64.673 68.301 71.511 71.838 66.358 59.598 57.123 59.848 66.413 65.368 64.671 64.283 65.583 66.846 64.346 64.826 57.963 56.011 55.938 55.906 55.881 55.878 55.896 55.911 55.883 55.838 55.778 55.948 55.801 55.411 63.468 63.478 63.468 64.056 64.196 60.758 55.593 54.871 55.513 54.938 57.173 55.613 55.633 57.253 54.593 56.088 60.796 62.913 63.596 63.113 62.001 56.301 54.468 56.143 55.138 54.251 54.091 54.913 54.353 54.656 58.203 61.461 62.513 62.861 61.703 60.028 57.653 56.716 55.951 54.503 54.403 55.593 58.981 59.138 56.476 54.413 53.078 52.733 53.746 55.238 59.723 61.288 62.148 63.188 62.186 60.698 57.391 52.466 52.943 52.368 52.043 52.361 51.488 51.463 51.431 52.288 51.261 53.153 58.023 58.141 57.371 55.223 50.851 50.603 51.601 53.378 59.063 62.196 62.931 64.111 64.313 63.748 62.606 61.191 56.571 49.993 49.971 49.913 49.863 49.803 49.828 49.863 49.841 49.831 49.713 49.876 50.258 49.488 49.568 50.053 53.438 56.616 55.861 55.531 56.793 57.548 54.981 50.648 49.306 50.578 51.378 49.936 49.208 48.681 49.013 50.216 50.618 50.746 54.056 54.523 50.031 48.696 48.633 48.673 48.658 48.588 48.576 52.208 49.048 48.351 48.631 48.301 50.486 50.083 49.796 50.781 52.851 49.081 48.946 48.978 48.976 48.981 49.263 51.226 50.853 48.496 49.388 48.911 55.686 59.768 60.038 60.356 60.026 58.836 57.658 52.076 48.331 48.176 47.713 47.366 48.628 48.693 48.468 47.178 47.143 47.081 48.878 48.731 47.486 49.003 49.793 51.433 55.813 56.536 54.838 49.366 48.111 46.361 46.023 46.356 45.908 45.873 45.793 45.746 45.661 45.606 45.516 45.541 51.631 54.613 54.853 54.858 54.658 52.956 50.581 49.386 45.356 45.416 44.616 45.618 45.296 45.923 48.518 50.646 52.171 53.128 53.811 53.493 52.258 49.893 44.963 44.121 45.141 44.421 43.843 43.773 43.836 44.646 43.818 43.793 44.016 50.771 52.411 53.508 53.013 52.301 51.058 48.786 48.246 46.581 46.576
82.733 83.946 85.916 83.686 87.831 85.386 83.696 81.443 77.388 77.666 69.358 70.426 67.406 70.298 64.938 65.618 67.141 66.826 67.476 66.721 66.763 67.263 67.091 66.708 66.678 66.688 66.691 66.831 67.453 65.011 63.293 63.281 63.236 63.126 63.126 63.081 63.043 63.088 63.066 63.041 62.901 62.918 63.038 65.583 68.523 68.111 65.096 67.346 68.808 65.808 63.696 63.423 62.926 62.641 72.881 73.311 73.341 73.378 72.401 70.973 68.581 66.106 63.421 62.758 63.228 63.178 62.278 62.288 62.303 64.208 65.381 63.073 64.866 64.653 62.261 61.638 61.083 61.453 61.396 61.553 60.951 60.761 60.701 60.621 60.656 61.223 61.063 59.968 59.831 59.991 59.798 60.148 62.416 70.273 70.181 70.211 70.281 70.306 68.883 64.878 62.353 59.658 60.078 59.758 60.048 59.618 60.008 59.536 59.756 60.521 59.523 59.513 59.451 59.381 59.403 59.393 59.433 59.416 59.366 59.301 59.271 59.191 59.118 59.011 58.946 58.838 58.813 58.823 58.883 58.821 58.813 59.063 58.688 58.593 58.483 58.458 58.361 58.241 58.328 61.618 69.371 72.978 73.193 73.253 73.301 73.623 73.458 73.548 73.553 73.426 67.901 57.843 57.813 57.716 57.658 57.656 57.653 57.606 57.533 58.828 68.753 69.381 68.561 66.096 65.786 70.868 71.761 71.806 70.626 71.868 62.161 58.366 60.693 61.191 62.106 65.091 66.313 64.881 66.808 66.311 58.983 56.011 55.943 55.916 55.868 55.881 55.931 55.846 55.868 55.866 55.856 55.958 56.046 56.141 61.628 64.093 64.416 63.711 63.376 62.563 59.146 56.081 55.066 55.218 55.813 55.561 54.916 58.328 59.691 59.038 58.661 62.396 63.976 63.428 62.051 58.113 54.498 54.203 54.508 54.153 54.113 54.088 54.578 54.061 55.116 60.986 61.988 62.826 62.036 60.551 59.213 59.026 58.101 54.618 54.436 54.706 56.308 56.406 58.126 57.813 53.988 53.058 53.096 52.768 55.648 58.468 60.106 62.471 62.643 61.388 61.678 62.228 57.411 53.706 53.661 52.258 52.043 51.603 51.436 51.351 51.411 51.263 51.416 53.456 55.926 55.731 51.113 50.661 53.711 54.908 59.066 62.246 62.988 64.408 63.858 62.978 62.576 61.921 51.721 50.048 50.023 49.983 49.926 49.848 49.848 49.926 49.938 49.858 49.746 49.788 49.596 49.706 49.648 49.723 53.633 55.826 56.286 56.616 55.786 55.651 55.438 54.913 54.068 49.948 49.876 49.291 48.731 49.068 48.913 49.678 51.413 51.926 54.098 55.086 56.318 56.033 51.713 48.726 48.711 48.656 49.041 52.071 52.146 48.608 48.033 47.983 48.346 48.893 49.906 52.688 51.056 50.731 49.483 48.998 48.993 48.978 48.896 48.828 48.781 49.328 48.603 48.268 53.581 60.251 60.198 60.363 59.748 59.006 56.358 49.653 48.166 49.473 48.013 49.241 47.428 47.516 47.341 47.273 47.221 47.136 47.061 48.798 49.653 47.551 48.416 53.746 55.893 56.691 57.248 56.293 55.983 50.063 46.728 46.051 46.478 46.586 45.828 45.786 45.721 45.656 45.573 45.508 45.608 47.721 52.738 54.576 54.941 54.858 54.578 51.491 45.338 44.716 45.798 46.723 49.231 49.068 45.388 47.538 52.378 53.136 53.846 53.296 51.726 50.891 44.861 44.596 44.488 44.941 43.858 43.833 43.833 44.006 43.788 44.268 44.141 49.151 51.883 53.088 53.718 52.706 51.026 48.396 48.238 49.301 48.048 48.046
83.651 79.038 84.626 81.313 78.128 80.468 78.443 75.068 70.161 67.781 66.966 66.973 67.058 67.473 67.053 66.888 66.868 67.073 68.201 68.711 70.231 70.546 71.246 67.466 66.711 66.711 66.676 66.641 66.976 65.906 63.266 63.226 63.081 63.058 63.066 63.028 63.048 63.251 63.036 62.911 63.006 63.086 63.176 66.716 71.926 65.871 69.666 66.031 67.926 64.358 63.768 62.901 62.586 70.603 73.266 73.288 73.316 73.308 72.018 69.281 67.438 64.406 62.866 62.686 62.943 62.281 62.238 62.271 62.283 62.308 62.438 62.093 65.368 68.518 65.016 63.961 62.528 60.893 60.786 61.508 60.936 60.753 60.698 60.648 60.996 60.323 60.633 60.208 59.776 59.808 59.541 60.783 69.733 70.286 70.281 70.243 70.198 70.003 66.366 64.076 62.181 60.278 59.948 60.383 59.533 60.791 60.126 59.456 59.498 59.771 59.451 59.436 59.378 59.316 59.388 59.468 59.856 60.868 61.251 60.943 59.218 59.181 59.108 59.048 58.963 58.816 58.781 58.748 58.713 58.728 58.748 58.731 58.641 58.516 58.428 58.358 58.316 58.243 58.363 63.713 73.333 73.223 73.311 73.416 73.486 73.438 73.616 73.611 73.568 73.308 65.668 60.098 57.806 57.768 57.663 57.566 57.616 57.533 57.478 57.631 60.403 61.166 68.271 68.903 68.998 69.381 71.651 71.816 71.831 69.273 66.821 61.006 59.921 61.563 61.423 66.563 68.006 68.128 67.121 63.601 56.086 56.376 57.398 55.856 55.858 55.883 55.893 56.083 55.838 55.833 55.863 55.963 55.811 59.866 63.731 63.328 63.841 64.578 63.431 55.788 55.808 57.501 55.923 55.061 55.071 54.708 56.886 60.046 60.086 60.258 61.898 63.201 63.973 62.821 59.741 55.068 54.246 54.106 54.126 54.136 54.273 54.498 53.998 54.783 59.191 61.848 63.558 62.553 61.748 58.803 58.971 59.263 56.798 53.401 53.398 55.686 55.421 55.276 55.781 57.716 56.096 53.488 52.581 52.386 52.356 54.206 57.498 59.111 60.938 61.701 62.453 61.898 61.423 59.946 54.923 52.846 51.878 51.408 51.343 51.333 51.301 51.341 52.021 51.211 51.603 51.831 50.753 54.536 60.638 61.566 62.256 63.176 64.458 64.756 63.521 62.481 60.056 52.506 50.133 50.118 50.073 50.083 49.963 49.966 50.018 50.001 49.933 49.843 50.633 50.088 49.678 51.413 51.423 55.193 57.943 56.251 55.778 56.228 55.808 53.518 54.546 54.581 52.581 51.296 49.268 49.546 48.696 48.711 49.773 51.463 52.151 53.926 55.233 56.356 56.301 54.628 51.201 48.808 48.731 49.346 52.078 51.891 48.746 48.801 48.071 47.991 47.956 47.913 48.678 51.916 51.251 53.143 50.091 49.911 48.948 48.886 48.806 48.726 48.736 47.851 51.813 57.081 59.141 59.658 60.171 60.148 58.536 56.568 51.601 47.768 48.323 47.991 47.438 48.146 47.963 47.351 47.326 47.283 47.446 47.303 47.091 47.948 47.746 47.698 51.961 55.753 57.003 55.881 57.021 56.831 55.983 54.866 49.563 47.141 46.206 45.883 46.133 45.741 45.713 45.618 45.541 45.476 45.533 45.713 47.503 52.218 54.556 54.816 53.933 46.693 45.338 45.313 45.876 48.758 49.808 49.363 49.836 51.911 53.391 53.951 53.373 52.368 48.163 44.801 44.211 44.063 44.476 43.936 43.858 43.808 44.603 43.918 43.898 44.533 49.738 51.703 52.911 53.346 52.576 50.743 45.838 45.936 47.913 48.893 44.676 42.811
82.146 79.836 82.113 78.608 77.488 70.631 69.148 66.451 67.218 67.031 67.058 67.013 67.001 66.996 66.941 66.911 67.796 69.731 70.146 71.473 71.866 72.281 72.593 68.208 66.913 67.201 67.641 66.568 66.611 67.041 63.743 63.141 63.071 63.068 63.063 63.086 63.098 63.013 62.958 62.971 63.108 63.131 63.238 64.201 64.478 65.846 68.946 66.996 66.256 64.048 64.286 64.031 67.648 73.288 73.251 73.268 73.293 71.768 69.158 68.008 65.936 63.318 62.673 63.021 62.301 62.183 62.198 62.241 62.376 62.283 63.113 64.273 69.868 70.248 70.101 66.091 60.998 60.446 60.428 60.376 60.398 60.738 60.731 60.918 60.426 59.686 59.691 59.686 59.818 59.846 59.506 66.181 70.278 70.306 70.323 70.271 70.231 66.773 63.796 59.751 60.063 60.218 60.668 61.471 59.453 59.403 59.401 59.323 59.331 59.348 59.378 59.348 59.328 59.311 59.406 59.526 61.178 62.621 62.591 62.338 60.468 59.406 59.063 59.018 58.988 58.908 58.813 58.691 58.618 58.601 58.663 58.696 58.603 58.493 58.398 58.306 58.238 58.136 58.068 62.211 69.278 72.888 73.328 73.341 73.381 73.511 73.576 75.136 74.678 72.171 59.988 57.768 57.753 57.768 57.658 57.541 57.561 57.506 57.421 57.381 57.398 59.613 66.083 68.993 69.036 69.123 71.636 71.768 71.831 71.856 71.736 62.923 59.341 62.423 66.523 67.741 68.673 69.428 68.913 63.458 56.298 55.961 55.898 55.838 55.888 55.888 55.963 56.153 56.128 55.803 55.901 55.923 56.961 63.558 64.203 63.851 63.378 63.633 58.881 54.926 54.716 55.431 55.576 55.176 55.371 54.603 55.561 58.011 60.011 61.423 62.743 63.631 62.948 61.656 55.981 54.358 54.736 54.218 54.128 54.078 54.626 54.468 54.491 57.516 61.651 62.603 62.706 62.058 57.998 56.416 58.271 58.231 54.703 53.918 54.041 53.248 54.496 55.133 55.618 57.656 56.581 53.578 52.588 52.361 52.353 52.868 53.438 54.566 58.421 62.008 61.991 61.371 61.918 62.253 59.738 53.286 51.696 51.448 51.316 51.446 51.381 51.166 51.146 50.973 50.836 50.826 54.423 60.681 61.576 62.306 63.268 64.568 64.731 63.476 62.423 60.653 54.946 50.193 50.146 50.118 50.261 50.728 50.166 50.066 50.048 50.001 49.888 49.806 49.838 49.861 49.903 51.103 56.076 58.218 58.493 58.003 56.238 55.478 50.846 49.616 53.496 52.293 51.748 49.573 49.128 49.191 49.316 49.756 51.631 52.236 54.221 55.318 56.451 56.416 55.616 51.006 48.886 48.838 48.898 52.928 52.696 49.133 48.061 48.531 48.653 48.006 47.968 47.913 48.188 51.583 51.643 51.506 51.671 50.146 48.923 48.886 48.748 48.211 47.996 50.648 57.326 59.251 59.791 60.263 60.023 56.521 52.791 50.691 48.373 47.668 47.586 47.921 47.651 47.531 47.436 47.438 47.351 47.586 48.218 47.278 47.343 47.213 47.286 50.548 52.608 54.021 55.428 53.438 54.788 55.791 56.668 56.016 56.001 51.963 48.023 46.511 45.991 46.538 45.661 45.603 45.518 45.756 46.141 45.576 45.761 48.736 52.428 54.023 48.681 44.826 44.881 46.161 47.543 48.878 49.413 50.196 52.301 53.248 54.403 54.283 53.188 50.371 44.373 44.048 44.233 44.281 43.901 43.903 43.853 43.793 43.698 43.956 44.513 48.348 51.553 53.111 53.306 52.753 51.733 49.508 45.873 43.946 43.991 44.226 43.528 43.233
79.361 77.583 72.858 67.736 67.686 67.578 67.306 67.438 67.468 67.243 67.083 67.043 67.001 66.951 67.153 70.498 71.266 71.658 72.111 72.523 72.963 73.361 73.786 72.578 67.496 69.343 69.361 66.781 66.986 67.148 63.318 63.073 63.031 63.038 63.116 63.086 63.011 62.956 63.011 63.098 63.193 63.286 63.258 63.653 66.686 64.063 65.303 64.443 63.816 64.308 63.468 66.048 72.521 73.363 73.316 73.278 72.776 70.766 68.136 66.271 63.108 62.668 62.466 62.328 62.186 62.186 62.196 63.828 62.358 62.106 63.421 68.873 70.258 70.213 70.198 70.253 67.958 61.686 60.343 60.278 60.163 60.131 60.746 60.966 59.736 59.633 59.633 59.683 60.853 61.518 62.853 69.916 70.198 70.238 70.276 70.293 69.956 65.258 59.418 59.473 59.533 60.378 62.283 61.643 59.588 59.331 59.291 59.253 59.283 59.311 59.321 59.298 59.246 59.358 59.368 60.216 62.708 63.108 62.843 62.801 63.538 61.693 60.038 59.003 58.941 58.876 58.796 58.688 58.573 58.508 58.556 58.508 58.583 58.423 58.353 58.256 58.323 58.148 58.006 58.453 60.416 65.841 70.003 73.231 73.451 73.521 73.621 75.408 75.808 61.231 57.711 57.701 57.693 57.728 58.211 57.553 57.458 57.478 57.396 57.296 57.271 57.613 69.153 69.011 69.006 68.998 70.118 71.803 71.833 71.853 70.686 61.431 60.808 64.081 67.461 68.423 69.326 69.096 68.201 65.333 58.076 55.928 55.833 55.831 55.896 55.873 55.968 55.943 55.753 55.891 56.013 55.888 63.116 63.381 63.588 64.138 64.006 61.708 56.553 54.731 54.901 54.803 54.706 54.158 54.221 55.076 54.728 56.471 61.263 62.316 63.533 63.323 62.048 57.571 54.486 54.306 54.981 54.181 54.096 54.623 53.986 54.541 56.946 61.288 62.441 63.003 61.946 60.311 55.158 54.473 56.183 55.128 53.621 54.798 54.446 52.288 53.688 56.108 55.281 55.933 55.561 55.206 54.488 53.276 52.861 52.858 52.288 52.446 55.016 58.081 61.271 61.841 62.248 61.538 60.953 58.986 53.428 51.978 51.833 51.356 52.226 51.376 51.118 50.973 50.841 50.771 52.131 57.316 59.783 62.423 62.983 64.238 63.406 62.448 60.228 55.693 53.136 51.013 50.141 50.233 50.586 50.466 50.123 50.103 50.083 49.963 49.851 49.811 49.948 49.828 50.886 54.598 57.406 58.551 58.486 58.421 56.996 55.196 53.023 49.853 49.391 51.381 51.673 50.878 49.438 49.111 49.406 51.351 52.988 54.341 55.548 56.506 56.211 55.316 52.483 48.928 48.856 48.973 52.553 51.516 49.151 48.713 48.101 47.891 48.201 50.258 48.511 48.358 49.081 48.681 51.456 51.201 48.878 48.801 48.731 48.771 49.393 48.573 48.946 59.741 59.371 59.881 60.268 59.896 59.188 52.981 48.406 48.658 48.096 48.091 48.313 48.571 47.618 47.598 47.481 47.388 47.278 47.231 47.731 48.358 47.351 47.771 48.663 47.186 48.623 51.993 51.916 50.291 53.393 54.606 55.681 56.581 56.338 55.048 53.251 46.108 45.796 46.701 47.628 45.618 45.533 45.411 46.526 46.113 45.586 45.858 46.841 49.566 47.108 45.368 45.363 48.006 45.611 47.811 49.803 51.956 53.108 53.896 53.743 53.268 50.198 45.841 44.291 44.058 44.656 43.966 43.886 43.886 45.578 44.238 43.806 44.043 47.883 52.991 52.791 54.048 52.953 52.493 49.676 48.621 48.271 45.566 43.126 43.058 42.768 42.643
72.546 70.513 67.506 67.673 67.448 67.351 67.321 67.208 67.221 67.166 67.113 67.308 67.611 68.206 70.688 71.938 72.341 72.746 73.191 73.593 74.026 74.398 74.498 73.071 67.418 68.983 68.446 67.181 66.803 66.421 63.123 63.033 63.006 62.986 62.983 63.028 62.993 63.056 63.128 63.193 63.276 63.303 63.336 63.446 66.591 66.496 66.768 64.131 66.058 65.421 62.878 72.313 73.441 73.403 73.346 72.628 70.851 68.691 67.613 65.788 62.696 62.676 62.643 62.221 62.146 62.161 62.186 62.651 63.446 62.991 66.001 70.278 70.201 70.183 70.251 70.316 68.616 64.941 61.656 60.271 60.333 60.048 59.981 59.988 59.978 59.591 59.623 59.681 59.646 61.906 69.668 70.293 70.258 70.178 70.173 70.028 65.116 62.321 59.426 59.508 59.501 60.041 61.238 60.856 61.608 59.358 59.458 59.201 59.211 59.171 59.183 59.161 59.256 59.338 59.803 62.266 62.568 62.686 62.673 74.361 73.956 70.278 65.093 62.146 59.308 58.846 58.768 58.648 58.556 58.531 58.418 58.426 58.383 58.313 58.273 58.248 58.591 58.483 58.031 57.873 57.941 59.398 63.741 69.636 72.396 73.513 73.548 73.478 69.828 57.693 57.648 57.676 57.653 57.641 58.251 57.591 57.408 57.451 57.391 57.271 57.203 57.233 63.291 68.976 68.968 68.986 68.951 71.196 71.861 71.858 69.846 63.096 63.533 67.216 68.128 69.081 69.338 68.456 67.486 61.811 55.971 55.858 55.831 55.838 55.801 55.856 55.893 55.806 55.776 55.958 56.533 59.953 64.141 64.121 63.501 63.438 62.956 59.876 57.201 54.843 54.828 55.288 55.331 54.611 55.343 55.063 55.201 57.901 62.493 63.243 63.511 62.393 59.906 54.603 54.311 54.798 54.198 54.096 54.016 54.596 54.086 55.413 60.613 62.163 62.896 62.481 61.148 59.321 58.728 55.546 54.181 54.471 54.846 55.811 52.178 52.253 55.756 57.378 56.971 55.256 55.146 54.696 53.576 54.496 53.456 52.433 52.378 52.833 52.643 54.066 56.493 60.968 61.578 60.963 60.768 61.118 59.398 54.691 52.363 51.601 51.421 51.458 51.373 50.971 50.931 50.821 50.748 51.876 57.343 61.971 62.406 62.996 62.413 61.471 53.893 53.546 53.038 50.843 50.301 51.251 50.261 50.116 50.196 50.146 50.106 49.981 49.833 49.848 49.836 49.806 55.158 56.111 56.013 57.081 58.443 57.431 55.056 55.576 54.838 51.598 49.263 49.368 50.733 49.731 50.361 49.896 49.986 52.918 54.401 55.513 56.491 56.146 54.376 49.786 49.303 48.868 50.053 52.236 51.511 49.298 49.231 48.403 49.131 47.966 49.766 52.796 50.213 49.466 48.911 47.938 49.871 48.183 48.476 48.898 48.481 48.326 51.738 57.586 60.368 60.773 60.743 60.246 59.716 58.273 50.966 48.581 48.513 48.678 47.683 49.238 48.031 47.501 47.503 47.586 47.596 48.556 47.503 47.286 47.878 48.116 47.093 50.733 48.076 47.081 47.321 48.848 47.333 50.136 52.753 53.011 54.333 55.638 56.878 55.916 54.838 48.743 46.618 45.816 47.341 46.578 45.481 45.441 45.411 45.351 45.218 45.323 46.186 47.186 45.933 46.208 49.493 49.908 48.428 46.801 51.896 53.026 53.901 53.748 52.706 52.503 45.351 44.228 44.061 43.891 43.963 43.983 43.901 43.866 44.821 44.256 43.896 44.948 51.311 52.583 53.466 53.551 52.593 50.573 48.801 48.598 49.146 44.608 42.936 42.853 42.818 42.128
67.858 67.621 67.498 67.431 67.378 67.336 67.303 67.276 67.231 67.186 67.138 68.673 71.723 72.146 72.553 72.961 73.398 73.811 74.268 74.488 74.476 74.211 73.716 73.141 69.371 67.096 67.616 67.251 66.806 64.863 63.148 62.991 62.986 62.996 63.021 63.131 63.126 63.181 63.248 63.253 63.328 63.403 63.443 63.483 65.448 63.533 65.568 64.231 64.216 64.658 67.681 73.403 73.443 73.381 73.298 71.921 69.148 67.583 65.016 63.483 62.478 62.376 62.418 62.168 62.163 62.166 62.211 62.198 62.156 64.186 70.333 70.218 70.183 70.266 70.296 69.621 66.353 62.508 62.178 61.271 58.451 60.678 60.251 59.721 59.648 59.613 59.786 59.606 59.903 66.763 70.286 70.351 70.348 70.276 70.228 67.051 62.323 59.658 59.998 59.901 60.378 61.931 62.251 62.646 59.441 59.763 59.886 59.128 59.181 59.138 59.056 59.103 59.226 59.361 61.403 62.558 62.566 62.568 64.276 74.743 82.858 79.493 77.663 83.886 79.651 71.168 66.918 61.898 59.411 58.563 58.426 58.323 58.291 58.293 58.218 58.193 58.171 58.391 57.961 57.853 57.753 57.788 59.126 61.628 71.511 73.418 73.366 67.823 59.696 57.628 57.823 57.601 57.626 57.593 57.693 57.481 57.348 57.298 57.333 57.218 57.166 57.163 57.176 65.686 68.851 68.863 68.976 69.608 71.858 71.966 66.753 62.381 66.451 67.863 68.803 69.428 68.733 67.786 65.826 56.036 55.911 55.826 55.861 55.833 55.868 55.848 55.861 55.761 55.861 56.061 59.173 63.658 63.403 63.983 64.346 63.371 57.933 56.743 55.313 54.911 54.783 54.736 55.431 57.033 58.783 60.393 57.273 61.458 63.088 64.258 62.776 60.856 55.726 54.258 54.808 54.621 54.116 54.156 54.286 53.941 54.636 58.971 61.723 63.656 62.791 62.681 59.518 59.326 59.431 57.631 53.891 55.571 57.328 52.536 52.651 56.073 57.646 58.401 57.233 56.081 55.158 53.173 52.348 52.886 53.936 52.708 52.858 53.061 52.351 52.843 54.321 55.711 59.811 60.596 61.046 61.701 61.978 59.743 54.416 52.093 51.536 51.068 52.033 51.313 50.903 50.846 50.758 50.693 51.548 57.016 61.913 62.231 60.321 53.708 53.541 52.741 50.851 50.168 50.403 50.468 50.178 50.188 50.116 50.191 50.896 50.086 49.998 50.398 51.328 54.893 56.473 56.653 56.068 56.083 54.798 50.583 54.363 54.628 52.566 51.173 48.963 49.146 49.521 49.671 49.761 50.988 52.846 54.463 55.578 56.546 55.973 54.226 50.493 49.866 48.923 51.346 52.103 52.193 51.411 50.833 50.041 49.461 50.121 50.388 50.951 49.888 48.711 48.576 48.448 48.311 48.318 49.141 48.093 48.801 48.346 49.536 57.936 61.451 60.888 60.833 60.526 59.991 56.576 50.998 48.328 47.928 48.656 47.716 47.788 47.896 47.563 47.546 47.523 47.571 48.503 47.753 47.508 47.616 47.423 48.366 56.693 58.133 54.316 48.436 48.011 47.473 46.426 47.686 48.551 51.771 49.418 52.426 55.211 56.148 55.716 54.808 53.811 47.521 45.788 45.506 45.658 45.926 45.348 45.246 45.168 45.078 45.186 46.108 44.761 48.986 49.706 50.123 50.243 52.186 53.153 54.253 53.828 52.868 49.946 44.556 44.358 44.161 44.666 44.133 43.996 43.941 44.151 44.348 43.928 44.213 45.913 52.096 52.468 53.476 53.153 52.291 49.266 43.143 47.406 48.613 46.543 43.231 42.758 42.631 42.436 41.763
67.608 67.536 67.486 67.431 67.413 67.353 67.246 67.778 67.343 67.196 67.173 68.031 72.828 73.238 73.633 74.076 74.406 74.513 74.346 73.996 73.538 73.146 72.723 69.638 66.753 67.178 68.566 67.791 66.166 63.283 63.036 62.961 63.036 63.051 63.083 63.208 63.231 63.333 63.343 63.436 63.488 64.048 63.518 63.526 63.541 63.578 64.791 63.838 63.121 63.573 73.356 73.403 73.403 73.288 72.193 70.868 68.673 66.083 63.331 63.451 64.973 65.883 62.166 62.146 62.173 62.168 62.446 62.711 62.516 68.401 70.253 70.168 70.186 70.266 70.018 67.751 65.681 63.141 62.366 57.988 57.083 58.006 60.413 59.661 59.586 59.851 60.796 59.516 63.416 69.858 70.213 70.276 70.296 70.311 68.556 63.888 60.158 59.503 60.693 60.328 60.771 65.103 61.238 62.113 59.126 59.566 59.063 59.128 59.098 59.081 59.063 59.143 59.188 60.846 62.551 62.543 62.546 62.531 68.691 76.903 84.476 83.058 87.871 88.048 87.651 87.008 87.126 83.193 66.571 58.553 58.451 58.343 58.231 58.198 58.176 58.098 58.113 58.018 57.938 57.891 57.771 57.656 57.606 57.713 60.881 65.818 67.808 62.173 57.596 57.776 57.638 57.843 57.721 57.548 57.553 57.426 57.316 57.223 57.293 57.206 57.106 57.061 57.076 61.093 68.463 71.081 70.963 68.718 69.601 68.576 61.953 64.678 67.611 68.531 69.391 69.008 68.061 65.703 56.696 55.971 55.826 55.803 55.863 55.803 55.893 55.866 55.788 55.856 56.046 57.083 57.826 61.816 63.558 63.391 63.771 59.983 57.083 55.408 54.751 56.388 57.686 54.788 54.661 57.253 60.391 60.818 61.103 62.366 63.378 63.133 62.063 56.163 54.578 54.213 54.256 54.131 54.061 54.631 54.383 54.176 56.263 61.428 62.461 62.838 62.066 57.773 55.046 57.911 58.596 55.316 55.251 57.123 53.516 52.688 55.706 58.361 58.866 57.543 58.346 57.393 56.006 52.741 52.878 52.738 52.873 54.573 53.153 52.318 52.418 53.113 53.746 54.563 58.401 60.236 61.681 62.733 61.051 60.618 60.793 55.476 52.421 51.743 51.018 50.903 50.853 50.831 50.808 50.686 50.588 51.468 56.051 59.336 54.646 53.528 52.936 51.111 50.223 50.203 50.283 50.273 50.226 50.238 50.288 50.503 50.321 49.958 50.071 51.281 56.493 56.483 55.948 56.543 56.621 55.571 52.643 49.783 50.118 51.941 51.008 49.313 48.751 49.018 48.946 49.066 49.498 52.941 54.448 55.671 56.596 56.148 54.693 49.736 49.056 48.886 50.598 53.183 52.728 51.758 51.298 49.056 48.711 49.788 51.691 51.736 49.143 47.788 48.403 49.163 48.508 47.816 48.866 48.413 48.101 48.248 52.293 60.466 60.838 60.828 60.858 60.171 59.433 56.896 50.073 48.396 48.078 48.021 50.343 48.671 48.916 47.618 47.621 47.563 47.956 48.291 47.428 47.683 47.861 47.836 50.158 56.921 58.093 57.678 58.051 53.163 49.046 47.218 47.696 47.396 46.301 47.066 47.508 51.933 53.791 55.213 56.093 56.056 55.243 52.331 48.438 45.633 45.471 46.131 45.566 45.218 45.111 45.066 44.961 45.318 46.461 48.243 49.123 50.183 51.958 53.168 53.866 54.348 53.076 52.621 46.416 44.198 44.076 44.486 44.216 44.036 43.993 43.961 44.188 43.873 44.056 45.696 51.203 52.563 53.441 53.243 52.236 50.748 47.938 45.936 43.721 44.816 43.146 43.056 43.161 42.428 42.188 41.903
67.556 67.608 67.686 67.803 69.928 70.878 72.031 72.508 67.228 67.306 67.231 67.296 70.413 74.258 74.476 74.501 74.158 73.738 73.353 72.906 72.478 72.056 71.626 71.173 66.751 66.956 66.998 64.028 63.416 63.213 63.016 63.038 63.103 63.181 63.181 63.286 63.491 64.098 63.516 63.663 66.626 67.126 64.228 63.521 63.416 63.278 64.393 62.943 62.838 67.353 72.368 73.321 73.328 73.311 71.278 69.183 66.391 64.408 65.608 64.896 64.318 63.611 62.168 62.151 62.213 62.431 62.251 63.068 67.191 70.276 70.213 70.181 70.236 70.303 67.988 64.798 62.901 63.988 59.503 57.071 57.058 57.071 59.776 59.603 59.538 59.686 60.546 60.898 69.968 70.231 70.183 70.206 70.238 70.311 66.033 60.828 59.431 59.516 60.241 62.063 61.378 64.251 59.076 60.966 59.696 59.028 59.001 59.038 59.053 58.956 59.016 59.091 60.471 62.583 62.546 62.596 62.576 62.568 71.728 80.948 87.836 87.888 87.828 87.826 87.823 87.948 87.463 87.046 62.416 58.531 58.461 58.368 58.191 58.118 58.073 58.088 57.973 58.001 57.916 57.841 57.768 57.936 57.756 57.561 57.561 57.791 59.133 57.586 57.721 57.726 57.808 57.843 57.803 57.688 57.478 57.371 57.258 57.131 57.211 57.126 57.046 56.991 56.998 56.968 69.881 71.473 71.508 69.061 68.758 68.811 67.331 67.311 68.248 69.161 69.206 68.363 66.953 62.506 55.991 55.858 55.793 55.826 55.868 55.846 55.823 55.821 55.773 55.896 58.116 58.171 55.618 57.281 61.583 63.848 62.001 57.196 56.036 56.148 55.646 57.418 57.331 55.868 55.481 55.028 58.038 60.526 61.903 63.028 63.396 62.361 59.313 54.753 54.291 54.953 54.126 54.138 54.033 53.948 54.038 55.683 60.316 62.216 63.043 62.058 60.646 55.441 54.166 54.381 54.928 53.546 56.183 55.568 52.266 55.083 57.363 58.513 57.771 57.183 58.758 58.873 57.373 55.978 53.213 52.543 54.856 55.168 54.693 52.771 52.736 52.416 52.076 52.101 54.278 56.561 60.656 61.076 60.611 61.258 61.606 60.613 56.398 51.908 50.998 50.941 50.818 50.798 50.793 50.718 50.648 50.536 50.666 52.516 53.308 53.253 50.623 50.268 50.248 50.316 50.336 50.336 50.318 50.261 50.998 50.291 50.053 50.218 51.473 56.583 57.906 58.008 56.241 55.988 56.146 55.151 54.621 51.356 49.481 50.198 49.276 49.001 50.348 52.451 50.828 50.448 53.551 54.608 55.793 56.621 55.811 55.373 51.051 50.086 49.023 50.201 53.123 53.176 50.981 50.503 49.701 48.333 48.278 49.613 52.803 49.673 47.896 47.738 47.956 48.266 48.673 48.571 48.036 48.011 48.718 51.638 58.611 59.843 60.816 60.736 60.011 59.006 54.333 48.161 49.526 49.141 47.831 47.893 49.733 47.916 47.618 47.668 47.611 47.533 47.651 47.576 47.646 48.106 47.851 52.381 58.151 58.188 58.596 57.996 57.698 55.376 53.273 46.893 47.641 46.156 46.101 46.126 49.126 51.391 52.118 53.926 55.011 56.341 56.068 55.218 51.098 46.516 46.471 45.926 45.221 45.146 45.086 45.043 44.948 44.876 45.286 46.258 48.006 52.053 52.993 54.051 53.983 53.568 51.816 46.471 44.711 44.348 44.946 44.036 44.031 44.011 44.141 44.136 43.883 44.113 44.543 51.248 53.236 53.661 53.836 52.398 51.173 48.973 48.566 48.278 45.341 44.861 43.108 42.981 43.011 42.848 42.873 42.268
69.736 70.616 72.061 72.611 72.673 72.746 72.793 72.816 68.546 67.326 67.351 67.193 68.253 74.193 73.941 73.511 73.116 72.691 72.286 71.838 71.368 70.566 68.471 67.201 65.411 64.161 63.328 63.243 63.113 63.116 63.138 63.188 63.183 63.281 63.331 63.691 64.711 64.306 66.966 65.636 68.316 68.136 63.851 64.608 63.331 63.093 62.858 62.708 62.596 62.476 65.918 70.618 72.831 71.691 69.313 68.188 65.456 62.996 64.473 62.843 62.336 62.183 62.193 62.196 62.258 63.176 62.681 64.888 69.803 70.221 70.176 70.256 70.291 68.806 66.913 62.553 62.281 61.826 57.261 57.091 57.273 58.701 59.601 59.753 59.286 59.458 59.433 59.523 62.966 68.363 70.316 70.228 70.226 68.056 62.923 60.018 59.981 59.313 61.376 62.671 62.746 58.991 60.368 59.506 59.216 58.996 59.013 59.018 58.948 58.931 59.026 59.686 62.238 62.546 62.548 62.741 62.773 63.753 75.031 84.783 87.853 87.826 87.846 87.833 87.833 87.861 87.546 80.221 60.203 58.661 59.143 59.961 59.218 58.161 58.021 58.056 57.976 57.938 57.856 57.878 57.766 57.858 58.118 57.563 57.501 57.406 57.523 57.518 57.608 57.731 57.786 57.646 57.606 57.446 57.583 57.378 57.228 57.128 57.043 57.068 57.003 56.946 56.888 56.903 67.891 71.461 71.448 69.951 68.768 69.006 67.676 67.988 68.936 69.348 68.616 66.591 61.613 56.653 55.886 55.826 55.848 55.863 55.843 55.843 55.798 55.808 55.823 56.761 59.368 57.973 56.673 55.506 54.676 59.301 58.541 57.136 56.648 55.571 56.376 56.113 55.651 55.808 57.476 56.603 56.743 60.998 62.578 63.451 62.971 59.711 54.431 54.203 54.168 54.338 54.153 54.063 53.943 54.036 54.888 60.163 61.858 62.851 62.383 61.378 59.136 58.726 56.023 54.008 53.738 53.971 54.511 52.531 52.806 55.593 57.611 57.823 56.688 56.441 57.391 57.591 59.518 57.748 56.181 54.708 55.166 53.593 54.716 54.738 52.941 51.921 52.076 54.016 54.538 53.848 56.741 60.576 61.231 61.658 60.813 60.756 59.233 56.766 55.621 51.123 50.871 50.766 50.698 50.746 50.626 50.563 50.413 50.538 51.463 50.806 50.351 50.288 50.343 50.431 50.381 50.316 50.388 50.823 50.173 50.248 50.303 50.651 55.886 57.871 58.313 58.123 57.041 54.791 54.863 55.568 54.506 51.968 49.573 49.428 48.978 48.916 50.468 54.403 53.001 53.806 54.651 55.821 56.663 55.786 52.668 50.386 48.893 48.961 49.183 52.916 53.536 53.131 48.983 48.243 48.653 48.711 48.473 49.466 49.396 48.556 47.971 47.828 47.743 47.993 47.606 47.751 48.696 48.171 51.768 57.838 59.421 60.033 60.806 59.918 56.973 51.228 49.081 48.383 49.331 47.848 47.808 48.313 47.803 47.626 47.683 47.703 48.956 47.496 47.531 47.801 47.786 48.211 52.588 58.376 58.308 57.743 58.258 58.581 56.856 53.178 46.361 46.336 47.176 46.806 46.636 46.076 46.983 51.571 51.773 51.333 53.691 55.183 55.486 55.431 54.548 51.863 50.491 47.618 45.353 45.358 45.531 45.013 44.931 44.868 45.028 44.956 48.311 52.846 53.861 53.988 53.218 50.626 47.026 44.913 44.601 44.333 44.523 44.068 44.023 44.268 44.686 43.943 44.291 45.721 50.416 52.583 53.243 53.636 52.791 50.006 47.213 48.608 48.721 48.388 45.213 43.411 43.498 43.548 42.838 41.751 42.101 42.286
71.263 72.711 72.808 72.803 72.851 72.823 72.851 72.843 69.521 65.936 67.396 67.316 67.991 72.713 72.863 72.453 72.028 71.593 71.031 69.758 68.883 67.086 65.118 63.878 63.333 63.251 63.196 63.221 63.161 63.196 63.228 63.271 63.278 63.561 64.323 63.923 63.776 65.398 66.338 66.108 64.203 65.056 64.411 66.156 65.248 62.971 62.668 62.463 62.318 62.306 62.533 64.731 70.038 70.128 67.798 65.946 63.411 64.113 62.596 62.303 62.208 62.181 62.188 62.241 62.723 62.651 62.793 69.541 70.236 70.206 70.243 70.268 69.626 67.021 63.293 62.496 62.446 57.728 57.073 57.066 58.028 59.651 59.661 58.096 57.081 58.321 59.386 59.341 59.271 60.621 65.878 70.318 67.813 63.996 59.981 59.526 59.768 58.953 59.821 60.728 60.696 59.008 59.016 59.593 58.876 58.871 58.873 58.876 58.851 58.936 58.948 59.626 61.453 62.511 62.461 62.728 62.681 66.118 75.631 87.923 87.843 87.836 87.863 87.833 87.921 87.903 87.328 75.128 59.833 58.928 58.478 58.496 59.361 58.826 58.058 57.911 57.883 57.876 57.808 57.813 57.731 57.691 57.621 57.588 57.496 57.408 57.348 57.321 57.471 57.601 57.718 57.608 57.428 57.498 58.611 57.901 57.263 57.066 57.006 56.998 57.181 56.893 56.828 56.816 58.568 69.026 69.461 68.738 68.903 68.928 68.003 68.671 69.403 68.896 67.948 67.008 56.281 55.931 55.843 55.816 55.831 55.868 55.828 55.821 55.766 55.746 55.913 56.013 57.476 56.101 55.768 55.963 56.066 55.886 55.991 58.823 58.336 55.906 55.658 57.041 56.988 57.298 58.946 57.498 57.033 62.156 63.321 63.303 62.153 57.703 54.266 54.543 54.576 54.146 54.086 54.006 53.963 54.236 57.988 61.583 63.268 62.791 61.756 59.601 59.346 59.298 58.366 53.866 54.536 56.988 53.126 52.311 52.276 52.593 55.653 57.066 57.221 57.261 56.646 57.186 58.911 59.601 57.881 56.523 56.278 55.591 52.788 53.441 54.126 53.898 52.801 53.958 54.008 52.036 52.921 57.528 60.826 60.916 60.716 61.248 57.731 60.363 60.081 58.193 51.768 50.886 50.698 50.591 50.638 50.591 50.563 50.453 50.418 50.411 50.308 50.403 50.443 50.456 50.381 50.291 50.891 50.248 50.153 50.248 51.676 56.826 58.273 58.506 58.093 57.058 53.088 49.863 52.468 53.871 51.951 50.696 49.048 49.031 49.511 48.943 49.558 52.541 53.826 54.696 55.898 56.613 55.621 53.298 49.006 48.858 48.848 49.206 52.943 53.836 54.836 53.911 51.273 49.476 48.073 49.526 51.591 50.548 48.351 48.676 48.238 47.828 47.823 46.988 46.966 51.036 52.986 52.133 53.891 58.536 60.116 60.331 59.726 58.418 51.518 48.176 48.621 48.511 47.908 47.973 47.971 47.686 47.686 47.696 47.633 47.941 48.853 48.733 48.056 47.893 49.173 53.793 57.841 57.951 58.738 57.991 57.691 58.343 55.028 52.188 48.506 46.893 47.158 48.413 47.768 46.008 46.918 49.033 50.631 46.461 50.161 53.628 54.376 55.548 55.491 55.166 54.321 48.993 45.606 45.168 45.763 45.191 44.883 44.853 44.968 45.873 44.693 48.561 54.176 53.708 52.461 45.898 44.683 44.971 45.448 45.021 44.051 44.111 44.288 44.431 44.106 44.173 44.008 49.093 53.536 53.948 54.266 52.711 51.863 45.718 43.623 46.976 48.206 44.088 43.856 43.006 43.636 44.523 42.156 41.428 41.098 41.103
69.323 72.866 72.846 72.846 72.821 72.798 72.741 72.678 70.898 65.826 67.101 67.411 67.606 70.206 69.498 70.218 70.236 68.873 67.856 65.383 65.533 63.481 63.403 63.303 63.218 63.168 63.178 63.281 63.206 63.321 63.318 63.431 63.468 63.663 63.961 63.708 64.123 64.846 63.788 64.768 63.741 65.896 65.753 65.188 63.248 63.676 62.586 62.271 62.128 62.103 62.161 63.448 62.508 64.871 66.581 63.918 62.453 62.543 62.916 62.331 62.201 62.206 62.241 62.531 62.726 62.391 66.973 70.261 70.168 70.171 70.243 70.348 68.933 65.848 62.813 62.313 59.008 57.038 57.058 57.916 59.106 59.586 59.161 57.126 57.046 57.018 58.206 59.611 59.173 59.083 59.126 61.973 64.018 60.421 59.353 59.308 58.993 58.973 58.906 60.533 60.401 58.888 59.033 58.816 58.858 58.863 58.791 58.776 58.791 58.858 59.166 59.413 59.468 59.283 59.653 60.341 62.033 69.816 81.166 87.821 87.881 87.828 87.826 87.823 87.836 87.358 85.298 65.156 59.231 58.793 58.453 58.506 58.391 58.233 58.156 58.043 57.906 57.861 57.773 57.751 57.693 57.683 57.631 57.556 57.518 57.426 57.331 57.276 57.256 57.316 57.446 57.461 57.976 57.498 57.958 58.168 57.208 57.063 56.951 56.878 56.921 56.833 56.756 56.746 56.721 63.046 67.228 68.948 69.226 69.473 68.933 69.373 69.151 68.236 67.281 59.701 55.978 55.841 55.781 55.851 55.843 55.866 55.781 55.778 55.716 55.818 55.838 56.883 57.028 55.981 55.766 58.448 58.208 57.741 58.061 55.708 57.801 57.691 54.473 54.626 56.178 58.476 60.691 60.388 60.903 63.123 64.283 62.738 61.143 55.016 54.186 54.878 54.306 54.121 54.143 54.311 54.033 55.403 60.713 62.316 62.876 62.526 59.991 56.153 58.276 58.746 55.883 53.723 55.801 55.841 52.373 52.281 52.241 52.246 55.408 57.073 58.418 58.693 57.643 56.693 57.051 58.346 58.901 58.011 57.848 57.916 56.248 54.663 54.698 55.301 53.306 53.146 53.878 53.878 52.828 53.821 56.866 59.611 61.003 59.793 60.726 61.543 61.093 59.386 57.306 52.333 50.813 50.646 50.571 50.516 50.548 50.433 50.406 50.498 50.503 50.508 50.493 50.428 50.588 50.328 50.246 50.278 50.273 51.426 56.486 58.646 58.446 58.221 57.158 55.398 53.863 50.306 49.661 50.791 50.003 49.718 49.476 49.033 49.158 49.223 51.493 53.873 54.743 55.863 56.578 55.671 53.436 49.198 48.921 48.958 49.511 52.733 50.951 55.851 56.806 54.111 53.691 49.908 48.376 50.088 49.648 50.751 48.356 47.991 48.871 48.266 48.211 49.253 51.103 52.726 52.753 54.801 57.243 60.181 60.251 59.581 56.851 48.708 51.163 49.286 48.866 47.878 48.111 47.988 47.713 47.781 47.743 47.871 47.688 47.598 47.773 47.856 48.403 48.868 56.073 58.468 58.351 57.721 58.086 58.898 55.988 53.931 52.348 52.271 51.716 47.413 46.743 48.526 50.038 49.076 48.641 47.126 45.976 46.278 48.968 50.881 53.156 54.298 55.258 55.928 54.991 54.656 47.988 46.446 47.196 45.021 45.311 44.873 44.736 44.746 45.343 44.933 47.371 52.708 50.426 46.561 46.468 44.298 44.711 44.123 44.076 44.016 44.928 44.221 44.151 44.296 49.268 52.526 53.568 54.306 53.938 52.258 49.678 48.178 44.111 43.263 43.436 43.191 43.208 43.448 43.833 44.113 42.093 41.411 40.716 40.048
68.668 72.733 72.728 72.618 72.276 69.981 69.106 66.173 66.768 66.083 66.421 66.671 66.711 66.518 66.273 66.611 65.501 64.801 63.588 63.548 63.443 63.361 63.316 63.271 63.291 63.296 63.336 63.366 63.396 63.403 63.813 68.101 67.133 63.756 63.776 63.743 63.701 63.683 63.821 63.426 63.683 64.801 64.513 62.801 64.353 67.558 62.963 62.283 61.911 62.581 63.046 62.261 62.558 63.081 62.636 63.886 63.166 63.246 63.751 62.396 62.163 62.248 62.478 62.463 63.163 65.301 70.066 70.201 70.208 70.211 70.276 68.436 65.928 63.646 64.271 61.078 57.071 57.053 57.061 58.986 59.603 60.008 59.826 57.586 57.203 57.108 57.173 57.303 58.548 59.168 58.973 58.911 59.088 59.521 59.483 60.581 60.978 62.531 60.463 60.441 58.868 59.161 59.056 58.768 58.763 58.741 58.701 58.661 58.756 59.473 59.198 59.158 59.866 59.678 59.638 59.256 60.648 80.253 87.736 87.836 87.918 87.811 87.838 87.863 87.873 85.766 86.643 59.243 58.408 56.428 57.583 58.283 58.268 58.486 58.146 58.066 58.016 57.898 57.788 57.728 57.641 57.631 57.551 57.541 57.488 57.431 57.371 57.251 57.198 57.111 57.133 57.256 57.728 58.193 57.541 57.298 57.173 57.013 56.871 56.841 56.831 56.796 56.711 56.628 56.653 60.358 67.908 68.846 69.093 68.961 68.813 69.203 68.748 67.603 63.741 55.988 55.898 55.798 55.878 55.858 55.881 55.821 55.826 55.683 55.598 55.766 55.853 57.598 57.343 56.038 56.278 57.763 57.508 57.026 57.346 55.046 57.848 57.286 55.128 54.988 55.456 59.828 60.668 61.128 62.368 63.328 63.061 61.961 57.371 54.741 54.031 54.058 54.121 54.066 54.866 55.231 54.286 59.258 62.118 62.881 62.428 61.816 56.358 54.578 54.398 56.288 53.776 54.901 57.158 55.298 53.823 52.263 52.238 52.328 53.091 56.478 57.938 59.126 58.831 57.803 56.478 56.828 57.596 57.718 58.421 57.408 55.288 55.216 55.143 55.196 55.303 54.781 54.196 53.443 51.956 51.933 51.826 54.978 58.716 59.338 61.418 61.146 59.916 60.243 61.633 59.186 52.413 50.681 50.596 50.516 50.516 50.538 50.596 50.538 50.541 50.493 50.481 50.833 51.286 50.488 50.851 50.791 52.436 55.761 58.173 58.398 58.788 56.533 54.853 54.956 54.791 53.326 50.098 49.323 49.383 49.168 50.761 50.491 49.231 51.348 54.041 54.921 56.018 56.526 55.808 54.113 50.133 49.408 48.838 50.391 52.896 51.948 50.891 54.463 53.896 52.568 48.628 48.271 48.771 47.973 48.033 48.851 49.203 47.811 48.688 49.853 50.778 52.838 54.063 57.881 56.458 57.836 60.716 60.563 58.998 54.498 50.446 48.223 50.336 49.331 47.928 48.126 47.921 47.738 47.743 47.751 47.786 50.066 47.633 47.658 47.858 47.836 52.616 57.278 57.831 57.803 58.508 58.158 57.768 55.816 48.681 49.768 52.048 52.386 51.651 46.963 48.366 50.791 52.488 48.393 50.646 46.471 46.713 46.526 49.988 51.021 50.898 52.713 54.303 55.746 55.406 54.566 53.046 48.731 49.283 45.011 45.236 45.173 44.676 44.598 44.746 44.913 45.096 47.943 47.823 45.283 44.398 44.278 44.173 44.168 44.121 44.216 44.138 44.043 44.193 49.923 53.543 53.456 54.356 53.581 52.853 49.721 47.438 48.463 47.923 43.163 43.206 43.118 43.436 44.391 46.003 44.501 41.336 40.726 40.101 39.358
68.903 70.953 70.596 69.238 66.891 64.673 64.501 64.331 64.158 64.058 63.978 64.521 66.333 65.618 64.968 64.076 63.648 63.571 63.488 63.396 63.378 63.361 63.401 63.358 63.388 63.456 63.428 63.993 63.561 63.961 63.643 66.348 68.961 64.076 63.798 64.228 63.408 63.088 63.101 62.816 62.761 64.206 68.261 70.846 73.398 73.203 68.363 62.581 61.686 62.151 65.466 62.848 63.271 64.138 63.766 62.831 62.491 63.926 63.046 62.173 62.208 62.301 62.601 62.101 63.088 68.956 70.228 70.166 70.206 70.253 69.941 67.763 62.421 62.183 62.036 57.171 57.021 57.041 58.093 59.696 59.621 60.186 58.818 59.013 57.813 57.351 57.383 57.408 57.518 58.143 59.083 58.811 58.768 58.881 59.443 60.576 67.451 63.571 59.716 58.773 59.116 58.958 58.731 58.708 58.666 58.663 58.588 58.661 58.751 59.203 58.926 60.101 60.116 59.078 58.996 59.651 69.898 87.313 87.556 87.883 87.818 87.841 87.833 88.026 87.823 86.458 76.933 59.043 56.788 54.996 55.046 56.286 57.808 57.898 58.581 58.116 58.018 57.938 57.848 57.726 57.563 57.586 57.523 57.521 57.501 57.428 57.373 57.268 57.206 57.131 57.078 57.013 57.108 57.481 57.241 57.156 57.128 57.028 56.848 56.771 56.661 56.708 56.653 56.573 56.563 56.541 63.711 67.326 68.758 68.771 68.758 68.811 68.968 66.598 57.733 55.921 55.768 55.808 55.826 55.856 55.846 55.828 55.773 55.653 55.556 55.731 55.933 57.356 56.953 56.008 55.678 56.578 56.461 55.533 58.071 56.521 56.053 54.273 54.728 55.413 55.223 56.636 59.683 61.688 62.883 63.548 62.451 58.968 56.448 55.446 54.023 54.038 54.116 53.956 53.978 54.128 56.701 61.586 62.716 62.571 61.511 59.761 58.291 56.821 54.086 54.283 53.848 56.261 54.231 55.268 54.818 53.903 52.238 52.243 52.298 52.911 56.298 57.976 58.976 58.763 57.383 56.453 57.501 58.561 57.528 56.253 55.473 55.213 53.631 54.461 55.358 55.283 54.811 53.593 52.068 51.628 51.708 52.773 57.698 60.878 61.436 60.016 60.101 61.431 62.548 61.673 59.066 51.318 50.588 50.473 50.478 50.593 50.648 50.658 50.626 50.511 50.863 50.903 50.401 51.408 50.966 53.696 56.981 58.061 58.563 58.106 56.878 52.083 50.368 54.098 54.953 53.391 49.473 49.546 49.308 51.513 54.753 55.483 51.773 53.826 54.931 56.193 56.556 55.458 52.728 50.091 48.896 48.861 49.633 52.906 51.983 48.431 49.326 52.398 49.576 52.083 48.078 48.053 50.111 51.138 49.238 47.946 48.073 47.236 49.568 52.256 52.901 55.538 58.441 59.253 59.776 60.258 60.151 59.096 52.016 48.378 48.268 48.036 48.033 48.626 47.918 47.783 47.866 47.816 47.773 48.116 48.153 49.153 47.803 47.731 48.413 51.321 57.821 58.633 58.496 57.743 57.953 58.531 56.366 50.826 47.473 47.781 51.668 50.823 47.666 46.788 47.706 48.676 47.736 47.868 48.941 46.733 46.121 46.008 47.866 49.083 50.648 46.453 51.088 54.113 54.898 55.531 54.658 54.166 50.833 45.388 44.956 45.063 45.656 44.616 44.506 44.408 44.361 44.966 45.791 44.198 44.233 44.243 44.216 44.086 44.728 45.296 44.058 44.376 48.043 52.668 53.863 54.261 53.758 52.788 50.498 48.796 47.198 47.093 45.936 43.213 42.748 43.211 44.343 43.381 42.721 43.058 41.416 40.276 39.478 38.431
67.236 65.663 65.368 65.076 64.826 64.638 64.443 64.221 64.051 63.951 63.881 63.811 64.036 63.771 63.698 63.628 63.546 63.493 63.478 63.463 63.506 63.471 63.463 63.428 63.523 63.596 64.293 64.793 66.461 64.563 63.826 63.783 64.796 64.251 64.281 62.961 62.681 62.751 63.838 65.593 69.381 73.503 73.468 73.436 73.416 73.401 71.671 62.453 61.898 61.393 61.866 64.316 61.873 64.546 64.546 63.483 62.273 62.618 62.441 62.183 62.298 62.568 63.121 62.938 67.973 70.253 70.176 70.203 70.263 70.188 68.303 64.303 62.323 61.513 60.196 57.051 57.036 57.596 59.788 59.621 60.291 58.888 58.266 59.401 66.111 60.583 57.533 57.606 57.648 57.736 58.251 58.816 58.873 58.718 61.246 62.618 64.893 63.838 62.628 58.748 59.871 58.913 58.653 58.623 58.608 58.546 58.563 58.856 59.656 59.566 59.233 60.153 59.101 59.026 59.033 60.758 75.521 87.361 87.868 87.873 87.826 87.833 87.811 87.826 87.333 86.911 69.583 59.091 56.258 54.976 54.918 55.021 55.596 57.003 57.686 57.698 58.363 58.288 57.883 57.856 57.736 57.558 57.501 57.443 57.376 57.373 57.311 57.286 57.191 57.106 57.053 56.973 56.916 56.916 57.083 57.123 57.053 56.973 57.093 57.356 56.663 56.573 56.536 56.523 56.458 56.473 62.278 66.228 67.091 67.998 68.781 68.776 66.616 59.356 55.956 55.801 55.788 55.856 55.846 55.878 55.816 55.768 55.683 55.583 55.503 55.716 55.743 55.966 55.866 55.693 55.661 56.748 57.981 57.071 57.171 58.136 57.433 54.403 55.058 54.838 54.856 55.648 60.791 62.933 63.351 62.938 60.636 56.281 54.231 54.321 54.036 54.068 54.048 53.946 54.083 55.141 59.766 62.921 63.201 62.521 60.158 59.643 59.808 59.021 53.941 54.246 55.816 55.788 53.928 53.131 54.946 54.413 52.568 52.318 52.278 52.293 53.486 55.796 57.776 57.961 57.371 57.553 58.481 57.861 56.383 55.811 55.393 54.366 52.373 52.816 54.931 55.206 54.433 53.393 52.253 52.328 52.021 56.583 58.381 59.131 60.011 59.921 61.338 62.523 61.833 60.011 55.181 50.658 50.581 50.486 50.533 50.646 50.628 50.658 50.593 50.611 51.173 50.426 50.576 50.768 54.186 57.108 58.566 58.443 58.051 56.678 55.096 51.358 50.176 50.536 53.071 49.666 49.678 49.581 52.023 50.733 52.148 55.688 54.301 54.901 56.148 56.528 55.471 51.966 48.948 48.866 48.843 48.851 51.816 51.961 50.096 48.243 48.203 48.763 50.268 50.723 49.121 50.056 50.658 52.333 51.228 48.256 48.658 51.978 52.788 52.803 55.246 59.511 59.486 59.976 60.293 59.888 57.901 52.923 48.336 48.323 48.503 47.833 47.971 48.701 47.806 47.891 47.841 47.818 47.786 48.028 47.801 48.736 47.908 48.268 53.866 58.576 57.936 57.678 58.546 58.521 57.666 55.388 52.836 52.326 50.286 47.253 47.431 46.786 46.718 47.273 46.256 51.751 48.953 50.673 47.853 46.498 46.553 46.866 46.341 45.991 46.556 46.278 49.471 52.176 53.836 54.856 55.391 54.963 54.058 51.146 45.503 44.651 44.776 46.898 44.443 44.373 44.333 44.251 44.223 44.216 44.216 44.256 44.201 44.088 46.733 44.171 44.243 46.646 52.593 53.966 55.293 53.936 52.941 50.926 48.988 48.871 48.803 46.951 44.023 43.246 42.718 42.676 42.626 42.266 41.471 41.686 40.693 39.831 38.933 37.921
65.491 65.318 65.128 64.976 64.841 64.753 64.616 64.393 63.998 63.906 63.818 63.738 63.683 64.338 65.071 63.616 63.608 63.596 63.558 63.523 63.561 63.513 63.583 63.736 64.261 63.791 64.416 66.513 65.181 63.848 63.881 64.148 64.656 64.146 63.156 63.381 64.488 67.706 71.528 73.478 73.461 73.446 73.381 73.376 73.378 73.416 73.443 67.148 62.298 61.106 62.001 62.243 61.003 61.351 61.371 61.091 60.923 63.071 63.753 62.286 62.398 62.396 62.371 63.696 70.286 70.213 70.178 70.226 70.293 69.178 65.696 62.216 62.168 61.923 57.108 57.051 56.996 59.348 59.598 59.833 59.916 58.403 58.276 64.438 68.943 68.793 64.896 58.176 57.811 57.921 57.991 58.116 58.606 58.748 58.558 58.538 61.951 64.493 59.553 58.711 58.828 58.578 58.561 58.576 58.501 58.523 58.586 59.321 59.501 58.931 58.748 59.131 58.996 59.256 59.293 63.438 83.246 87.393 87.893 87.863 87.836 87.828 87.823 87.843 87.328 80.771 62.673 58.586 55.061 54.971 54.948 55.046 55.263 55.576 56.931 57.276 57.638 59.601 60.448 58.068 57.733 57.673 57.508 57.418 57.401 57.308 57.268 57.251 57.173 57.156 57.046 57.011 56.876 56.816 56.786 56.928 56.983 56.923 56.948 57.471 56.598 56.523 56.441 56.378 56.401 56.386 57.433 63.048 67.666 64.748 66.863 68.753 61.213 55.988 55.878 55.791 55.848 55.828 55.843 55.828 55.831 55.723 55.598 55.516 55.426 55.656 55.613 55.761 56.148 55.563 55.583 55.556 56.791 56.993 57.106 55.978 55.533 56.021 56.901 59.571 58.286 56.953 62.196 63.563 63.686 62.206 57.536 54.158 54.496 54.598 54.073 54.058 54.963 54.043 54.236 58.613 61.773 63.013 63.283 61.236 56.323 58.506 59.031 55.546 54.076 54.788 56.146 54.103 53.881 53.336 52.683 54.946 53.228 52.406 52.358 52.346 52.371 52.716 55.201 56.616 56.323 57.798 57.891 57.228 55.496 55.773 55.793 52.548 52.123 52.336 53.798 54.541 54.483 54.306 54.211 54.523 56.408 57.598 58.311 58.408 59.671 61.238 62.376 62.046 60.611 56.336 50.783 50.606 50.568 50.521 50.611 50.693 50.673 50.603 50.961 51.743 51.178 50.978 51.448 52.336 57.328 58.326 58.678 58.486 56.536 55.051 54.718 54.648 51.041 50.156 49.443 49.501 49.808 50.751 54.136 53.758 52.631 54.376 55.023 56.176 56.386 55.013 52.026 49.263 48.856 48.838 49.468 50.018 49.688 48.926 48.446 48.143 48.071 48.126 48.916 50.858 48.671 49.476 49.763 49.391 49.623 49.946 50.271 52.881 53.496 56.073 58.926 59.486 60.463 60.546 59.728 57.806 53.028 49.426 49.101 48.341 48.658 48.161 47.723 47.811 47.838 47.851 47.836 48.621 47.813 47.906 48.276 47.868 48.091 56.448 57.493 58.058 58.491 57.818 57.783 58.118 50.956 51.173 52.396 53.191 52.168 48.248 47.158 46.648 46.686 47.238 47.033 47.681 48.261 48.538 46.293 45.791 45.878 46.718 46.423 45.636 46.576 47.478 50.473 50.793 51.861 53.746 54.736 56.526 55.276 54.118 49.486 45.168 47.456 45.093 46.428 44.318 44.328 44.346 44.316 44.246 44.258 44.278 44.798 44.076 44.223 44.393 45.446 51.898 53.383 54.286 53.971 53.206 49.818 47.386 48.778 49.471 48.746 44.538 42.968 43.118 42.718 42.861 42.758 42.608 41.191 41.218 40.523 39.496 37.943 37.708
65.551 65.548 65.358 65.133 64.386 64.273 64.228 64.096 63.968 63.858 63.771 63.736 65.463 63.723 64.366 63.751 63.713 63.618 63.633 63.628 63.698 64.046 65.036 65.053 64.838 63.851 64.826 65.738 64.046 63.403 62.666 63.571 63.568 63.283 66.186 70.611 73.471 73.446 73.451 73.411 73.393 73.401 73.443 72.966 73.213 72.081 71.276 67.801 63.436 61.583 60.821 60.806 62.093 60.836 60.863 62.748 60.918 61.831 63.231 62.406 62.656 63.026 64.133 69.281 70.213 70.208 70.196 70.246 69.421 67.338 65.236 63.266 62.216 60.003 59.191 57.823 57.996 59.618 59.603 59.986 59.778 60.516 63.158 68.473 68.911 68.958 68.963 66.453 60.016 58.081 58.153 58.198 58.303 58.416 58.523 58.513 63.071 61.238 59.386 58.438 58.446 58.506 58.446 58.468 58.423 58.493 58.683 59.171 59.453 58.898 58.686 58.668 58.696 58.883 59.241 66.226 83.813 87.653 88.018 87.843 87.836 87.853 87.841 87.843 87.466 78.121 59.048 58.581 55.008 54.956 55.006 55.253 55.353 55.866 55.683 56.173 56.946 60.246 62.028 61.298 59.118 59.311 58.606 57.481 57.338 57.253 57.236 57.193 57.123 57.066 57.016 56.966 56.913 56.833 56.708 56.628 56.633 56.981 56.903 56.701 56.496 56.468 56.408 56.331 56.238 56.253 56.238 58.871 59.951 62.378 62.076 64.891 58.046 55.933 55.826 55.803 55.838 55.873 55.836 55.788 55.721 55.666 55.583 55.493 55.428 55.551 55.578 56.041 56.173 55.616 55.538 55.878 55.548 57.106 55.771 55.103 54.668 55.178 58.596 61.058 60.611 61.451 62.881 63.858 62.813 61.338 57.531 54.391 54.011 54.056 54.031 54.276 54.568 54.206 56.371 61.528 62.531 62.943 62.736 58.728 54.053 54.648 55.746 54.136 55.193 56.358 53.686 52.576 52.721 52.373 54.111 55.491 54.818 53.598 52.388 52.373 52.388 52.281 53.286 53.661 53.516 55.966 56.478 55.546 55.408 55.063 52.573 52.158 52.358 53.866 54.671 54.351 54.271 54.298 55.403 57.278 56.673 56.931 58.296 59.526 61.016 62.446 62.156 60.953 58.428 50.708 50.611 50.531 50.543 50.608 50.676 50.633 50.621 50.528 50.956 50.566 52.086 52.621 53.723 57.763 58.558 58.776 58.141 56.263 52.658 53.901 54.723 54.663 51.646 49.523 49.813 49.621 49.818 52.371 54.588 55.673 55.658 55.121 56.358 56.391 56.103 53.213 49.151 48.853 48.816 49.228 52.188 51.926 49.436 49.311 48.158 48.063 48.066 48.043 48.123 50.336 48.891 49.001 49.071 49.673 49.763 51.936 52.148 52.846 53.271 57.563 59.613 60.168 60.183 59.686 56.073 48.308 48.641 48.648 47.986 47.861 48.598 48.106 47.828 47.858 47.858 47.946 47.903 47.863 47.913 47.848 47.816 50.066 56.093 59.173 58.141 57.618 58.218 58.463 55.638 50.838 48.063 49.308 51.881 52.483 48.703 46.608 46.496 46.918 46.751 47.058 47.208 47.901 49.211 47.681 46.951 46.033 45.611 45.566 46.223 46.676 45.643 46.283 49.923 50.586 50.523 50.958 53.578 54.493 55.311 54.938 53.818 52.973 45.703 45.973 44.366 44.306 44.326 44.333 44.316 44.291 44.226 44.203 44.496 44.356 45.006 46.046 53.718 53.408 54.361 54.186 53.431 51.801 44.658 43.533 47.403 48.223 44.313 42.988 42.991 42.863 42.943 43.086 44.191 42.313 41.203 40.443 39.893 38.628 37.726 37.718
64.696 64.513 64.416 64.316 64.641 64.133 64.056 64.011 63.908 63.886 63.886 63.826 66.913 67.788 67.916 68.211 65.196 63.761 64.026 64.646 63.876 64.011 65.996 67.643 65.718 63.761 63.461 62.766 62.698 62.623 62.996 64.493 69.483 73.153 73.478 73.441 73.406 73.423 73.388 73.378 73.408 73.283 72.666 72.108 71.383 70.123 68.711 68.141 63.431 62.058 60.596 60.613 60.646 60.703 61.028 64.458 63.443 63.486 62.496 63.606 62.633 62.988 67.783 70.233 70.183 70.203 70.233 70.303 67.861 63.491 62.598 63.501 61.073 59.593 59.578 59.536 59.623 59.566 60.346 58.771 58.766 60.666 69.051 69.013 68.953 68.911 68.896 67.706 63.476 58.731 58.816 58.413 58.401 58.401 58.361 58.441 58.413 58.373 58.336 58.433 58.413 58.448 58.431 58.348 58.383 58.516 59.163 59.441 59.423 58.643 58.668 58.673 58.678 59.746 59.796 75.061 87.048 87.546 87.916 87.836 87.828 87.846 87.958 87.838 87.316 65.008 59.881 56.956 54.948 54.953 55.008 55.041 55.053 55.276 55.536 55.908 56.116 61.753 62.143 62.146 61.626 60.616 58.821 59.373 57.376 57.196 57.143 57.113 57.061 57.006 56.976 56.948 56.873 56.778 56.713 56.616 56.513 56.473 56.773 56.691 56.566 56.426 56.358 56.336 56.261 56.128 56.088 56.103 56.113 56.073 56.051 56.013 55.933 55.803 55.843 55.868 55.858 55.846 55.801 55.893 55.698 55.628 55.521 55.421 55.358 55.368 55.493 55.921 56.286 55.578 55.496 55.638 55.268 55.071 54.533 54.783 54.996 54.488 58.868 60.266 60.916 62.161 63.291 63.261 62.171 57.866 55.686 54.258 54.031 54.038 54.023 54.008 54.066 55.363 59.863 62.003 62.918 62.608 62.433 58.846 56.506 54.613 54.436 54.323 55.338 52.906 53.061 52.358 52.683 52.868 54.348 53.361 52.623 53.271 53.693 52.438 52.321 52.273 52.191 52.198 52.271 53.346 53.956 55.393 54.781 52.741 52.076 52.173 53.176 54.536 54.298 54.276 54.258 54.336 59.663 60.398 59.961 58.226 58.233 60.446 62.188 62.301 60.846 58.968 50.718 50.638 50.563 50.571 50.581 50.698 50.698 50.618 50.566 50.531 50.503 52.056 51.476 53.778 57.661 58.578 58.748 58.463 57.091 54.581 49.866 50.701 53.491 52.253 50.033 49.418 49.566 50.128 51.413 54.648 55.713 56.906 57.161 56.761 56.316 54.443 52.258 49.131 48.881 48.823 49.896 52.456 53.146 49.823 49.151 49.551 48.771 48.073 48.041 48.036 48.023 48.253 49.268 48.158 47.991 48.693 51.548 52.463 52.728 53.336 54.923 58.573 60.208 60.146 59.421 54.618 47.923 48.023 48.311 47.951 48.001 49.198 48.118 47.846 47.886 47.896 48.183 48.608 47.783 48.433 48.376 47.123 50.491 55.821 57.698 57.946 58.841 58.128 57.683 55.613 53.656 51.503 48.148 47.581 49.776 47.313 46.823 46.738 46.338 46.353 47.011 46.721 47.033 47.898 48.478 46.483 45.898 46.978 46.068 45.508 45.458 46.076 46.073 46.361 48.293 49.691 48.361 46.653 50.246 53.591 54.458 55.003 54.778 51.476 44.906 46.106 44.321 44.248 44.303 44.308 44.316 44.256 44.728 44.346 44.148 44.893 47.491 53.031 53.358 54.258 54.063 53.151 51.673 49.376 47.006 44.188 43.243 43.578 42.881 42.821 43.308 42.858 42.413 41.758 42.878 41.103 40.678 39.918 38.961 37.803 37.721 37.731
64.588 64.731 64.298 64.676 64.378 64.101 64.083 63.991 63.951 63.936 67.053 65.368 69.713 67.566 69.193 66.746 65.508 64.341 63.926 64.138 63.953 63.938 65.053 65.133 64.556 62.706 62.703 62.673 63.358 67.038 70.083 72.543 73.431 73.441 73.403 73.381 73.391 73.426 73.428 73.433 72.186 71.063 70.738 70.143 69.133 68.263 67.228 66.053 64.678 62.278 60.498 60.463 60.501 60.548 62.438 63.106 63.466 62.578 62.506 63.178 62.363 65.023 70.281 70.186 70.173 70.228 70.268 68.773 66.718 62.363 62.261 61.251 59.676 59.573 59.951 59.806 59.568 59.816 59.216 58.301 58.988 66.768 68.998 69.058 69.026 68.986 68.958 65.583 59.961 58.878 59.493 58.723 60.551 58.433 58.346 58.318 58.308 58.293 58.311 58.356 58.376 58.383 58.293 58.321 58.371 58.808 58.631 58.568 58.586 58.741 58.901 58.653 58.678 59.633 60.216 77.483 87.403 87.778 87.816 87.803 87.843 87.846 87.933 87.731 87.278 61.298 59.018 56.156 54.926 54.971 54.986 54.996 55.003 55.056 55.703 55.561 56.796 62.138 62.123 62.116 62.143 62.213 60.143 59.091 57.411 57.308 57.191 57.086 56.983 56.976 56.936 56.873 56.856 56.768 56.698 56.536 56.531 56.433 56.328 56.368 56.476 56.418 56.311 56.283 56.196 56.106 56.058 55.998 55.976 55.941 55.931 55.843 55.788 55.821 55.828 55.843 55.846 55.768 56.098 56.321 55.761 55.523 55.508 55.403 55.301 55.296 55.393 55.831 56.171 55.438 55.478 55.571 56.156 55.328 54.393 54.186 54.308 54.626 54.821 57.608 62.046 62.823 63.541 62.666 59.178 54.601 54.033 53.963 54.013 53.996 54.473 54.308 54.178 57.136 61.708 62.701 62.621 61.528 60.138 60.303 59.156 54.536 53.778 55.273 56.961 53.756 52.591 52.336 52.721 52.783 54.876 56.001 52.958 55.176 54.011 53.268 53.726 52.231 52.166 52.171 52.183 52.203 52.241 53.921 52.398 52.058 52.013 52.763 54.571 54.308 54.291 54.283 54.233 57.586 60.328 61.013 61.758 60.351 58.476 58.338 60.843 61.006 57.556 51.846 50.633 50.558 50.538 50.683 50.696 50.761 50.708 50.631 50.551 50.528 50.776 51.728 55.206 58.243 58.881 58.868 58.273 57.013 55.328 55.093 53.268 50.948 50.131 49.558 50.788 49.908 49.733 52.488 54.771 55.816 57.003 57.128 55.988 52.846 53.161 50.058 48.926 48.873 48.841 48.931 53.241 53.731 50.588 48.983 48.846 49.391 50.238 48.503 48.163 48.088 48.068 48.043 48.041 48.476 47.903 48.063 51.998 53.858 55.508 58.283 58.603 60.361 60.021 59.316 53.996 47.951 48.128 48.613 48.038 47.998 48.138 48.241 47.878 47.953 47.988 48.678 48.168 47.813 49.078 48.656 47.546 53.756 56.938 58.428 58.236 57.686 58.268 58.576 53.116 52.596 52.573 52.521 50.953 47.166 46.953 46.441 46.398 46.651 46.458 46.326 46.501 47.046 47.656 46.166 46.451 46.996 46.073 45.803 46.063 45.731 45.391 46.806 49.443 46.591 46.931 46.908 46.058 45.471 50.161 51.746 53.891 54.903 53.583 49.816 44.676 44.508 44.228 44.271 44.311 44.323 44.258 44.271 44.516 44.236 44.316 45.066 51.666 53.908 54.611 54.513 53.133 52.286 49.253 49.058 48.868 46.761 43.443 42.941 42.761 43.216 42.848 42.591 42.601 41.208 41.666 40.971 40.321 39.486 37.883 37.728 37.763 37.708
64.958 64.721 64.273 64.238 64.216 64.131 64.163 64.073 64.231 67.618 70.131 69.236 72.373 69.496 66.998 66.133 65.616 65.046 64.018 64.098 63.938 64.846 63.893 63.953 63.511 62.831 65.211 68.973 73.363 72.853 73.458 73.496 73.398 73.366 73.381 73.436 72.666 72.973 72.081 70.731 69.938 69.226 68.193 66.873 65.368 65.261 64.116 63.281 62.848 63.028 61.373 60.338 60.368 60.456 63.861 62.478 62.826 62.588 62.781 62.453 63.791 69.331 70.238 70.201 70.248 70.273 69.481 67.496 63.183 62.366 62.438 59.906 59.611 59.573 60.016 59.656 59.826 59.833 58.781 58.263 62.821 68.926 68.943 68.961 69.026 69.036 66.481 62.688 59.508 64.673 64.933 61.083 60.376 60.371 58.658 58.261 58.203 58.238 58.286 58.331 58.323 58.308 58.238 58.326 58.611 59.318 58.461 58.488 58.563 58.886 60.388 59.608 58.806 59.158 63.851 83.731 87.488 87.901 87.793 87.813 87.836 87.831 87.966 87.626 83.436 61.673 58.941 55.001 55.026 55.008 55.161 55.468 55.008 55.148 55.936 55.411 57.893 62.156 62.346 62.126 62.136 62.143 62.153 61.046 59.796 57.463 57.243 57.106 56.951 56.886 56.893 56.836 56.773 56.713 56.636 56.576 56.516 56.448 56.378 56.268 56.206 56.546 56.393 56.293 56.218 56.123 56.063 55.973 55.933 55.891 55.846 55.786 55.788 55.776 55.816 55.851 55.826 56.471 57.496 57.476 56.298 55.728 55.421 55.383 55.283 55.191 55.293 55.333 55.373 55.408 55.678 55.991 55.083 54.848 55.756 55.066 55.608 57.901 55.771 57.711 62.783 63.518 62.951 61.201 55.301 54.078 54.953 54.271 54.016 53.933 54.308 54.071 55.061 61.156 62.668 63.671 62.213 59.728 58.751 59.393 58.603 54.648 54.271 56.703 55.068 52.843 52.356 52.341 52.353 52.401 53.691 54.121 53.933 55.903 56.076 54.246 55.093 53.298 52.201 52.161 52.176 52.198 52.226 52.181 52.096 51.996 51.943 52.511 54.276 54.361 53.321 53.261 56.658 60.338 60.301 60.328 60.886 59.446 60.058 58.708 58.408 58.453 52.593 50.653 50.581 50.533 50.633 50.713 50.743 50.681 50.623 50.571 50.563 50.548 50.533 51.381 56.601 58.831 59.046 59.201 57.003 52.911 55.311 55.251 55.063 50.373 50.358 50.346 49.866 50.443 53.138 54.813 55.826 57.083 57.041 56.063 53.761 49.346 49.238 49.068 48.941 48.891 48.988 51.188 53.213 49.836 49.481 48.823 48.483 48.403 48.786 49.898 49.613 48.111 48.068 48.066 48.021 48.088 48.568 51.291 54.733 59.076 59.308 58.826 60.223 60.796 56.453 51.591 49.658 48.046 48.398 47.983 48.103 48.728 47.836 47.908 47.953 47.991 48.266 49.153 48.441 48.311 48.598 49.936 54.381 58.671 57.796 57.786 58.553 58.178 57.601 52.996 47.331 50.661 52.361 52.868 50.803 46.616 46.426 46.461 46.366 46.383 46.551 46.626 46.921 47.886 48.256 46.313 45.728 46.381 46.693 46.401 45.311 45.698 45.541 48.256 50.238 49.723 45.856 46.558 45.623 48.098 50.333 52.616 54.766 54.071 47.608 44.701 44.576 44.601 44.298 44.293 44.318 44.316 44.538 44.598 44.313 44.563 45.686 51.546 53.328 54.201 54.408 53.391 51.143 45.418 48.541 49.016 48.886 45.626 43.123 43.066 42.921 43.453 45.271 42.393 41.256 40.733 40.316 39.871 39.711 38.418 37.688 37.743 37.726 37.748
66.621 64.391 64.351 64.288 64.218 64.193 64.183 64.163 66.691 68.696 71.548 70.908 69.581 66.946 69.666 68.776 66.556 64.091 63.748 64.133 63.418 63.343 62.858 63.166 67.033 69.203 73.521 73.453 73.441 73.453 73.353 73.388 73.416 73.473 73.276 72.156 71.371 70.956 69.616 68.468 68.206 67.373 65.683 64.133 63.603 63.046 62.956 62.781 62.821 63.048 61.958 60.251 60.233 60.253 64.851 63.263 62.563 62.763 62.991 62.426 66.723 70.241 70.203 70.186 70.241 69.971 68.216 65.388 62.903 62.561 60.606 59.658 59.601 59.586 59.591 59.588 60.081 58.933 58.226 61.376 67.713 68.966 68.936 68.903 68.963 68.248 64.268 59.048 59.136 68.036 67.236 59.891 59.056 60.713 60.801 58.518 58.113 58.206 58.266 58.313 58.271 58.208 58.253 58.698 59.156 58.598 59.073 58.773 58.551 58.826 59.286 59.113 58.896 59.248 68.786 85.838 87.943 87.893 87.878 87.818 87.826 87.813 87.803 87.528 74.298 59.073 57.591 55.051 55.056 55.023 55.036 55.241 55.458 55.251 55.841 54.988 62.426 82.468 76.033 67.103 68.723 62.901 62.598 62.466 62.326 60.228 57.546 57.128 56.991 56.848 56.761 56.748 56.741 56.653 56.586 56.581 56.516 56.361 56.346 56.256 56.188 56.111 56.126 56.413 56.368 56.183 56.138 55.993 55.966 55.861 55.793 55.763 55.786 55.796 55.818 55.843 56.508 57.748 57.406 57.458 57.293 57.573 57.103 55.303 55.201 55.153 55.131 55.228 55.271 55.296 56.131 57.116 55.961 54.511 54.403 59.161 59.001 60.408 59.563 61.571 63.203 64.068 62.241 58.346 54.283 54.151 54.501 54.001 53.956 54.563 53.986 54.153 58.418 62.108 62.816 62.613 60.718 56.206 54.833 57.648 55.493 54.106 55.668 53.571 52.598 52.886 52.831 53.363 52.328 52.316 53.871 54.803 55.761 56.158 56.161 56.236 55.276 53.068 52.521 52.228 52.223 52.228 52.268 52.181 52.083 52.006 51.918 51.833 52.686 53.676 51.541 53.741 57.468 60.303 60.293 60.313 60.336 59.738 60.411 60.323 58.973 51.603 50.693 50.731 50.601 50.658 50.768 50.766 50.723 50.668 50.643 50.626 53.221 50.883 50.446 50.406 52.493 57.313 58.961 58.253 52.533 51.768 52.968 54.691 51.578 49.831 49.706 50.653 51.673 53.101 54.876 55.961 57.081 57.006 56.166 54.228 51.286 49.568 49.263 48.963 48.878 49.668 52.078 53.381 51.598 49.456 49.683 49.351 49.241 48.366 48.386 50.428 51.626 49.128 48.128 48.086 48.068 48.018 47.411 56.931 59.583 60.946 60.908 60.353 59.716 55.531 49.726 48.363 48.426 48.088 48.011 48.078 48.021 47.998 47.938 47.921 48.111 48.538 47.848 48.803 49.881 48.188 49.356 56.671 57.623 58.398 58.393 57.691 57.911 57.438 54.123 51.218 46.996 47.618 51.516 50.241 48.316 46.348 46.403 46.596 46.473 46.428 46.411 47.436 47.203 47.278 47.186 46.748 46.516 45.663 45.916 45.983 45.091 46.361 46.138 45.546 48.403 50.228 50.451 47.386 45.656 47.336 49.926 50.813 53.053 51.333 45.856 44.391 44.883 45.108 44.346 44.331 44.293 44.553 45.011 44.273 44.668 47.101 52.096 53.318 54.191 54.496 53.468 52.518 46.676 44.363 44.271 48.581 46.368 43.253 43.068 42.911 42.816 45.233 45.988 42.621 41.286 40.333 39.783 39.263 38.493 37.726 37.718 37.751 37.731 38.066
66.383 66.198 64.393 64.273 64.233 64.476 65.301 64.816 69.001 68.573 68.473 70.573 69.366 69.568 68.108 65.478 63.518 63.331 63.273 63.878 63.306 65.628 68.643 73.331 73.466 73.436 73.418 73.441 73.408 73.338 73.711 73.466 72.733 71.676 70.611 69.493 69.166 68.796 67.338 66.041 64.611 64.341 63.066 62.813 63.016 62.841 62.968 62.948 63.388 63.133 63.668 60.406 60.148 60.558 61.481 63.256 63.868 62.788 63.248 66.168 70.271 70.196 70.166 70.221 70.286 68.293 66.303 63.833 64.391 62.391 59.743 59.606 59.986 60.243 59.643 59.943 59.343 58.281 58.798 67.778 68.988 69.003 69.083 68.941 68.861 65.418 61.388 58.286 58.526 63.568 61.173 58.196 61.071 60.431 58.276 57.986 58.086 58.183 58.213 58.233 58.161 58.158 58.236 58.936 59.093 62.376 60.293 59.063 59.748 60.141 59.606 59.713 59.741 61.506 76.878 84.823 87.946 87.868 87.811 87.876 87.828 87.898 87.821 87.256 72.783 59.051 56.651 55.073 55.101 55.101 55.083 55.188 55.681 55.303 55.346 55.203 85.691 105.661 90.503 87.276 88.716 81.728 68.956 64.881 63.346 63.241 61.213 58.846 57.821 56.936 56.828 56.676 56.601 56.583 56.543 56.501 56.428 56.398 56.318 56.276 56.186 56.091 56.076 56.026 56.093 56.101 56.001 55.933 55.933 55.803 55.783 55.778 55.813 55.813 55.786 55.766 57.776 60.563 57.253 56.813 57.831 56.413 57.148 55.246 55.136 55.121 55.021 55.101 55.166 55.506 56.361 56.701 59.203 55.153 55.203 59.961 60.583 60.801 61.413 62.961 63.426 62.718 60.073 54.746 54.138 54.421 53.908 53.971 54.013 54.986 54.023 55.936 61.188 62.633 62.903 61.916 59.666 56.198 54.646 54.223 53.971 55.851 54.848 54.511 54.403 54.358 55.018 55.303 54.931 53.531 52.466 54.201 56.168 56.168 56.171 56.163 56.146 56.073 53.976 52.658 52.296 52.253 52.191 52.108 52.056 51.978 51.846 51.721 51.616 51.943 52.508 51.656 53.568 58.746 58.563 60.351 60.328 60.336 60.361 60.268 57.086 51.056 50.623 50.658 50.763 50.776 50.803 50.796 50.696 50.641 51.401 57.123 58.518 53.493 50.791 50.383 50.313 52.208 56.633 55.553 52.961 50.293 52.186 51.168 49.911 51.048 50.571 50.766 53.091 54.798 56.046 57.361 56.926 55.553 53.563 50.738 49.351 50.051 48.963 48.941 49.018 50.471 53.658 51.343 50.746 50.248 49.403 48.561 49.346 48.933 48.168 48.318 49.461 48.756 48.286 48.223 47.941 48.401 58.733 61.188 61.506 60.868 60.213 59.546 56.861 50.933 49.391 48.421 48.068 47.961 48.623 48.443 48.041 48.071 48.033 48.148 48.066 48.553 49.021 48.571 47.936 51.601 54.921 58.596 57.958 57.713 58.783 58.561 54.673 53.501 52.593 52.231 49.856 47.101 47.173 47.938 46.668 46.583 46.453 46.586 46.591 46.451 46.623 46.661 46.758 46.616 46.556 46.361 47.163 46.283 45.583 45.741 47.216 49.086 49.523 47.368 46.746 49.746 52.923 52.426 48.126 47.681 47.903 49.603 48.863 44.681 44.433 44.298 44.458 44.328 44.376 44.366 44.806 44.716 44.236 44.653 45.991 50.736 53.418 54.271 54.486 53.543 52.558 49.683 48.968 45.761 43.816 43.341 43.176 43.148 43.463 42.603 44.823 45.728 45.273 43.996 40.586 39.978 39.558 38.843 37.916 37.718 37.746 37.743 37.826 38.726
68.121 67.708 64.886 64.373 64.343 64.356 64.358 64.913 65.818 68.391 67.546 68.178 69.023 67.248 66.776 62.738 62.633 63.161 63.538 68.761 72.121 73.486 73.436 73.416 73.433 73.383 73.401 73.406 73.438 72.676 72.518 71.383 70.561 69.211 68.151 67.623 67.348 65.373 64.628 63.763 62.876 63.033 63.021 62.848 63.211 63.706 63.158 63.698 63.028 62.823 63.176 61.811 60.133 60.196 61.101 63.073 63.388 62.543 64.216 70.328 70.228 70.178 70.201 70.241 69.658 67.781 62.393 62.226 62.768 60.466 59.736 59.626 59.923 59.976 59.773 59.778 59.976 59.271 63.631 68.916 68.951 69.018 68.991 68.978 66.008 61.296 58.213 58.176 58.393 59.868 59.231 58.328 61.201 58.388 58.418 58.011 58.096 58.166 58.161 58.118 58.116 58.146 58.418 59.313 59.111 61.476 63.053 61.191 60.096 60.808 60.278 59.326 60.793 62.593 82.033 86.921 87.716 87.981 87.808 87.928 87.823 87.936 87.811 83.988 61.898 59.118 55.521 55.038 55.111 55.113 55.108 55.118 55.086 55.386 84.571 74.336 86.168 101.263 91.641 103.398 98.041 86.853 91.601 86.546 82.506 68.568 65.151 65.153 62.256 58.221 58.126 58.993 56.673 56.461 56.441 56.418 56.326 56.353 56.291 56.238 56.131 56.128 56.071 55.988 55.953 55.906 55.858 55.811 55.776 55.788 55.788 55.788 55.776 55.763 55.763 56.048 56.308 57.616 57.533 59.381 59.878 57.721 55.481 56.393 55.096 55.046 54.976 54.961 55.058 55.061 56.426 57.903 58.501 55.631 54.736 54.763 57.978 60.763 62.121 63.423 63.258 61.993 57.331 54.443 54.483 54.638 53.996 54.073 54.508 53.928 54.346 59.538 61.956 62.948 62.183 60.743 59.763 59.266 57.166 54.216 55.101 56.701 57.306 55.668 55.313 52.581 54.623 55.836 55.216 54.228 52.716 55.573 56.158 56.186 56.181 56.198 56.191 56.148 55.936 54.556 52.933 52.253 52.171 52.093 52.008 51.933 51.806 51.688 51.573 51.468 51.728 53.888 52.826 53.198 58.181 60.336 60.316 60.331 60.346 58.156 53.278 50.636 50.603 50.783 50.981 50.858 50.838 50.688 50.623 50.768 55.861 61.061 60.303 58.388 54.211 50.716 50.268 50.271 51.876 54.458 55.433 53.376 50.326 50.423 49.958 50.693 52.303 53.193 54.921 56.098 57.168 56.921 55.733 51.526 49.948 49.748 49.071 49.018 49.088 50.128 51.603 53.928 52.316 50.661 49.431 50.656 50.358 48.488 48.561 49.546 48.756 48.128 48.091 48.106 48.613 48.053 48.488 56.928 61.083 61.091 61.186 60.513 59.351 53.596 50.256 48.491 48.623 48.246 48.326 48.828 47.951 47.911 47.988 48.026 48.433 48.668 48.636 48.098 47.976 48.206 50.251 57.838 57.681 58.151 58.533 57.866 57.793 54.873 48.593 51.628 52.681 52.358 50.448 47.131 47.198 46.476 46.536 46.468 46.433 46.406 46.633 47.861 46.566 46.306 45.971 46.236 46.593 46.661 46.113 46.228 45.676 46.231 50.128 50.593 50.318 49.968 49.308 53.218 53.796 54.486 54.203 50.193 47.941 47.328 45.183 44.403 44.321 44.263 44.333 44.308 44.331 44.521 45.051 44.368 44.441 44.478 52.311 54.128 54.923 54.971 53.603 52.786 50.198 49.228 49.186 48.161 44.328 43.416 43.223 43.063 42.921 43.893 44.221 42.746 42.538 42.171 40.138 39.568 39.241 37.966 37.703 37.741 37.713 37.768 38.233 39.131
69.971 67.456 64.563 64.508 64.421 64.438 64.433 65.776 64.623 64.313 65.098 67.911 65.126 66.323 66.468 62.761 67.051 71.281 73.518 73.468 73.476 73.426 73.421 73.378 73.411 73.388 73.426 72.666 71.346 71.261 69.778 68.868 67.471 66.806 66.676 64.993 63.573 63.503 62.933 63.121 62.793 62.801 63.498 63.966 64.436 64.036 62.766 62.761 62.783 62.791 62.826 62.558 60.341 61.603 62.558 62.746 62.806 62.503 68.746 70.248 70.186 70.181 70.256 69.851 67.496 64.071 62.713 62.746 60.748 59.613 59.846 60.278 60.216 59.738 60.393 58.903 60.188 63.573 69.041 68.966 68.913 68.921 68.961 68.088 63.753 59.088 58.316 58.473 58.328 59.733 60.971 62.196 60.056 58.313 59.118 58.021 58.051 58.116 58.078 58.013 58.033 58.141 58.133 58.246 58.096 59.086 61.258 63.038 61.441 59.088 59.823 58.923 61.363 68.343 86.483 86.161 87.871 87.843 87.831 87.838 87.786 87.941 87.078 82.993 59.766 58.511 54.981 55.021 55.063 55.111 55.091 55.103 55.096 59.516 115.591 115.171 108.026 90.778 82.416 87.466 100.033 108.321 99.701 95.328 90.966 102.326 92.816 97.838 73.478 71.611 64.341 59.471 56.878 56.788 56.421 56.288 56.338 56.251 56.238 56.241 56.196 56.063 56.078 56.033 55.908 55.886 55.853 55.793 55.756 55.761 55.948 56.581 55.773 55.733 55.893 56.253 56.351 56.128 58.688 59.958 58.438 59.471 56.916 55.118 55.063 55.031 54.926 54.821 54.986 54.983 55.288 58.101 58.908 56.441 55.116 54.278 55.143 61.998 63.176 63.458 62.621 58.876 54.651 54.066 54.273 54.058 53.931 54.436 54.383 54.103 56.373 61.493 62.991 63.201 61.836 59.533 59.521 59.606 56.621 55.343 55.671 55.276 53.788 56.083 55.716 54.923 55.538 53.188 53.141 52.818 55.408 56.201 56.166 56.188 56.201 56.166 56.191 56.198 56.168 56.218 55.166 53.803 52.541 52.176 51.978 51.843 51.756 51.671 51.536 51.428 51.321 51.718 52.303 52.471 52.693 56.706 60.296 60.313 60.371 54.076 50.608 50.571 50.668 51.218 51.078 50.851 50.868 50.721 50.746 54.358 59.433 60.686 61.073 60.391 58.673 53.676 50.543 50.143 50.133 51.401 53.911 52.741 50.548 51.156 53.341 52.386 53.591 55.036 56.231 57.183 56.816 55.568 50.878 49.838 49.233 49.391 49.058 49.011 49.061 51.533 53.501 50.376 50.076 49.376 49.611 50.533 49.493 48.481 48.423 48.973 49.926 48.436 47.751 47.971 48.733 49.268 50.193 57.458 61.048 60.971 60.443 59.651 56.326 48.313 48.101 48.273 48.153 48.488 48.506 48.056 47.916 47.931 48.116 48.251 47.923 48.076 48.388 47.968 49.261 55.326 57.943 58.511 58.176 57.691 58.326 58.583 55.216 51.256 47.498 48.981 52.506 51.893 47.506 47.436 46.938 47.056 46.506 46.301 46.496 46.968 53.086 54.088 47.061 45.898 45.701 45.756 45.938 46.158 45.893 45.766 45.931 45.816 48.946 50.328 50.606 51.848 54.008 54.268 55.561 54.471 53.693 50.786 46.671 44.698 44.476 44.436 44.331 44.338 44.396 44.328 44.296 44.271 44.386 44.546 45.283 48.411 53.146 54.176 54.663 54.598 52.788 47.481 48.928 49.186 49.516 48.276 43.408 43.151 43.813 43.123 42.846 43.386 42.953 42.896 41.426 40.476 40.103 39.436 38.416 37.741 37.731 37.696 37.751 38.291 39.063 40.133
69.178 66.416 66.106 64.583 64.851 64.781 64.833 64.988 64.988 64.218 65.011 65.296 64.373 65.521 67.978 72.926 73.488 73.463 73.423 73.423 73.386 73.428 73.221 73.183 73.243 71.873 71.226 70.053 68.851 68.178 67.243 64.893 65.371 64.098 64.038 63.048 63.003 63.481 63.326 63.401 66.138 65.313 64.656 64.996 64.761 64.126 63.388 62.838 62.811 62.806 62.823 62.871 62.396 62.518 61.756 61.431 62.326 62.806 67.208 69.833 70.183 70.223 70.288 68.556 66.011 62.523 62.193 61.676 59.731 59.626 59.636 59.671 59.676 60.173 59.388 58.281 59.081 67.786 69.026 69.061 69.001 68.956 68.908 64.593 60.091 61.413 61.558 59.731 58.141 59.841 62.801 61.423 61.333 58.678 58.331 57.983 58.036 58.031 58.008 58.006 58.091 58.103 58.121 57.986 57.851 57.971 58.178 60.551 61.758 58.526 58.786 59.176 63.081 76.903 87.526 87.786 87.548 87.733 87.836 87.831 87.896 87.816 87.211 75.676 59.028 58.053 55.001 54.978 54.991 55.023 55.038 55.036 55.043 74.201 115.636 112.283 109.256 96.478 111.333 86.591 99.291 91.213 104.861 110.611 110.301 100.968 109.728 110.683 92.636 102.281 87.153 67.786 60.566 58.771 56.456 56.308 56.226 56.146 56.161 56.146 56.136 56.066 56.051 56.001 55.936 55.833 55.831 55.838 55.748 55.753 56.123 55.768 55.721 55.783 56.926 57.168 56.298 58.853 59.218 60.436 56.966 56.831 55.628 55.136 54.978 54.916 54.838 54.758 54.846 55.031 57.311 55.651 55.196 56.386 55.218 55.681 55.503 60.666 63.506 62.998 61.386 54.591 54.018 53.863 53.916 53.971 53.956 54.623 54.061 54.563 60.273 62.091 62.871 62.131 59.128 55.291 57.798 57.658 54.558 56.211 54.068 52.826 54.878 55.778 54.908 56.353 54.828 54.928 52.426 54.228 56.188 56.208 56.198 56.206 56.198 56.206 56.176 56.216 56.181 56.178 56.153 55.451 54.373 53.383 53.386 52.243 51.731 51.633 51.483 51.406 51.281 51.176 51.041 51.823 52.731 51.568 56.411 58.723 54.913 50.703 50.638 50.686 50.766 51.318 50.768 51.086 51.183 50.761 51.863 57.638 58.773 59.771 60.613 61.108 60.436 58.833 53.633 50.593 50.061 50.066 50.473 51.128 50.356 52.413 54.748 54.381 55.016 56.288 57.243 56.703 56.136 52.948 49.683 49.511 49.173 49.116 49.053 49.073 51.368 53.001 49.998 48.996 49.336 49.426 50.118 50.123 50.541 49.303 48.391 48.478 48.653 48.808 47.628 47.513 51.896 55.798 55.406 59.348 60.266 59.866 58.956 53.878 51.381 48.663 48.713 48.776 49.538 49.533 47.966 47.998 47.968 47.926 48.836 48.133 48.708 49.273 48.353 48.721 54.621 58.376 57.686 58.013 58.871 57.991 57.786 54.213 52.863 52.296 47.988 46.946 47.723 49.491 48.088 46.916 46.366 46.966 46.936 46.423 46.736 51.633 55.546 52.316 47.671 46.806 45.638 45.598 45.616 45.761 45.908 46.361 47.546 45.848 46.896 49.436 51.998 53.256 54.076 54.766 54.816 53.511 53.251 46.946 45.206 44.498 45.073 45.648 44.368 44.398 44.368 44.318 44.298 44.316 44.548 44.993 50.716 53.098 54.178 54.818 54.036 53.033 48.066 45.321 46.016 47.331 47.776 43.996 43.226 43.226 42.918 42.846 43.091 42.616 42.306 42.688 42.901 41.231 39.958 38.916 37.756 37.726 37.756 37.751 37.901 39.101 40.086 40.971
67.908 66.626 64.763 64.773 65.088 65.773 65.056 64.511 64.883 64.063 64.061 67.661 71.508 72.628 73.446 73.416 73.393 73.403 73.381 73.413 73.438 73.293 72.618 71.691 70.626 69.286 68.841 68.268 66.728 65.511 64.868 63.091 63.031 62.821 62.788 63.263 63.143 63.836 63.463 63.126 66.013 65.458 64.548 64.648 63.933 63.513 63.268 62.903 62.816 62.791 62.793 63.108 62.458 60.661 60.063 60.141 63.248 61.458 60.608 61.911 68.651 69.836 68.846 66.536 64.866 63.871 62.813 59.963 59.601 59.768 60.628 59.756 59.773 60.716 58.356 58.241 64.811 68.928 68.998 69.076 69.013 69.001 65.838 63.076 59.638 62.401 63.091 61.683 58.136 58.541 60.446 59.133 61.651 58.708 57.916 57.946 57.973 58.068 57.963 58.076 59.583 58.073 57.986 57.888 57.713 57.563 57.531 58.296 58.221 58.438 58.606 62.271 66.328 83.433 87.176 87.876 87.651 87.863 87.846 87.846 87.856 87.833 86.946 65.813 59.011 58.481 56.773 55.903 54.963 54.963 54.966 54.971 55.591 103.118 115.836 115.776 102.908 100.356 111.481 95.331 110.641 104.991 88.721 96.513 105.506 110.031 109.993 98.996 108.076 105.413 109.356 71.181 62.548 60.361 58.348 56.508 56.248 56.106 56.068 56.071 56.008 56.046 55.988 55.966 55.963 55.871 55.848 55.796 55.798 55.718 55.768 55.778 55.698 56.321 56.303 56.583 59.253 59.481 58.801 58.866 58.993 58.721 55.593 55.266 54.888 54.833 54.793 54.736 54.651 54.783 54.811 55.116 54.748 54.716 54.731 56.678 57.328 58.283 57.333 59.161 58.508 54.603 53.948 53.851 53.936 53.891 54.201 54.131 56.313 59.533 60.258 62.568 62.448 61.618 55.818 54.418 54.656 53.778 55.218 54.446 52.831 53.011 52.591 54.513 53.776 54.496 54.798 52.578 54.318 55.841 56.168 56.203 56.198 56.223 56.233 56.218 56.211 56.201 56.201 56.186 56.158 56.138 56.121 54.221 53.008 53.391 52.081 51.608 51.473 51.398 51.283 51.128 51.048 50.958 51.378 52.961 52.661 53.526 50.713 50.856 50.723 50.741 50.791 50.808 50.771 51.228 50.771 52.668 57.541 58.251 58.341 58.853 59.728 60.616 61.116 60.511 56.256 51.928 50.566 49.968 49.938 50.138 50.601 51.861 53.991 53.821 56.238 57.353 56.591 55.888 51.893 49.741 49.386 49.226 49.183 49.201 49.111 50.481 52.538 50.361 48.873 48.813 48.771 49.186 49.956 50.528 50.526 48.893 48.486 48.346 48.468 49.928 50.518 53.638 58.566 58.488 56.513 60.393 59.301 55.491 53.871 50.023 48.563 48.508 48.858 49.476 48.476 47.966 48.018 48.026 48.528 48.176 47.858 48.173 49.276 48.156 50.768 56.831 57.818 58.456 58.308 57.691 58.266 57.386 50.091 52.273 52.511 51.221 49.716 47.436 47.823 47.383 46.768 47.856 46.841 46.933 47.011 47.101 47.801 50.528 50.758 48.641 46.176 45.636 46.421 46.151 45.518 45.428 46.681 50.803 50.501 48.243 46.316 50.861 53.421 54.121 54.883 54.386 53.881 53.826 46.171 45.293 44.921 44.616 44.948 44.423 44.396 44.366 44.343 44.216 44.298 44.838 44.861 50.948 53.343 54.198 54.713 54.161 53.076 51.103 46.813 44.808 44.631 45.413 43.976 44.171 45.238 43.656 42.781 42.663 43.091 42.178 42.243 42.008 41.791 40.843 39.393 37.893 37.736 37.748 37.718 37.766 38.333 39.688 40.776 41.821
