ncols 430
nrows 31
xllcorner    529036
yllcorner    187108
cellsize     2
NODATA_value -9999
89.153 89.121 89.093 89.996 90.376 88.853 88.701 88.531 88.376 88.926 89.751 93.156 96.953 99.931 100.323 91.771 87.488 89.923 91.076 84.938 84.561 83.988 83.381 85.911 85.008 86.903 86.173 89.286 83.028 81.521 83.211 81.133 81.803 79.32 78.755 78.458 84.718 86.088 86.39 85.898 86.415 86.678 86.478 86.438 86.448 86.058 85.723 82.965 79.398 77.06 76.44 76.768 76.948 76.23 76.118 76.075 76.038 75.973 76.945 77.5 76.13 75.845 76.255 78.135 80.673 83.875 84.978 85.355 85.588 85.76 85.313 84.245 83.405 80.66 79.965 81.335 81.553 80.01 75.995 75.33 78.788 78.655 77.531 75.591 75.281 80.106 79.488 74.631 75.238 75.911 75.646 73.393 73.591 78.816 76.433 75.418 75.806 74.443 71.686 71.613 71.648 71.608 71.511 71.476 71.456 71.451 71.483 71.581 71.393 71.333 71.263 71.163 71.163 70.151 70.443 71.773 72.286 72.221 72.218 72.193 72.116 72.208 73.001 73.608 80.493 81.433 82.476 81.763 80.868 80.296 76.501 73.398 71.736 71.876 71.646 71.601 71.923 71.416 72.831 71.453 71.923 71.436 71.768 72.423 72.356 74.021 78.653 80.043 80.996 81.351 80.983 80.073 75.488 77.553 78.478 77.398 73.091 71.786 71.726 71.621 72.156 70.396 69.886 69.451 69.541 70.263 69.923 69.368 72.658 74.358 71.246 69.221 74.001 77.746 78.838 79.598 79.243 78.468 73.428 69.158 68.068 67.228 66.946 67.096 66.453 66.293 66.188 66.083 66.306 68.726 74.268 73.531 70.093 68.306 66.898 66.578 66.491 65.711 65.176 66.071 67.283 68.036 66.751 66.658 67.048 66.306 66.221 67.821 66.051 66.278 66.631 67.706 67.741 67.358 67.466 67.271 67.283 67.468 67.636 67.771 67.636 67.568 67.541 67.558 67.533 67.583 67.606 67.496 66.633 64.363 62.881 63.343 62.001 62.021 63.221 61.886 61.438 61.453 64.081 66.776 62.603 61.236 62.956 67.106 68.066 68.318 69.356 69.393 68.476 67.383 62.238 59.991 59.816 59.686 59.561 59.521 59.431 59.371 59.396 59.931 59.098 59.818 64.096 63.793 66.306 66.738 67.543 67.356 66.311 62.983 59.278 58.928 57.826 57.653 58.461 58.251 61.913 60.023 57.166 58.001 65.128 67.511 68.538 69.016 68.278 66.531 59.626 56.963 57.218 56.608 56.056 56.113 56.168 56.328 57.396 57.206 56.853 56.403 57.366 56.881 56.556 59.653 60.108 58.153 59.221 58.911 57.308 55.956 55.598 56.811 56.946 55.443 55.093 54.761 54.456 54.251 54.138 54.053 53.951 53.743 53.611 53.693 52.401 52.856 53.313 53.241 53.196 58.496 55.383 54.491 53.756 53.571 53.823 53.721 52.841 52.683 53.043 52.871 53.493 55.058 54.511 52.606 51.853 51.676 51.136 50.963 50.883 50.873 50.833 50.791 50.786 51.238 50.648 50.861 50.518 50.651 51.906 49.876 49.651 49.643 49.601 49.593 49.608 49.561 49.526 49.553 49.541 49.533 49.526 49.506 49.488 49.473 49.453 50.103 50.746 52.286 51.521 52.516 53.176 53.058 54.913 51.983 50.011 48.291 48.376 49.111 51.456 50.483 52.538 53.528 52.086 49.878 54.028 54.113 54.073 54.703 54.606 53.836 48.933 48.206 47.588 47.371 47.978 47.596 47.251 47.223 47.101 47.078 47.131 47.551 47.293 47.093 46.763 48.818 48.216 47.403 49.588 53.263 54.061 54.461 53.888 52.463 48.061 46.628 46.731 46.648 47.286 46.243 46.138 46.348
89.568 88.913 88.861 88.841 89.366 88.638 88.496 88.328 88.143 88.008 89.658 91.308 94.156 99.671 97.388 88.873 84.846 84.793 84.423 84.523 84.358 84.281 82.633 88.616 86.726 88.401 85.693 86.163 81.768 81.383 79.756 82.963 83.775 82.513 78.878 80.133 83.773 85.933 86.568 86.565 86.53 86.918 86.73 86.035 84.355 81.653 79.808 77.505 76.86 76.653 76.39 76.715 76.325 76.195 76.15 76.153 76.438 75.978 76.493 76.173 77.145 78.93 82.038 84.598 84.118 84.955 85.73 86.453 85.15 84.133 83.245 82.41 78.905 76.1 76.235 81.128 82.308 81.215 77.138 75.978 74.96 74.955 76.923 75.068 75.428 78.933 76.393 73.466 72.958 74.171 73.696 74.176 75.036 73.128 75.276 75.378 75.831 75.568 72.603 71.556 71.528 71.551 71.403 71.401 71.363 71.351 71.363 71.508 71.371 71.246 71.191 71.118 71.011 71.006 68.411 70.511 72.406 72.271 72.178 72.136 72.721 72.328 72.126 72.513 77.136 81.426 81.101 80.611 79.578 74.378 72.173 71.571 71.311 71.531 72.393 71.578 71.326 71.398 74.018 72.696 72.003 71.396 72.686 75.546 77.178 78.951 80.116 81.168 81.563 80.646 79.281 75.108 71.756 75.048 76.536 72.148 71.753 71.483 71.638 72.856 71.248 69.661 69.216 69.198 69.266 69.226 69.861 70.051 70.888 73.403 74.146 75.138 77.651 78.618 79.358 79.451 78.766 76.773 68.366 67.961 68.806 66.821 67.516 67.136 66.343 66.246 66.261 66.188 68.066 74.026 76.138 75.971 72.446 70.256 66.943 66.236 66.753 65.848 65.098 65.258 66.823 67.673 65.033 65.111 66.866 67.298 66.108 65.761 65.918 66.676 67.813 68.623 68.213 67.753 67.518 67.323 67.416 67.618 67.638 67.603 67.628 67.771 67.571 67.546 67.563 67.721 67.706 67.508 67.506 67.001 64.388 62.593 62.671 62.871 62.773 61.676 61.563 61.953 61.918 62.298 61.238 62.933 65.903 66.911 67.213 67.831 68.848 69.293 68.688 67.968 66.618 62.611 60.543 59.761 59.498 59.451 59.401 59.306 59.233 59.448 59.111 58.843 60.638 59.973 61.383 65.371 66.693 67.543 65.088 59.523 58.513 59.011 58.533 57.308 57.806 62.638 63.723 63.003 60.833 63.708 67.856 68.263 68.906 68.393 67.676 60.503 57.018 57.048 56.226 56.058 56.111 56.183 56.186 56.888 60.703 59.491 56.958 56.506 56.561 56.913 56.686 58.751 59.578 58.823 59.756 57.668 55.941 55.518 55.453 55.636 55.506 55.201 54.813 54.486 54.333 54.218 54.141 54.011 53.803 53.626 53.511 52.366 51.961 51.966 52.986 53.183 53.131 53.066 53.576 53.666 53.596 53.621 53.556 52.733 52.761 53.136 52.826 52.743 52.836 53.181 52.201 51.958 51.763 51.271 51.083 50.951 50.913 50.893 50.821 50.826 51.071 50.986 50.616 51.881 51.636 49.943 50.283 49.638 49.631 49.628 49.591 49.623 49.606 49.543 49.531 49.496 49.478 49.491 49.503 49.483 49.483 49.453 49.431 49.453 49.851 52.441 52.896 54.801 52.511 52.626 49.801 48.413 49.463 48.286 48.123 49.446 52.811 51.923 50.413 53.428 53.816 54.278 54.918 54.886 54.116 54.073 52.656 48.413 47.723 47.851 47.438 48.143 47.528 47.298 47.276 48.003 47.073 47.146 47.288 47.993 47.178 47.113 46.958 46.743 47.101 47.036 49.818 52.271 53.366 54.256 54.448 53.656 52.506 48.493 46.386 46.371 46.501 46.531 46.153 46.038
90.711 90.596 88.971 88.613 89.251 88.848 88.311 88.151 87.923 87.746 88.733 90.976 93.411 91.603 88.481 87.678 84.548 84.343 83.833 84.111 83.038 82.538 82.041 81.936 84.296 85.578 85.246 82.913 80.806 79.653 84.413 86.028 84.593 83.885 83.755 84.808 86.048 86.075 86.515 86.675 86.45 86.33 85.23 83.96 78.813 76.768 76.713 76.613 77.208 76.908 76.383 76.33 76.265 76.355 76.273 76.68 76.805 76.105 76.495 77.52 82.525 84.815 84.305 85.36 85.655 85.965 85.38 84.513 83.725 81.735 81.87 81.923 80.37 76.04 75.633 79.3 81.718 79.928 76.095 75.583 76.055 75.285 76.183 76.206 75.836 76.343 74.823 73.476 73.943 75.658 75.141 73.566 72.516 72.393 74.298 75.643 76.598 76.221 74.011 71.708 71.461 71.451 71.366 71.251 71.238 71.291 71.253 71.278 71.433 71.186 71.108 71.071 70.983 70.958 69.113 69.283 76.573 74.091 75.368 72.011 72.368 72.598 72.136 73.128 72.358 80.313 79.533 75.713 73.276 71.346 71.386 71.388 71.591 72.298 71.393 71.298 71.391 72.901 75.806 72.901 73.093 72.146 74.918 78.926 80.853 81.223 81.356 81.201 80.441 79.531 78.061 75.188 72.248 72.151 71.473 71.518 71.583 71.801 71.966 72.621 69.438 69.198 69.163 69.126 69.213 69.138 69.023 69.833 68.061 69.343 73.308 77.751 79.583 79.333 79.553 78.826 76.016 68.551 67.123 67.613 67.536 67.596 66.961 66.431 66.296 66.093 66.121 66.296 71.546 75.676 76.643 76.696 76.151 74.013 66.473 66.188 64.701 64.926 65.076 65.493 67.436 66.683 64.788 64.931 65.888 67.043 67.163 66.596 67.111 67.836 68.571 69.446 69.003 68.393 67.936 67.473 67.511 67.573 67.596 67.646 67.626 67.741 67.661 67.568 67.556 67.583 67.608 67.766 67.656 67.573 67.173 64.903 63.216 63.503 62.306 62.163 62.093 61.373 61.403 61.566 60.861 64.921 66.938 67.321 66.358 64.431 67.481 67.466 68.408 68.638 67.931 67.251 64.873 60.096 59.426 59.373 59.373 59.288 59.231 59.083 58.926 59.431 59.058 59.323 58.686 60.168 65.781 65.843 59.998 58.396 57.791 58.336 58.586 57.551 59.448 63.033 64.113 63.666 64.513 67.071 68.318 69.216 68.536 67.696 61.231 56.773 56.663 56.266 56.083 56.111 56.176 56.208 56.621 56.576 57.046 60.191 58.871 56.606 56.651 56.698 57.333 59.211 61.768 57.601 57.103 58.606 55.843 55.386 55.351 55.626 55.461 54.998 54.611 54.406 54.273 54.196 54.081 53.856 53.791 53.601 51.961 51.933 51.931 51.898 51.928 53.531 53.038 53.011 53.301 53.571 53.563 53.623 53.373 52.796 53.196 53.018 52.921 52.753 52.506 52.241 51.998 51.756 51.346 51.261 51.301 50.946 50.893 50.846 51.126 51.601 50.733 50.666 50.633 51.248 52.436 49.676 49.651 49.623 49.596 49.598 49.583 49.588 49.568 49.556 49.566 49.521 49.498 49.501 49.513 49.486 49.443 49.456 49.438 49.416 49.391 51.566 51.491 51.243 50.613 49.651 49.503 48.416 48.238 48.623 48.001 50.583 52.958 52.616 50.936 51.048 54.858 54.316 54.238 54.848 54.906 52.738 48.313 47.471 47.588 47.708 47.543 47.281 47.311 47.371 48.836 48.838 47.168 47.291 46.996 49.311 49.288 47.123 47.148 47.378 46.811 48.291 51.441 51.476 52.333 53.366 54.246 54.716 53.776 51.953 47.831 46.273 46.246 46.558 47.041 46.063
94.351 94.943 90.883 88.591 89.371 89.991 88.433 87.941 87.681 88.008 89.406 88.261 86.463 86.991 85.231 84.141 84.398 83.541 82.971 82.476 81.993 81.691 81.473 81.658 81.961 81.286 81.043 80.628 79.038 78.291 84.246 85.853 85.715 84.543 85.875 86.595 87.265 86.255 86.433 86.228 84.733 83.725 79.63 77.17 76.838 76.858 77.575 76.768 76.555 76.485 76.423 76.353 76.825 77.203 76.44 76.253 76.395 78.613 82.98 83.048 84.373 85.51 86.433 86.33 85.365 84.705 83.228 82.315 78.01 76.213 81.188 81.948 81.615 77.453 75.968 75.59 77.233 76.173 75.51 76.59 78.028 76.3 76.078 76.133 75.196 74.288 74.378 74.861 76.103 74.998 72.571 72.186 72.381 72.701 75.048 78.218 78.216 77.968 75.483 72.776 71.388 71.376 71.186 71.258 71.186 71.196 71.196 71.181 71.266 71.186 71.093 70.948 70.916 70.843 70.511 67.943 78.076 84.398 82.211 76.846 71.863 72.971 72.981 74.623 72.956 75.056 73.333 71.538 73.428 71.811 71.751 71.166 71.433 71.241 71.271 71.263 71.313 71.686 73.378 74.486 72.076 74.366 78.716 80.576 81.091 81.066 81.323 80.586 79.376 77.743 77.378 77.446 74.586 71.718 71.581 72.241 72.196 73.693 73.566 70.231 70.243 69.161 69.116 69.058 68.986 70.838 72.353 72.718 71.031 69.418 76.241 79.171 79.456 79.751 79.491 78.128 72.028 67.218 66.943 66.701 67.036 66.628 66.441 66.356 66.188 66.111 66.408 66.266 74.781 76.178 76.826 77.503 76.658 76.148 74.868 69.633 66.046 66.268 64.993 66.148 66.513 64.983 64.593 64.703 66.051 65.241 65.313 68.533 67.933 68.176 69.043 69.666 69.683 69.153 68.556 68.001 67.681 67.561 67.001 67.203 67.626 67.618 67.621 67.836 67.656 67.716 67.601 67.633 67.526 67.566 67.531 67.368 65.356 62.873 62.616 62.728 62.006 61.441 61.493 61.426 60.881 62.316 65.833 66.493 63.948 62.393 64.338 66.653 66.893 68.608 68.708 68.493 65.363 59.471 59.373 59.346 59.281 59.176 59.091 59.031 58.918 58.826 59.158 59.416 58.466 59.353 58.938 59.958 58.436 59.171 58.576 57.668 58.208 57.821 57.486 60.046 62.996 64.363 67.368 68.101 68.896 68.698 68.398 64.668 57.166 56.996 56.271 56.163 56.141 56.186 56.171 56.208 56.906 56.486 59.801 59.988 61.308 56.681 56.698 56.751 56.728 56.563 57.936 56.828 57.443 56.401 55.668 55.326 55.263 55.443 55.151 54.706 54.523 54.553 54.391 54.171 53.898 53.838 52.978 52.131 51.911 51.901 51.883 51.893 51.883 52.553 53.776 53.211 57.911 55.838 53.231 52.771 52.933 54.038 52.968 52.951 52.828 52.663 52.346 52.041 51.783 51.381 51.213 51.801 51.326 50.941 50.848 50.923 50.968 50.893 50.751 52.826 55.681 51.471 49.923 49.651 49.646 49.611 49.563 49.581 49.541 49.548 49.548 49.553 49.533 49.501 49.481 49.488 49.456 49.476 49.456 49.451 49.428 49.408 49.393 49.393 49.588 49.871 48.921 48.756 49.096 50.296 48.496 47.973 47.838 49.051 52.476 52.961 53.213 54.911 55.691 55.228 54.313 54.291 52.271 48.401 47.881 47.438 47.601 47.793 47.361 47.333 47.268 47.458 48.046 47.203 48.956 49.516 50.528 52.868 52.581 48.606 47.746 46.891 46.413 48.661 50.968 51.456 51.398 51.383 53.448 54.783 54.203 53.263 52.073 46.951 46.228 46.231 46.243 46.023
88.568 91.086 94.523 93.253 92.033 90.566 88.766 87.723 87.818 89.171 87.191 84.773 84.471 86.883 87.026 84.921 83.798 84.301 84.713 81.636 81.656 81.416 81.143 80.853 81.133 81.988 80.656 79.366 78.386 78.446 78.573 83.521 85.875 86.275 86.643 86.638 86.67 86.508 85.895 81.84 77.685 77.363 76.968 77.468 77.753 76.913 76.768 76.633 76.57 76.725 78.485 79.698 77.253 77.11 76.528 76.973 82.538 83.993 85.338 85.35 85.998 86.298 85.758 84.865 83.67 82.95 82.288 81.025 77.215 76.2 78.543 81.723 81.995 80.348 76.053 75.888 75.835 75.95 76.118 76.52 75.815 76.168 74.733 74.668 76.266 76.013 74.631 75.363 75.426 75.206 73.538 73.258 76.163 77.741 78.266 78.563 78.901 79.223 77.258 74.046 71.353 71.183 70.121 71.106 71.081 71.101 71.076 71.081 71.133 71.248 70.983 70.896 70.843 70.773 70.766 75.676 76.851 83.693 83.273 80.543 71.693 71.691 71.636 71.626 71.678 72.233 71.813 71.308 76.618 72.883 71.736 71.163 71.156 71.206 71.271 71.243 71.248 71.271 72.998 73.326 75.288 80.336 80.896 81.093 81.031 80.661 80.011 79.041 75.866 77.266 77.918 74.578 71.773 72.356 71.701 71.536 72.851 70.661 71.766 69.356 69.146 69.123 69.078 68.968 69.946 73.191 74.053 70.963 74.058 71.661 71.463 77.701 79.711 79.178 78.403 70.866 68.348 67.906 67.466 66.806 67.398 66.566 66.378 66.208 66.091 66.138 66.563 65.946 66.476 75.036 76.223 76.616 77.008 76.963 76.496 74.688 72.136 68.266 66.143 66.391 64.443 64.563 64.503 64.771 65.463 64.408 64.443 67.878 67.923 67.886 68.318 68.923 69.498 69.798 69.331 68.096 68.193 67.738 64.798 62.796 67.471 67.616 67.598 67.691 67.631 67.676 67.586 67.573 67.591 67.831 67.626 67.521 67.163 64.566 62.478 63.038 62.173 61.511 61.428 61.143 61.123 61.318 61.583 63.618 62.008 63.233 64.798 66.021 66.926 67.621 68.318 66.641 61.753 59.766 59.353 59.276 59.211 59.098 58.998 58.878 58.848 58.748 58.641 58.903 60.126 58.353 58.616 58.278 58.206 59.271 59.136 58.318 60.796 60.883 57.723 57.683 60.811 66.998 68.011 68.873 68.776 67.936 65.311 58.283 57.388 56.476 56.216 56.163 56.216 56.198 56.473 58.301 58.653 56.946 58.001 57.461 56.686 56.741 58.068 57.273 58.106 56.493 56.323 56.171 56.048 55.723 55.568 55.798 55.143 55.221 54.898 54.913 55.583 56.356 54.611 54.088 53.783 53.673 51.976 51.913 51.898 51.873 51.856 51.863 51.858 51.866 52.288 55.571 55.086 54.471 52.778 54.163 54.031 52.936 52.953 52.823 52.681 52.421 52.098 51.811 51.426 51.478 51.521 51.051 51.036 50.946 51.386 51.211 50.783 50.796 53.821 57.396 57.361 56.306 50.993 49.698 49.593 49.588 49.561 49.553 49.526 49.513 49.533 49.516 49.518 49.488 49.488 49.476 49.458 49.443 49.426 49.411 49.401 49.401 49.388 49.373 49.368 50.423 49.741 48.493 48.538 49.348 50.638 50.948 49.133 48.071 49.216 53.178 54.846 55.891 56.503 55.856 54.861 51.161 48.581 49.713 47.456 47.801 48.016 47.361 47.328 47.476 48.146 47.411 47.243 47.421 47.503 51.263 52.883 52.901 52.328 48.221 46.596 46.406 46.366 47.213 48.931 51.021 49.303 46.498 51.063 53.261 53.961 53.963 53.268 52.031 47.141 46.266 46.106 45.936
87.328 87.473 91.971 94.963 95.116 91.723 89.091 87.546 86.531 85.701 85.538 84.546 85.041 91.956 93.113 86.416 85.453 84.466 83.538 81.408 81.178 81.003 80.906 80.623 80.001 79.841 79.906 81.118 83.048 79.303 78.268 80.748 85.995 86.593 86.758 86.683 86.295 83.555 80.608 78.485 77.24 77.355 77.043 77.2 76.923 76.78 76.725 76.615 76.63 77.095 78.43 79.853 77.75 80.28 80 82.495 85.26 85.92 86.853 86.3 85.845 85.02 83.918 82.105 78.335 80.38 82.135 82.03 80.285 76.798 75.98 78.34 77.478 77.78 76.453 76.29 76.065 76.093 75.368 74.86 74.668 75.285 75.083 76.356 78.988 79.218 75.138 74.596 75.381 75.578 76.456 77.966 78.296 78.573 78.873 79.193 79.596 79.858 79.458 75.531 72.641 71.226 70.443 69.778 70.861 70.986 70.971 70.983 70.971 71.108 70.988 70.916 70.831 70.738 70.633 74.963 76.911 76.351 76.581 83.093 73.456 71.601 71.538 71.456 71.346 71.261 71.181 71.798 73.661 71.366 71.136 71.166 71.408 72.071 71.331 71.228 71.373 71.423 72.351 79.251 80.586 81.271 81.033 80.916 80.583 79.576 78.336 76.276 73.061 74.651 72.713 72.106 71.741 72.776 74.143 73.163 71.006 70.313 69.406 69.301 69.186 69.123 69.026 69.426 72.508 75.476 71.533 74.016 71.978 68.996 71.388 72.003 76.413 78.568 76.848 67.638 67.521 68.038 66.616 66.626 66.631 66.373 66.298 66.156 65.976 66.038 66.283 65.838 65.606 65.641 72.373 75.961 76.451 77.593 76.821 76.258 74.958 66.491 66.868 64.561 64.358 64.616 64.433 64.886 64.161 64.408 65.281 66.651 67.008 66.923 67.141 68.183 68.733 69.388 69.846 69.531 68.891 66.861 61.793 61.721 62.343 67.166 67.601 67.628 67.658 67.871 67.628 67.576 67.213 67.083 67.746 67.676 65.696 62.786 62.238 61.961 62.806 62.356 61.986 62.828 62.076 60.896 60.781 60.921 62.638 64.396 66.016 66.716 66.011 65.848 67.031 61.473 60.821 60.153 59.326 59.216 59.238 59.023 59.041 58.938 59.748 59.143 58.666 58.473 59.388 58.463 58.098 58.363 58.356 58.238 58.048 60.573 63.416 63.148 60.973 59.146 65.543 68.006 68.726 68.898 68.158 66.808 58.851 56.618 56.468 56.236 56.171 56.228 56.241 57.243 57.211 57.168 62.243 60.403 59.886 56.723 57.791 57.498 60.791 60.703 58.676 56.366 56.176 55.983 56.761 55.603 56.593 55.128 55.023 54.871 54.736 54.731 57.211 60.028 56.628 54.871 52.918 52.003 51.941 51.911 51.866 51.851 51.813 51.811 51.818 51.798 51.788 51.986 54.706 54.058 52.823 53.541 53.711 52.846 53.193 55.496 54.108 52.091 51.786 51.448 51.368 52.061 51.416 51.053 51.041 51.046 51.183 50.811 51.113 54.203 56.963 57.301 57.336 57.363 56.408 50.836 49.638 49.568 49.561 49.551 49.481 49.498 49.488 49.498 49.488 49.478 49.478 49.458 49.453 49.431 49.406 49.391 49.378 49.378 49.378 49.358 49.343 49.313 49.441 48.988 48.513 48.823 51.901 52.911 51.916 48.243 52.028 55.313 56.078 56.678 55.973 55.196 50.743 48.326 47.698 47.668 47.671 47.566 47.393 47.388 47.398 47.488 47.653 47.301 47.223 48.741 53.661 48.988 52.148 52.636 47.613 46.561 46.546 46.488 46.523 46.408 47.693 47.918 47.613 46.901 47.756 52.481 53.288 54.103 53.921 53.083 51.338 46.643 46.381 46.033
87.171 87.216 87.333 91.716 93.323 89.408 87.906 86.978 85.206 84.656 84.926 85.588 83.508 86.411 88.681 83.346 83.888 83.361 82.196 81.593 81.011 80.798 80.603 80.461 79.526 78.636 80.371 83.413 84.121 83.651 82.266 85.358 86.593 86.718 86.68 86.22 82.468 79.203 77.59 77.31 77.285 77.543 76.953 76.908 76.848 76.765 76.725 76.643 76.588 76.588 76.81 79.16 81.578 84.463 85.335 85.37 86.228 86.51 86.555 85.07 84.068 83.215 82.29 79.095 77.518 78.095 81.865 82.38 80.725 77.715 77.1 75.883 75.965 76.618 76.763 76.205 75.618 75.335 75.733 74.83 75.023 75.105 76.316 79.541 79.316 79.303 77.241 75.971 77.551 78.031 78.218 78.593 78.888 79.181 79.541 79.868 80.143 80.128 79.223 75.478 71.891 71.078 70.411 68.423 70.163 70.888 70.936 70.893 70.921 70.958 70.998 70.823 70.763 70.638 70.546 71.201 79.206 77.401 76.071 77.738 74.681 71.483 71.433 71.311 71.206 71.111 71.078 71.073 71.098 71.141 71.328 72.026 71.481 71.623 73.231 73.458 71.631 74.233 78.878 80.413 80.891 80.941 80.951 80.218 79.458 77.711 77.058 76.633 74.088 72.206 71.671 72.698 72.901 74.421 77.346 74.478 70.698 70.461 69.356 69.296 69.203 69.103 68.986 70.671 73.183 72.896 72.773 69.713 68.783 68.003 72.008 71.326 69.958 73.741 69.776 68.326 67.841 67.878 67.526 66.388 66.696 66.898 66.188 66.056 65.928 65.868 66.156 66.566 66.928 66.433 65.618 70.373 74.601 76.378 76.418 75.926 69.676 65.341 65.756 65.311 62.968 63.123 64.786 64.006 63.971 65.381 64.858 64.578 65.841 66.103 67.786 68.003 68.048 67.446 69.151 69.728 68.136 62.436 61.711 61.726 61.746 62.473 65.343 67.633 67.611 67.603 67.706 67.758 67.498 66.861 67.516 66.326 63.258 62.693 61.928 62.003 61.216 62.113 63.496 64.893 61.546 61.661 61.023 61.071 60.393 62.611 65.711 66.098 64.206 60.316 61.941 63.218 62.291 60.943 59.228 59.571 59.768 59.238 60.783 59.901 59.156 59.531 58.863 58.406 58.261 58.111 58.033 57.958 58.911 60.308 58.616 62.488 63.603 63.711 63.488 65.476 68.003 69.471 69.016 68.206 67.383 58.431 56.523 56.408 56.298 56.223 56.223 56.258 56.396 57.528 58.823 56.866 62.278 60.643 56.783 56.916 63.466 59.753 58.228 64.121 60.831 56.118 56.013 55.796 55.773 55.531 55.351 55.083 54.986 54.868 54.843 55.793 55.956 60.106 58.266 53.921 51.953 51.938 51.928 51.911 51.866 51.836 51.808 51.798 51.771 51.771 51.763 51.761 51.941 53.106 53.171 52.328 53.331 54.916 54.736 55.218 54.283 51.751 51.533 51.491 51.336 51.211 51.136 51.056 51.603 51.268 51.083 50.986 50.696 56.926 57.303 57.321 57.326 57.348 57.368 54.996 50.206 49.793 49.628 49.493 49.511 49.493 49.471 49.513 49.478 49.486 49.453 49.443 49.431 49.441 49.386 49.403 49.401 49.348 49.356 49.338 49.306 49.296 49.333 50.173 49.568 48.391 51.568 53.066 52.821 53.536 55.366 56.553 56.591 56.036 53.778 49.996 49.103 49.036 47.543 48.131 47.931 47.458 47.411 47.643 48.096 47.438 47.638 47.683 50.016 53.313 54.286 53.891 48.816 49.003 48.343 46.916 46.653 46.746 46.446 46.641 46.338 46.158 46.116 46.521 50.488 51.448 52.471 53.343 54.051 53.558 52.596 47.636 46.346 46.011
87.173 87.081 86.466 86.581 87.733 86.608 85.926 86.056 85.963 84.531 83.781 83.981 84.151 82.948 82.821 82.171 82.616 81.973 82.038 81.701 80.923 80.638 80.381 80.281 79.176 78.661 82.998 83.716 84.046 84.153 85.753 86.791 87.448 86.8 86.395 82.633 77.548 77.383 77.285 77.945 77.088 77.018 76.953 76.918 77.338 77.403 76.833 76.793 77.008 77.253 79.428 83.84 86.135 85.673 86.225 86.583 86.293 85.275 84.37 82.53 79.573 82.24 82.483 80.818 77.785 76.305 79.908 80.158 78 76.313 76.435 76.04 76.485 76.288 76.268 75.785 75.88 75.013 75.025 76.645 79.285 76.648 75.698 78.811 81.258 82.548 81.726 82.938 79.481 78.563 78.898 79.188 79.508 79.841 80.126 80.076 79.216 77.058 72.706 71.601 71.096 70.958 71.016 69.571 70.556 70.871 70.803 70.828 70.813 70.813 70.921 70.783 70.641 70.583 70.508 70.903 77.243 81.058 79.731 72.876 71.343 71.351 71.336 71.271 71.171 71.126 71.098 71.031 71.051 71.438 72.836 71.891 71.406 73.601 74.483 74.518 77.471 80.376 80.721 81.006 80.836 80.466 80.258 77.803 77.418 77.141 77.233 76.293 73.263 72.518 72.416 73.516 75.441 73.336 75.831 74.711 72.436 69.361 69.298 69.258 69.171 69.066 69.071 70.881 71.736 71.938 74.278 72.418 68.258 71.433 77.408 75.473 72.078 68.391 67.868 67.308 67.691 67.763 68.236 67.521 66.253 68.143 66.428 65.991 65.871 65.733 65.663 66.386 66.076 65.811 65.968 67.266 68.393 73.938 75.908 69.388 67.028 67.248 71.896 73.813 65.228 64.168 66.078 64.083 64.123 65.116 63.761 63.948 65.823 66.733 69.821 68.006 67.466 67.966 68.451 67.978 64.098 62.321 61.706 61.708 61.716 61.708 61.831 65.266 67.461 67.628 67.593 67.676 67.706 67.651 66.348 63.298 62.448 63.858 64.051 63.678 62.358 62.376 61.801 63.866 64.873 62.191 61.891 60.748 60.593 61.273 63.366 63.808 60.961 59.766 61.063 63.911 59.561 59.248 59.246 59.526 61.033 66.658 62.241 59.781 60.038 58.621 59.533 58.933 58.233 58.116 58.116 58.658 57.873 57.798 57.421 58.613 62.541 63.503 65.908 67.573 68.443 68.993 69.223 67.531 61.808 56.678 56.396 56.298 56.216 56.221 56.266 56.263 56.768 61.993 58.253 57.073 59.548 59.298 57.468 58.553 61.001 57.243 59.113 59.168 57.698 55.883 55.793 56.243 55.433 55.366 55.311 54.948 54.918 54.848 54.806 54.631 54.198 56.286 54.096 51.971 51.931 51.958 51.921 51.888 51.858 51.846 51.778 51.751 51.726 51.733 51.716 51.731 51.751 52.933 52.568 51.931 51.876 51.841 53.316 54.983 54.056 51.833 51.826 52.153 51.356 51.201 51.333 53.001 52.698 51.048 52.598 53.168 52.906 56.888 57.311 57.308 57.311 57.318 57.348 57.386 54.308 50.288 49.816 49.611 49.491 49.488 49.461 49.486 49.468 49.446 49.443 49.436 49.413 49.408 49.376 49.393 49.363 49.361 49.321 49.306 49.308 49.301 49.293 49.291 49.551 48.658 48.183 51.996 53.936 55.233 56.196 56.513 55.843 54.993 49.891 47.808 48.081 47.756 47.503 47.713 47.516 47.436 47.393 47.553 47.551 47.376 47.443 49.668 53.473 55.098 54.458 54.291 53.588 48.033 47.991 46.826 46.506 46.418 46.493 47.653 47.326 46.131 45.916 45.833 49.408 51.453 51.516 52.466 53.238 52.783 48.806 46.773 46.606 45.971
87.591 86.943 86.263 86.361 86.421 85.933 85.908 86.111 86.856 84.253 83.503 83.038 82.963 82.768 82.641 82.533 82.686 82.068 81.336 81.183 81.676 81.246 80.631 79.241 79.318 80.003 79.508 82.876 83.826 84.983 86.391 86.801 86.765 86.223 84.775 79.618 78.163 78.38 77.505 77.18 77.08 77.063 77.123 77.01 77.235 76.945 77.985 79.575 81.593 84.388 84.578 85.45 86.433 87.448 86.418 84.93 84.695 83.573 80.735 76.973 77.83 81.963 82.698 82.17 78.45 77.003 76.825 76.18 77.523 76.983 76.978 76.513 75.115 74.99 75.923 75.34 74.913 75.153 78.865 79.725 79.905 78.935 74.898 84.216 86.661 86.121 83.333 83.288 82.458 79.333 79.533 79.861 80.118 79.963 79.326 76.173 73.393 71.441 71.311 70.991 70.841 70.876 70.878 70.881 70.851 70.788 70.703 70.736 70.716 70.703 70.743 70.786 70.601 70.548 70.466 70.393 70.418 70.143 72.878 71.413 71.261 71.206 71.201 71.203 71.076 71.043 70.991 70.951 70.976 71.006 71.308 71.413 71.426 71.576 74.773 79.576 80.853 80.938 80.878 80.923 80.226 79.458 76.223 73.558 75.668 77.058 75.358 72.791 71.241 71.878 72.228 71.346 74.308 75.156 75.443 76.388 69.381 69.348 69.308 69.833 70.223 69.536 70.583 71.481 69.596 70.036 70.821 70.721 68.693 76.706 78.333 77.981 77.638 76.248 69.848 67.986 69.191 67.116 66.608 66.921 66.908 66.966 66.598 67.221 65.821 65.623 65.528 65.411 65.421 65.493 65.658 67.591 65.378 66.181 70.421 65.683 65.543 71.931 74.568 74.783 74.128 70.653 67.251 63.148 64.646 63.558 63.698 64.401 65.831 64.191 64.906 64.546 65.166 65.538 66.821 65.403 62.318 61.726 61.691 61.711 61.693 61.713 61.723 61.733 64.146 67.593 67.601 67.621 67.776 66.766 63.481 61.798 63.366 64.196 62.658 61.843 62.816 64.261 64.983 62.828 63.373 62.596 61.323 60.551 60.671 60.846 61.253 60.781 60.263 59.598 59.643 62.101 59.318 59.346 60.031 59.688 65.916 69.108 68.248 61.668 59.981 58.878 58.458 58.551 58.371 58.048 57.953 57.998 58.118 57.693 57.498 57.356 59.333 64.718 67.401 68.461 69.011 68.486 67.603 61.853 57.253 56.718 56.346 56.213 56.263 56.253 56.306 56.813 57.311 60.908 57.658 58.583 58.018 59.406 57.683 60.843 58.693 59.311 59.253 56.771 56.243 55.698 55.583 57.711 55.566 55.191 54.961 54.903 54.861 54.651 54.518 54.298 53.986 52.538 51.943 51.958 51.926 51.868 51.893 51.873 51.858 51.831 51.806 51.758 51.741 51.693 51.686 52.168 55.341 52.743 52.321 51.873 51.963 52.043 51.711 52.411 53.228 51.531 51.681 51.498 51.298 51.418 53.036 52.826 53.793 53.141 50.783 54.828 56.866 57.051 57.373 57.451 57.293 57.306 57.341 57.358 57.228 54.156 50.286 49.593 49.481 49.483 49.466 49.468 49.453 49.451 49.428 49.418 49.411 49.363 49.361 49.356 49.343 49.323 49.291 49.316 49.293 49.281 49.298 49.233 49.263 48.826 49.183 53.396 55.531 56.411 56.516 55.946 54.393 49.441 48.086 47.663 47.863 48.061 47.558 47.601 47.553 48.128 47.858 47.391 46.938 47.148 51.446 54.541 54.413 54.693 55.061 53.996 51.878 48.343 47.891 47.043 46.446 46.406 46.516 47.761 46.666 46.066 45.996 46.166 48.413 51.248 50.378 47.948 51.888 48.711 46.231 46.151 45.976 45.963
87.318 86.238 86.226 86.196 85.816 85.873 86.043 86.291 86.008 84.866 83.926 82.536 82.481 82.316 83.558 85.823 85.546 83.973 81.916 80.676 80.726 81.421 81.316 80.003 81.693 80.966 80.213 79.411 83.238 86.291 86.916 86.868 86.328 84.14 79.668 77.608 77.458 77.968 77.323 77.203 77.115 77.875 77.87 77.015 76.963 77.025 80.263 85.22 85.125 86.12 86.363 86.903 86.525 85.658 84.863 83.133 82.92 82.9 81.17 77.155 78.285 80.64 82.16 81.035 77.495 76.688 76.938 76.233 77.183 77.305 76.68 76.008 74.93 74.928 77.208 77.943 78.593 74.683 76.343 79.618 79.875 80.143 80.806 84.983 86.753 86.833 85.028 83.136 82.681 81.241 78.931 80.016 79.153 76.661 73.656 71.658 71.511 71.128 70.621 70.536 69.563 69.103 70.863 70.778 70.761 70.736 70.656 70.626 70.621 70.621 70.633 70.678 70.623 70.508 70.388 70.333 70.263 70.251 69.126 70.821 71.206 71.123 71.071 71.038 70.971 70.893 70.883 70.821 70.916 71.006 71.408 72.026 74.903 76.841 79.973 80.693 80.806 80.933 80.516 79.911 79.048 77.488 76.586 73.506 71.781 72.841 71.456 73.776 73.101 71.201 71.848 71.626 73.563 76.988 75.246 72.728 69.701 69.396 70.101 70.273 75.063 72.178 71.391 69.586 68.701 68.641 68.343 67.893 74.228 77.818 77.786 78.938 78.701 78.026 77.306 72.331 67.871 66.696 66.686 66.556 67.261 69.133 67.651 66.356 66.438 65.608 65.408 65.366 65.216 65.206 65.333 65.761 65.436 65.341 66.398 69.196 69.766 74.401 74.991 75.531 75.373 74.458 71.786 65.163 65.533 64.953 63.933 65.771 64.841 63.631 63.606 64.898 64.033 63.461 64.146 64.743 62.513 62.256 61.696 61.703 61.696 61.698 61.681 61.716 61.783 63.133 67.751 67.628 67.038 64.191 61.873 62.941 64.133 63.141 61.296 61.293 64.046 66.558 66.156 65.148 65.463 66.846 61.058 60.538 61.201 60.358 60.388 60.158 59.761 60.023 59.798 59.316 59.221 59.871 59.323 65.768 69.101 69.816 69.981 68.778 65.571 59.708 58.431 58.241 58.131 57.893 57.876 57.766 57.751 58.243 58.406 58.043 59.986 66.746 68.161 68.953 68.848 67.791 64.713 57.471 57.413 56.386 56.256 56.236 56.276 56.303 56.761 57.393 58.373 61.683 59.468 59.563 58.296 57.483 59.461 57.906 56.873 56.633 56.361 56.058 55.811 55.508 55.366 57.608 58.628 54.908 54.886 54.991 54.971 54.521 54.346 54.188 52.626 51.963 51.918 51.923 51.923 51.858 51.888 51.871 51.826 51.828 51.811 51.778 51.741 51.703 51.948 52.828 53.548 53.853 52.146 51.928 52.296 52.471 52.053 51.636 52.438 51.526 51.461 51.381 51.406 53.808 56.038 53.658 54.263 56.218 58.386 56.923 57.058 57.071 57.071 57.251 57.396 57.348 57.323 57.331 57.368 57.386 52.571 50.193 49.753 49.461 49.473 49.428 49.406 49.411 49.413 49.401 49.378 49.356 49.358 49.346 49.361 49.336 49.301 49.303 49.288 49.248 49.261 49.241 49.243 49.218 48.838 52.253 56.398 56.343 55.653 52.308 49.671 48.553 47.843 47.778 47.476 47.593 47.553 47.551 47.768 47.998 47.453 47.488 46.773 51.076 54.533 54.996 54.796 54.306 54.753 49.991 46.668 47.951 47.121 48.248 46.681 46.433 46.363 46.241 46.123 46.343 46.073 46.098 47.268 48.206 46.938 46.871 47.501 46.273 46.101 46.013 46.083 46.543
86.458 86.216 86.361 86.273 85.756 85.746 86.618 85.736 85.661 84.786 83.248 82.571 82.403 82.108 83.618 85.301 85.781 85.121 80.806 80.718 80.128 79.786 79.966 82.756 84.131 84.006 81.236 83.396 86.388 86.858 86.851 86.613 84.465 79.918 78.52 77.888 77.735 77.278 77.243 77.173 77.083 77.16 77.265 78.378 81.94 82.828 84.78 86.08 86.485 87.128 86.475 85.72 84.848 83.92 80.313 78.16 81.768 83.058 82.833 79.448 78.008 79.215 77.928 77.208 77.048 77.158 77.735 76.36 76.378 77.12 75.905 75.723 75.345 77.045 79.113 79.95 79.775 76.29 74.865 79.12 80.243 82.863 83.298 83.636 86.883 86.996 86.471 82.378 82.081 80.523 73.746 75.046 72.971 72.096 71.778 70.838 70.326 70.118 69.748 68.516 68.391 70.066 70.708 70.728 70.638 70.566 70.566 70.541 70.523 70.521 70.531 70.546 70.583 70.413 70.363 70.308 70.191 70.138 70.148 69.863 71.221 71.038 70.926 71.006 70.936 70.803 70.748 70.768 70.898 70.981 70.911 75.431 80.453 80.501 80.991 80.693 80.578 80.783 79.581 78.156 77.138 77.208 76.978 74.941 72.558 72.648 73.601 72.388 72.678 70.946 70.861 71.066 72.916 72.581 72.096 71.403 71.693 71.491 75.003 73.256 72.843 75.793 73.553 68.761 68.693 68.646 68.453 69.051 73.088 76.476 77.768 78.663 78.983 78.851 78.546 76.916 73.068 66.968 66.686 66.961 68.208 68.656 66.983 65.896 65.623 66.343 66.091 65.276 65.178 65.111 65.196 65.111 65.586 66.106 67.401 67.468 66.658 73.456 74.703 75.741 75.398 75.026 74.743 72.896 67.151 67.613 66.411 64.908 63.433 63.736 64.443 64.486 63.393 63.398 64.828 64.111 64.326 63.801 61.998 61.706 61.723 61.688 61.698 61.718 61.676 61.831 62.858 66.818 64.313 62.196 62.688 64.148 63.138 61.463 62.578 61.578 64.928 66.083 66.631 67.366 69.526 70.833 69.611 63.126 61.011 60.303 60.706 59.996 60.476 60.186 59.278 59.206 59.503 59.431 60.138 67.423 69.253 69.886 70.486 69.753 69.088 66.468 58.826 58.543 58.183 57.808 57.678 57.666 57.626 57.496 57.511 58.531 57.661 62.923 68.586 68.733 67.946 64.773 56.971 57.816 56.506 56.338 56.296 56.296 56.268 56.906 58.706 60.818 60.716 61.553 61.163 59.193 62.618 58.423 57.843 58.713 56.963 56.561 57.066 55.878 55.588 55.293 56.141 58.583 57.893 54.888 54.921 55.001 54.866 54.563 54.351 52.598 52.056 51.971 51.948 51.918 51.851 51.881 51.873 51.853 51.776 51.783 51.783 51.746 51.721 51.846 54.161 52.896 53.466 53.528 52.246 52.703 52.226 52.586 51.671 51.603 51.601 51.523 51.428 52.523 53.318 53.346 55.708 52.766 59.703 67.181 65.928 62.098 57.083 57.103 57.153 57.111 57.491 57.283 57.298 57.323 57.346 57.356 57.498 51.403 50.123 49.848 49.466 49.411 49.421 49.391 49.388 49.398 49.403 49.353 49.336 49.353 49.356 49.328 49.303 49.276 49.281 49.243 49.218 49.213 49.221 49.226 49.958 49.681 54.963 55.666 52.483 47.891 49.213 48.498 48.418 48.151 47.583 47.608 47.596 47.728 47.471 47.536 47.973 47.578 52.521 55.206 54.421 54.436 54.988 53.521 52.163 51.118 47.096 46.156 46.358 47.241 48.371 47.373 46.321 46.228 46.203 46.778 46.086 46.328 47.058 48.691 46.746 46.571 46.276 46.148 46.073 45.981 46.113 46.271
86.251 86.181 86.033 85.838 86.061 87.371 86.131 85.193 85.533 85.998 84.433 83.301 82.758 81.786 82.028 84.491 89.046 88.443 80.733 80.556 80.861 79.123 79.711 84.003 84.181 83.833 84.261 86.288 87.426 87.993 86.756 85.573 78.718 77.598 77.543 78.1 77.365 77.345 77.498 77.525 77.16 77.67 80.22 83.213 86.178 85.87 86.448 86.978 86.855 86.085 85.29 83.945 83.48 82.618 78.485 77.083 78.498 82.603 83.225 80.573 77.335 77.405 76.633 77.328 78.258 78.098 77.09 76.17 75.958 76.94 79.638 78.933 75.268 76.983 79.93 80.098 79.838 78.89 78.688 80.863 81.723 82.78 83.336 83.156 85.493 87.086 87.196 82.486 78.841 75.363 73.321 72.136 72.008 71.031 69.858 69.608 69.526 68.941 68.778 69.431 70.716 71.521 73.838 74.228 70.573 70.566 70.496 70.383 70.371 70.446 70.436 70.443 70.533 70.416 70.266 70.206 70.143 70.086 70.341 69.671 71.093 70.981 70.826 70.823 70.841 70.768 70.643 70.688 70.811 70.856 70.798 72.998 80.286 80.786 80.676 80.443 79.618 77.656 73.896 75.013 77.011 77.358 74.591 71.571 71.211 73.263 73.958 72.401 70.993 72.216 70.911 72.413 73.078 71.186 73.288 72.271 73.813 73.221 74.768 75.841 75.918 73.508 72.636 69.436 71.831 69.771 68.531 68.346 67.906 68.491 75.731 77.571 78.231 78.698 78.248 77.693 77.088 75.141 68.698 67.121 67.616 66.838 66.421 66.361 65.711 65.596 66.496 67.353 65.123 65.008 65.498 65.646 64.913 65.736 65.123 65.418 64.166 65.216 71.506 74.588 75.011 75.553 75.661 74.713 74.156 69.921 68.286 67.141 65.128 63.881 65.153 64.273 63.348 63.358 64.383 65.103 63.418 63.878 64.528 62.361 61.706 61.691 61.693 61.686 61.658 61.658 61.738 63.143 61.861 62.386 64.096 63.073 61.623 61.316 61.141 61.603 60.901 63.963 66.526 69.678 70.696 71.361 71.193 69.931 61.523 60.496 60.221 59.388 59.263 59.343 59.263 59.126 59.118 59.943 63.781 64.848 66.808 69.456 69.886 70.176 69.908 69.273 67.023 60.336 59.711 58.523 57.643 57.631 57.591 57.426 57.286 57.691 57.966 56.941 59.883 68.276 65.908 57.488 56.803 56.471 56.306 56.293 56.336 56.303 56.456 56.981 60.616 63.801 60.388 62.653 60.256 57.083 61.336 59.596 60.921 61.266 59.426 56.843 57.266 55.691 55.351 55.043 54.926 56.773 54.828 55.003 54.898 54.851 54.813 54.633 54.396 53.158 52.058 52.008 51.931 51.941 51.883 51.873 51.843 51.813 51.798 51.748 51.766 51.961 54.303 54.613 54.978 55.616 52.248 52.241 52.738 52.658 52.506 51.706 51.658 51.666 51.621 52.451 52.381 55.718 53.406 51.821 53.913 55.148 66.256 67.938 67.541 65.673 60.753 57.173 57.421 57.226 57.133 57.446 57.278 57.301 57.321 57.346 57.353 57.178 50.716 50.021 49.766 49.408 49.401 49.401 49.401 49.366 49.343 49.341 49.323 49.318 49.296 49.316 49.271 49.293 49.263 49.241 49.231 49.208 49.211 49.078 50.418 49.236 48.606 51.521 48.366 47.913 47.761 47.993 47.953 47.658 47.633 47.653 48.568 47.898 47.543 47.563 49.548 53.871 54.771 55.011 54.971 54.318 54.436 50.316 47.443 48.963 47.336 48.633 47.063 47.118 49.868 50.051 46.336 46.291 46.476 46.588 46.203 46.071 49.538 52.943 47.388 46.248 46.161 46.051 46.221 46.826 46.226 46.598
86.188 86.363 85.991 85.723 85.758 86.716 85.253 85.233 86.013 87.506 86.708 83.701 82.108 81.628 82.581 82.496 86.341 82.926 81.476 81.211 79.348 78.873 79.046 80.231 83.563 84.461 85.748 86.763 87.193 87.088 85.521 81.483 78.163 77.763 77.558 77.433 77.413 77.505 77.948 78.208 77.313 78.338 83.813 85.17 86.858 87.013 86.893 86.22 85.145 83.623 80.963 81.733 82.978 83.073 81.025 77.368 76.983 80.19 79.668 78.155 77.17 77.835 77.89 79.923 79.083 76.248 76.16 76.02 75.353 76.525 79.873 80.08 78.38 75.98 79.34 80.008 80.485 81.25 81.843 82.62 82.858 83.12 82.741 82.216 83.261 87.288 87.376 83.316 73.401 72.373 73.178 72.383 72.033 69.511 69.376 69.378 68.988 69.823 71.223 71.251 74.653 79.533 81.168 81.338 71.358 70.453 70.406 70.323 70.353 70.343 70.336 70.338 70.351 70.398 70.228 70.161 70.106 69.986 70.011 70.116 70.423 70.971 70.778 70.726 70.723 70.668 70.613 70.648 70.696 70.728 70.726 73.628 75.361 80.381 79.848 79.233 78.058 76.231 73.381 72.886 74.968 71.698 71.056 71.058 70.723 71.266 71.371 70.908 70.766 71.618 73.443 72.741 70.768 70.726 70.781 71.188 72.431 73.438 76.006 74.178 76.843 70.741 78.001 71.786 71.931 70.511 68.448 68.258 67.921 68.523 71.626 74.716 77.366 77.848 77.711 78.268 77.903 77.188 76.063 70.368 67.658 66.901 65.966 65.811 66.273 66.863 66.033 69.113 65.903 65.093 64.866 64.891 64.956 64.833 64.733 65.461 64.568 65.121 65.461 69.526 74.436 75.401 75.398 75.283 74.913 74.468 71.386 68.776 66.638 63.961 63.311 63.788 63.716 63.301 63.701 63.473 62.911 63.533 64.276 64.038 62.853 61.708 61.698 61.678 61.643 61.626 61.621 61.633 61.591 63.218 63.811 62.051 62.168 61.236 61.423 62.171 60.728 61.871 68.711 70.596 71.318 71.303 70.563 66.611 61.148 61.003 59.498 60.861 59.418 59.251 59.408 59.586 59.201 61.166 63.986 62.796 60.496 65.403 68.996 69.613 70.223 69.841 69.241 65.063 59.873 60.051 57.921 57.533 57.771 57.423 57.271 57.146 57.001 57.278 56.988 59.723 57.778 56.931 56.528 56.363 56.293 56.288 56.263 56.626 56.576 58.181 59.308 60.266 60.506 61.238 59.973 57.128 59.363 57.971 58.268 56.661 57.428 56.026 55.738 55.456 55.131 54.856 54.826 54.991 56.633 54.866 54.856 54.968 54.893 54.631 54.451 54.381 54.023 52.963 53.631 51.896 51.883 51.866 51.828 51.801 51.756 51.728 51.743 52.481 54.433 54.586 54.818 53.441 53.413 52.488 52.846 52.021 51.793 51.768 51.768 51.696 52.171 54.471 53.798 55.338 57.126 52.466 51.951 60.766 65.943 67.298 68.486 67.373 65.838 61.721 57.908 57.713 57.096 57.103 57.668 57.333 57.303 57.326 57.331 56.581 53.266 50.078 49.931 49.703 49.388 49.371 49.396 49.343 49.336 49.323 49.308 49.283 49.308 49.326 49.338 49.261 49.236 49.231 49.228 49.193 48.991 50.096 49.618 48.121 47.998 48.458 47.953 47.881 48.096 48.198 47.696 47.698 47.776 48.181 47.973 47.578 46.686 49.166 54.166 55.776 55.028 54.726 55.161 54.031 47.906 47.126 47.716 46.506 47.363 49.448 49.473 47.146 47.191 49.193 49.968 46.911 46.343 46.263 46.151 47.353 47.358 48.313 46.316 46.153 46.091 46.236 46.046 46.316 46.766 52.321
86.151 85.851 85.706 85.666 86.523 85.886 85.103 85.561 87.358 84.751 83.376 82.581 82.341 82.033 81.143 80.918 80.831 80.818 80.753 80.756 81.816 83.013 80.176 78.808 80.733 85.668 86.513 87.326 87.138 86.576 82.441 78.688 77.795 78.248 77.638 77.44 77.47 77.56 77.39 77.785 79.623 83.33 85.085 86.023 87.073 86.51 85.2 84.39 83.3 81.68 78.52 78.423 82.233 83.33 82.388 78.133 77.595 76.938 77.018 77.908 78.008 77.758 78.355 77.71 76.79 76.805 75.763 76.55 75.82 79.28 80.13 79.84 80.06 76.813 78.478 81.115 81.93 82.443 82.97 84.01 82.798 82.158 81.651 81.026 77.026 81.431 81.463 75.796 72.356 73.113 73.098 72.353 72.108 70.546 69.686 70.438 71.348 71.473 72.143 75.843 80.998 81.816 81.953 81.513 76.811 70.351 70.341 70.221 70.203 70.208 70.201 70.243 70.226 70.316 70.223 70.101 70.013 69.948 69.826 70.081 70.113 70.813 70.748 72.268 71.548 70.908 70.781 70.741 70.533 70.606 70.583 72.818 73.666 79.516 78.456 77.058 77.023 76.951 74.986 72.108 70.508 70.606 70.648 71.163 70.846 70.816 72.206 71.023 71.453 71.611 71.781 71.866 70.896 70.901 70.876 70.803 71.786 71.053 73.068 72.676 75.061 79.138 74.851 72.016 69.506 71.008 68.368 68.158 68.213 69.673 72.943 72.838 72.396 75.751 77.041 77.831 78.238 77.913 77.961 76.496 72.328 66.263 65.906 66.631 66.121 66.656 66.976 65.171 64.941 65.206 65.041 64.696 64.686 65.363 64.638 64.503 64.718 64.858 64.591 64.083 68.663 74.278 74.753 75.281 75.736 74.928 74.438 70.308 64.873 63.118 62.963 63.001 62.911 63.628 63.156 62.943 62.948 63.888 64.763 63.603 64.158 62.763 61.703 61.663 61.606 61.553 61.553 61.536 61.563 61.646 62.003 61.673 62.108 62.778 64.783 65.863 63.621 61.866 70.301 71.228 71.386 70.723 67.168 60.428 60.356 60.303 59.956 60.603 59.258 59.196 59.691 59.138 59.516 60.873 61.851 61.156 59.918 63.676 66.713 69.311 69.533 69.566 66.468 61.446 60.148 58.953 57.986 58.221 57.341 57.248 57.666 57.051 56.953 57.056 57.298 56.656 56.723 56.728 56.398 56.316 56.311 56.281 56.258 56.998 56.383 56.476 58.401 60.708 60.693 59.608 61.476 58.198 57.081 56.966 56.708 56.418 56.113 55.831 55.528 55.233 55.003 54.808 54.763 54.741 55.303 54.788 55.223 54.968 54.633 54.443 54.438 54.381 54.251 56.646 58.886 52.291 51.861 51.831 51.833 51.798 51.748 51.741 52.311 53.083 53.813 55.463 53.713 52.236 52.363 52.833 52.241 51.866 51.863 51.851 52.013 55.683 55.738 55.493 54.796 56.803 52.711 52.556 61.068 65.573 67.326 68.263 67.293 68.141 67.861 67.418 60.223 57.171 57.081 57.053 57.071 57.238 57.271 57.301 57.326 51.586 50.163 53.728 52.591 55.168 51.083 50.303 49.346 49.321 49.318 49.316 49.293 49.266 49.268 49.246 49.238 49.248 49.231 49.251 49.208 49.136 48.306 48.043 47.996 47.983 47.981 48.003 48.101 48.538 47.978 47.811 47.731 47.801 48.488 47.826 47.561 46.858 50.006 54.958 54.541 54.941 55.488 54.958 54.531 52.563 46.693 46.811 46.426 47.458 46.361 47.823 49.241 48.788 46.746 48.081 50.363 49.498 48.338 46.518 46.623 46.738 46.426 46.308 46.168 46.093 46.396 46.888 46.233 47.333 53.318 57.876
85.571 85.426 85.998 86.391 86.153 85.126 85.108 85.136 84.866 84.421 83.481 82.026 81.323 81.376 81.126 81.103 80.848 80.413 79.731 79.986 84.211 84.303 83.388 80.256 85.331 86.948 87.213 87.116 86.073 82.136 78.816 77.936 77.695 77.69 77.54 77.45 78.288 77.64 77.608 81.67 84.69 85.218 86.138 86.105 85.148 83.943 81.365 82.788 83.46 82.88 79.153 77.63 80.94 81.923 79.903 77.155 77.395 77.245 77.153 77.74 78.488 77.248 76.573 76.098 75.868 77.388 79.465 78.545 75.318 78.388 80.038 79.928 80.573 81.403 82.013 82.31 82.828 83.355 82.898 82.41 81.87 80.428 76.221 73.373 73.206 72.651 73.211 72.453 72.378 72.388 73.108 72.656 72.158 71.958 71.886 71.703 71.733 73.946 76.211 76.318 80.083 81.578 80.943 80.683 80.686 71.478 70.241 70.171 70.156 70.148 70.148 70.183 70.173 70.191 70.208 70.036 69.966 69.908 69.808 69.741 70.441 70.616 72.501 71.566 73.846 70.443 71.801 71.943 71.211 70.431 71.478 76.811 75.658 74.768 76.871 77.098 78.368 76.081 72.453 70.503 72.018 71.296 71.068 70.971 71.203 71.276 71.598 71.631 71.443 71.013 71.266 70.848 71.368 71.101 70.923 70.806 70.731 70.646 72.543 72.158 77.536 76.081 72.986 75.496 69.498 71.606 68.338 69.826 70.308 71.738 73.586 70.906 68.663 73.196 76.378 76.878 77.568 78.206 77.716 76.828 76.188 72.396 66.778 66.781 66.138 66.603 65.911 65.031 65.156 64.821 65.851 65.601 64.478 64.426 64.566 64.768 64.358 64.463 64.596 64.738 64.581 66.278 73.406 74.978 75.123 74.908 73.836 68.166 63.151 64.321 66.053 62.848 62.718 63.126 63.036 62.866 63.028 64.006 64.946 64.461 63.271 63.391 62.811 61.636 61.623 61.551 61.533 61.533 61.501 61.536 62.528 61.848 61.356 65.571 66.296 66.476 65.901 67.006 70.631 71.768 70.811 69.508 61.533 59.813 59.991 59.593 59.533 59.306 59.231 59.546 60.288 59.113 59.298 59.128 60.573 59.346 60.593 64.141 64.788 65.933 68.618 69.088 64.223 59.063 58.828 58.086 60.361 59.203 58.531 57.996 57.763 57.358 56.901 56.788 56.658 56.488 56.413 56.416 56.326 56.353 56.353 56.623 56.601 56.353 56.446 56.681 56.798 57.026 57.278 57.068 56.953 56.993 56.988 56.848 56.571 56.228 55.928 55.603 55.318 55.023 54.856 54.756 54.696 54.653 54.726 54.841 54.718 54.613 54.453 54.448 54.376 54.283 55.731 60.648 56.888 56.293 54.258 53.388 51.838 51.778 51.733 52.233 53.153 52.908 54.841 56.693 57.908 54.031 52.118 52.121 51.983 51.973 51.918 51.863 54.008 59.823 56.901 57.278 54.051 51.351 54.001 61.458 65.791 67.513 68.088 66.611 65.406 66.898 68.308 67.158 64.426 58.166 57.041 57.053 56.778 51.646 55.138 56.158 51.656 50.116 50.138 50.621 57.528 57.531 51.491 54.708 49.816 49.321 49.311 49.268 49.281 49.266 49.263 49.268 49.226 49.241 49.283 49.568 49.353 48.476 48.548 48.038 48.023 48.048 48.013 47.936 48.431 48.191 47.806 47.783 48.023 47.811 47.726 47.661 47.468 51.748 54.921 55.468 55.028 54.596 55.031 52.878 48.508 53.308 49.996 47.086 46.431 46.883 47.991 46.603 46.763 48.416 46.948 48.346 47.973 49.396 49.968 48.023 47.138 46.463 46.338 46.216 46.173 46.098 46.248 46.181 47.546 54.041 57.941 58.593
86.938 85.898 85.713 85.573 85.196 85.146 86.446 86.108 84.393 84.498 83.816 84.903 83.213 80.953 80.686 81.281 81.186 80.146 79.636 81.511 84.173 84.291 84.336 85.193 86.818 87.603 87.398 86.806 82.648 78.661 77.848 78.436 78.055 77.613 77.888 78.99 77.603 77.678 80.81 83.768 85.39 86.25 86.205 85.328 84.025 81.34 77.405 80.898 83.398 83.848 81.65 78.62 77.563 77.078 78.35 77.283 77.158 77.313 77.62 77.728 77.258 76.133 76.35 75.445 78.843 80.548 80.505 80.085 76.283 76 80.363 81.408 81.728 82.538 83.125 83.18 82.795 82.388 81.75 81.86 76.713 74.065 73.268 73.021 74.046 73.878 72.638 72.518 72.426 72.328 72.406 73.053 72.353 71.946 72.043 71.868 74.481 76.393 76.058 74.321 75.346 80.836 81.148 81.388 81.743 76.571 70.196 70.116 70.043 70.053 70.061 70.076 70.038 70.053 70.121 70.018 69.916 69.811 69.756 69.671 69.873 70.533 76.626 74.508 74.966 73.238 72.198 70.561 70.228 70.261 70.878 71.021 73.231 73.018 76.401 76.903 74.513 70.638 70.511 70.438 70.971 72.151 70.871 70.868 70.896 71.786 71.698 70.948 70.798 70.776 70.793 70.866 70.861 70.871 71.186 70.986 70.728 70.661 71.138 72.036 71.756 76.656 76.358 75.128 72.008 72.213 69.631 70.321 67.813 70.058 71.426 68.288 72.093 72.911 73.606 73.811 76.858 78.241 77.348 77.506 77.021 76.443 75.406 69.046 65.923 65.301 65.031 64.983 65.261 65.738 64.963 64.976 64.863 64.496 64.241 64.481 64.713 64.006 64.223 64.701 64.171 64.606 66.656 70.851 74.481 74.321 68.258 63.691 66.246 70.753 68.286 61.708 64.368 63.991 62.706 62.846 63.111 62.371 62.521 63.266 62.518 62.313 62.828 63.323 61.801 61.526 61.481 61.433 61.428 61.498 61.473 61.116 61.301 61.913 65.676 65.953 68.083 69.783 70.513 71.423 71.228 64.146 60.508 59.743 59.358 60.011 59.301 59.191 59.091 58.996 59.621 59.643 59.396 59.241 59.076 59.093 59.861 61.773 64.111 64.506 60.573 61.866 59.033 58.476 58.696 61.611 62.873 63.108 65.106 66.443 59.858 57.021 57.376 56.701 56.606 56.501 56.413 56.371 56.366 56.363 57.023 58.593 57.266 56.421 56.621 56.826 56.928 57.143 57.216 56.963 56.748 56.778 56.821 56.701 57.523 56.051 56.551 55.708 55.146 54.881 54.771 54.686 54.658 54.648 54.676 54.691 54.548 54.541 56.408 60.126 54.781 54.111 56.008 56.591 61.101 60.733 55.158 58.496 53.561 51.793 52.176 53.836 52.906 54.538 59.471 61.133 61.756 57.693 54.158 52.023 52.046 52.033 51.958 54.351 55.041 60.336 56.953 53.471 53.443 54.711 63.676 66.083 67.663 68.056 66.448 64.908 64.306 65.208 67.173 68.158 66.676 64.241 58.058 56.358 51.671 50.488 51.066 50.128 49.946 49.913 50.006 51.303 58.531 55.491 53.153 54.196 50.976 49.298 49.303 49.291 49.261 49.246 49.238 49.231 49.231 49.188 49.203 49.136 48.503 48.118 48.073 48.093 48.083 48.063 48.021 47.903 47.838 47.843 47.806 48.228 48.481 47.756 47.848 48.203 51.831 55.101 54.763 54.868 55.471 54.973 51.103 50.813 47.366 47.271 46.746 48.371 46.626 46.518 46.901 47.911 46.776 47.503 49.458 49.958 48.891 48.808 49.321 47.736 46.533 46.351 46.208 46.176 46.661 46.573 46.206 47.856 53.758 58.196 58.626 59.383
90.441 90.748 88.433 85.231 84.948 85.186 85.901 84.926 84.486 84.706 85.221 82.878 81.003 80.648 80.398 80.408 80.658 79.851 79.948 79.658 81.538 84.026 84.933 86.613 87.343 87.306 87.081 84.081 80.661 78.671 77.856 78.096 77.708 77.635 78.643 80.288 77.535 78.34 84.143 85.233 86.983 86.438 85.05 83.955 83.478 82.84 79.348 78.133 82.75 82.903 79.785 77.71 79.2 77.195 77.413 78.35 77.08 76.955 77.515 76.968 76.595 76.485 78.518 75.95 77.043 80.503 80.928 80.468 79.86 80.153 81.908 82.37 82.698 83.328 83.05 82.413 81.975 79.82 75.458 74.733 73.403 73.23 73.008 73.753 74.101 73.056 72.683 72.566 72.448 72.336 72.261 72.398 72.403 72.246 72.301 73.661 72.233 75.248 74.636 75.026 75.953 80.216 81.768 81.393 81.153 80.433 70.891 70.138 69.933 69.946 69.981 69.961 69.948 69.946 69.963 70.036 69.813 69.776 69.708 69.631 69.538 71.718 76.351 74.893 75.198 71.211 70.208 70.143 70.041 70.103 70.793 72.538 73.911 72.693 74.586 77.253 73.386 70.471 70.511 70.501 70.763 72.866 71.571 70.766 70.696 70.758 70.713 70.721 70.758 70.801 70.841 70.836 70.828 70.813 70.808 71.266 70.856 70.683 70.543 74.701 76.481 72.478 74.441 73.988 69.721 70.438 70.643 67.723 67.526 67.421 66.901 70.761 72.371 73.033 72.328 68.941 69.958 75.883 76.456 77.108 77.643 77.166 76.601 75.951 70.116 65.468 65.006 65.736 66.036 65.083 64.916 64.626 64.546 64.783 64.193 64.111 64.081 64.586 64.131 63.826 64.061 66.138 65.526 63.373 70.618 68.316 63.643 65.178 70.996 72.813 72.626 69.961 66.803 63.433 61.793 62.871 62.378 62.518 63.548 62.873 62.228 62.241 62.283 62.671 62.313 61.488 61.428 61.366 61.348 61.448 62.081 63.501 61.443 61.243 61.638 66.273 69.698 70.688 71.383 71.153 70.401 64.133 60.533 59.523 59.236 59.343 59.191 59.088 59.526 59.098 59.861 59.303 59.321 60.408 60.111 59.038 59.111 58.886 61.773 61.683 61.033 59.278 59.481 58.393 61.118 63.388 63.996 66.343 67.891 68.761 69.123 59.418 56.866 56.536 56.461 56.401 56.403 56.396 56.348 56.316 59.711 63.711 61.961 56.546 56.746 56.908 57.021 57.243 57.133 56.781 56.531 56.493 56.806 57.221 60.871 57.376 56.263 56.063 54.938 54.761 54.706 55.751 56.598 55.973 54.643 54.563 54.491 56.853 64.733 65.546 63.053 54.053 53.908 55.283 57.898 58.956 60.278 57.356 52.843 52.448 53.101 55.878 55.678 53.558 56.841 63.226 58.936 59.863 54.408 52.123 52.131 52.071 53.136 56.601 54.588 57.001 56.313 51.578 55.776 63.976 66.293 67.881 67.941 68.001 65.761 64.213 64.071 64.623 66.311 67.453 68.126 66.461 59.143 50.598 50.301 50.301 50.028 49.956 49.868 49.908 49.863 52.626 53.118 53.711 53.756 50.516 49.373 49.283 49.301 49.266 49.246 49.243 49.201 49.211 49.228 49.196 49.181 48.871 48.863 48.201 48.168 48.153 48.116 48.546 48.698 47.918 47.941 47.866 48.468 48.183 47.888 47.856 48.836 51.788 54.666 55.081 55.401 54.768 54.796 51.851 46.683 48.156 47.671 47.958 46.763 47.388 47.696 46.576 46.511 47.278 47.641 47.883 48.208 51.566 50.436 49.318 47.841 46.596 46.336 46.251 46.171 46.333 46.843 46.258 47.938 54.758 58.216 58.653 59.403 59.788
90.823 90.876 90.956 89.086 86.056 85.016 84.771 84.491 84.553 87.306 87.733 85.413 81.868 80.528 80.166 79.903 80.066 80.563 80.248 79.963 79.771 82.858 86.001 87.173 87.443 87.081 86.196 84.483 80.181 78.296 78.638 77.868 77.758 77.76 78.193 77.63 78.953 83.475 85.135 85.95 86.008 85.28 82.615 82.95 83.62 83.53 82.465 77.958 78.068 77.778 78.1 77.508 79.3 78.473 77.133 76.878 76.275 76.083 76.623 76 79.153 80.69 80.388 76.955 75.925 79.258 80.74 81.438 82.095 82.705 83.35 83.143 83.025 82.56 82.14 80.43 77.325 75.055 73.68 73.328 73.45 74.68 73.611 73.021 72.908 72.781 72.906 73.121 72.471 72.396 72.328 72.641 74.643 76.601 77.533 77.476 74.151 73.458 74.321 76.116 76.046 76.996 81.041 80.868 80.696 81.518 76.571 70.451 69.886 69.826 69.803 69.848 69.913 69.876 69.893 69.931 69.823 69.698 69.623 69.561 69.941 73.578 74.246 73.611 76.141 71.426 70.093 70.066 69.981 70.581 70.958 73.773 74.146 71.641 72.788 78.168 74.846 74.331 70.461 70.563 70.651 71.176 72.786 71.388 70.643 70.638 70.693 70.701 70.763 70.788 70.833 70.851 70.863 70.838 70.821 70.823 70.768 70.706 70.586 72.493 76.158 71.998 73.011 74.358 73.366 71.626 69.746 67.536 67.433 67.448 68.088 70.296 72.256 72.608 69.756 66.766 66.133 72.081 74.998 76.331 76.933 77.526 77.421 76.986 75.448 70.518 66.406 65.443 65.688 65.961 65.491 64.918 65.003 64.191 64.011 63.981 63.926 63.916 64.206 63.706 63.571 64.806 63.453 66.358 68.186 63.666 63.653 70.401 72.746 73.348 73.583 72.871 72.018 69.723 63.786 62.216 63.183 63.023 62.686 62.841 62.308 62.141 62.611 62.936 62.411 62.038 61.388 61.311 61.481 62.541 66.171 69.398 63.633 61.511 62.563 69.008 70.511 71.181 71.403 70.558 68.576 60.998 59.813 59.263 59.198 59.183 59.123 59.351 59.273 60.543 60.911 59.536 60.813 61.676 59.231 59.073 58.921 59.718 59.598 62.166 60.611 58.506 58.311 58.921 57.538 61.786 64.401 67.418 68.738 69.366 68.881 68.093 60.808 56.746 56.386 56.356 56.408 56.411 56.341 57.693 58.311 62.841 59.041 58.633 56.833 56.981 57.166 57.218 56.928 56.546 56.326 56.556 57.713 58.463 59.133 57.186 57.858 56.293 55.481 54.733 54.688 55.681 57.121 54.651 54.538 54.458 58.448 64.493 65.543 66.026 59.678 54.928 55.266 57.351 58.808 61.026 60.056 55.561 53.193 53.093 52.943 54.216 57.723 60.206 57.228 56.121 59.443 58.598 54.713 52.213 52.136 53.593 54.053 55.166 56.791 53.746 54.278 62.291 64.763 66.546 67.838 67.556 66.083 65.623 64.341 64.328 64.498 66.146 66.691 65.848 67.523 67.621 53.421 50.271 50.218 50.041 49.963 49.836 49.796 49.746 49.678 49.611 53.693 52.028 50.443 49.316 49.238 49.261 49.263 49.281 49.321 49.238 49.251 49.223 49.181 49.226 48.813 48.771 48.541 48.248 48.236 48.191 48.306 48.438 48.053 47.966 47.908 48.021 48.391 47.901 47.983 48.536 53.018 55.583 54.843 54.588 55.033 55.261 50.403 50.818 48.938 46.983 46.763 47.306 48.143 46.796 47.306 47.401 46.791 46.613 47.806 48.366 49.011 48.833 48.161 48.281 48.238 46.361 46.223 46.168 46.641 46.653 46.248 49.548 55.391 58.246 58.703 59.511 59.728 59.323
91.778 91.021 90.803 90.346 86.416 84.888 86.531 85.851 84.471 87.108 88.763 86.978 83.866 81.103 79.941 79.556 79.593 79.446 80.478 80.331 80.973 84.253 87.131 87.158 87.111 86.338 84.473 79.561 78.046 78.453 77.961 77.806 78.095 78.45 77.763 78.295 82.868 84.973 85.893 86.17 85.343 83.488 77.633 79.635 83.035 83.62 81.815 77.773 77.38 77.493 78.015 77.83 77.008 76.5 76.445 76.585 76.04 76.783 75.635 76.163 80.275 80.898 80.423 79.113 76.575 80.623 81.995 82.643 83.108 83.455 83.728 82.463 81.94 79.858 77.615 75.92 73.863 73.47 73.668 74.168 73.53 73.26 73.058 73.023 73.053 73.033 73.133 72.878 72.796 72.668 74.063 77.341 79.741 80.118 78.126 77.793 75.723 73.401 73.576 74.351 73.906 74.833 79.518 81.216 81.861 82.106 81.213 71.931 69.838 69.756 69.738 69.801 69.793 69.798 69.796 69.828 69.846 69.596 69.581 69.488 69.418 70.631 76.288 73.568 71.666 70.106 69.956 69.956 69.873 70.656 72.618 71.421 74.233 72.583 79.426 70.816 77.316 77.586 71.813 70.696 70.686 72.148 72.038 70.618 70.638 70.698 70.703 70.716 70.701 71.708 71.788 70.843 70.896 70.891 71.956 70.788 70.721 70.658 70.578 70.866 70.241 71.228 70.121 72.191 73.466 72.541 71.018 67.653 67.451 67.888 69.303 69.443 69.766 70.256 66.851 66.651 68.886 71.563 73.856 74.496 76.063 76.858 77.331 76.796 76.243 75.633 74.028 67.413 65.938 66.741 64.988 64.638 64.903 64.401 63.983 64.586 64.301 63.726 63.676 64.198 64.676 63.498 63.523 66.031 64.533 63.696 63.576 69.156 72.736 73.448 73.868 73.263 72.873 72.581 67.131 65.283 64.303 62.866 62.063 62.056 62.046 62.093 61.878 61.783 61.761 61.911 62.003 61.388 61.128 61.046 66.791 69.898 69.638 64.378 68.936 72.163 71.173 71.361 70.661 68.946 60.868 59.893 59.346 59.393 59.203 59.073 59.268 59.013 59.171 60.113 60.606 66.306 63.031 64.646 61.928 58.898 59.243 59.416 64.698 65.416 62.171 60.688 58.216 58.413 61.016 60.906 67.713 68.878 69.456 69.186 68.093 65.436 60.021 56.636 56.341 56.376 56.373 56.398 56.333 57.721 60.616 62.536 63.376 56.856 57.003 57.211 57.298 57.161 56.713 56.316 56.096 56.056 57.996 59.551 57.631 61.706 60.081 56.146 55.171 54.726 56.666 54.926 54.658 54.501 54.456 57.746 63.831 65.626 66.221 67.283 63.523 53.891 58.073 58.581 55.898 56.893 55.811 55.111 55.123 53.003 52.886 57.431 59.308 61.691 60.736 54.238 58.993 58.653 53.808 52.236 53.688 54.148 54.503 55.848 55.843 52.641 64.333 68.131 67.291 68.173 67.373 65.951 65.648 64.068 64.406 64.971 66.426 66.318 64.783 60.221 59.786 52.408 50.186 50.086 50.041 50.006 49.906 49.843 49.776 49.683 49.608 49.521 50.006 49.443 49.363 49.276 49.253 49.248 49.223 49.176 49.283 49.368 49.218 49.218 49.191 48.983 48.451 48.341 48.323 48.296 48.268 48.698 48.816 48.086 48.088 47.971 47.888 47.863 47.958 47.986 49.586 53.246 55.576 56.436 56.178 54.833 54.603 54.146 51.391 48.196 48.573 48.751 47.456 46.753 47.241 47.823 46.691 46.738 47.083 47.411 47.803 48.228 49.398 47.713 48.083 47.476 47.441 46.216 46.193 46.183 46.476 46.261 48.438 55.141 58.293 58.736 59.443 59.708 59.283 58.848
93.866 92.691 90.996 88.438 85.906 86.918 89.036 87.226 85.641 84.121 87.471 87.943 84.733 82.286 79.671 79.378 79.323 79.403 80.806 82.468 80.613 80.253 84.593 87.161 86.683 81.993 80.018 78.118 78.633 77.996 77.913 77.798 77.875 77.69 78.383 82.51 84.905 85.733 86.228 85.453 84.5 83.298 81.788 78.098 80.56 81.368 77.85 77.518 77.643 78.118 77.235 75.91 75.688 76.885 76.11 76.253 79.53 80.573 78.65 75.425 78.918 80.833 80.973 81.33 82.078 82.683 83.145 83.605 83.423 82.843 82.39 81.203 77.905 74.293 74.05 73.56 73.94 74.338 73.678 73.345 73.253 73.158 73.161 73.323 74.708 72.913 72.828 73.428 75.191 78.111 79.471 79.783 80.213 80.898 79.121 77.806 77.133 73.893 73.448 74.536 75.691 76.156 77.633 81.913 82.171 82.188 81.236 75.976 70.018 69.673 69.636 69.663 69.686 69.636 69.691 69.698 69.746 69.628 69.501 69.406 69.346 69.981 73.656 71.846 72.618 69.986 70.188 70.281 69.773 70.036 70.378 71.253 70.761 72.941 74.163 77.903 79.178 74.518 73.421 77.838 74.411 72.236 73.091 77.073 70.683 70.668 70.726 70.693 72.828 83.181 82.261 73.746 70.881 74.921 79.306 73.051 70.873 70.616 70.536 70.423 70.286 70.116 69.948 69.811 70.281 72.046 72.596 69.211 68.171 69.446 69.471 67.113 68.338 67.176 67.343 67.968 71.221 72.176 72.341 71.841 71.151 75.716 76.816 77.026 76.891 76.518 75.778 74.916 68.978 64.813 64.523 64.428 64.353 64.456 64.591 64.116 63.893 64.753 64.043 63.503 63.521 63.876 63.518 63.283 63.903 63.323 62.996 62.968 67.721 72.773 73.116 73.443 73.843 73.191 72.568 69.478 63.986 61.153 61.643 61.976 62.031 61.888 61.948 62.751 62.098 62.091 61.756 62.056 61.221 60.863 60.746 66.883 69.791 70.533 71.921 72.818 72.903 71.471 69.191 62.531 59.653 59.361 60.156 59.601 59.111 59.198 60.203 58.988 59.258 60.406 66.696 69.856 70.401 63.723 59.201 58.886 60.011 59.353 59.206 62.623 59.748 58.908 58.121 61.166 63.263 64.666 68.811 69.573 69.173 68.276 65.146 59.703 56.896 56.441 56.346 56.366 56.411 56.346 56.351 56.403 56.626 56.998 58.523 58.948 57.713 58.578 58.081 58.128 57.026 56.126 55.936 55.956 56.803 56.091 58.341 57.588 58.818 57.236 54.898 54.696 54.686 54.643 54.488 54.443 59.383 65.113 65.653 66.321 67.223 66.996 66.573 62.801 56.396 56.673 58.493 56.086 55.568 57.283 55.371 52.976 52.791 54.368 58.798 61.656 58.676 54.966 56.888 53.778 52.751 54.176 54.173 57.478 57.606 53.628 53.173 60.361 65.741 67.533 68.298 67.878 65.716 66.641 68.946 66.996 68.061 69.126 66.926 63.598 56.676 52.006 50.456 50.271 50.091 50.041 50.021 49.958 49.851 49.791 49.721 49.651 49.561 49.516 49.466 49.438 49.351 49.256 49.211 49.163 49.131 49.006 48.881 49.221 49.208 49.193 49.031 48.486 48.436 48.461 48.511 48.391 48.578 48.186 48.176 48.106 48.348 48.403 47.938 48.183 48.343 50.358 54.346 55.706 56.236 56.781 56.663 55.648 54.358 53.276 51.428 50.268 47.153 47.351 48.276 46.801 46.851 47.181 46.731 46.718 46.801 48.108 48.238 49.626 48.373 47.216 47.996 46.298 46.261 46.198 46.173 46.148 46.168 49.446 55.993 58.326 58.826 59.553 59.676 59.253 58.793 58.316
93.991 93.858 93.161 90.443 85.956 92.396 91.713 87.203 84.056 83.801 86.523 85.043 81.413 80.181 79.496 80.183 79.306 80.531 82.078 85.196 83.911 81.866 81.533 83.201 84.388 78.861 78.121 78.758 78.538 77.936 77.986 78.666 77.933 77.843 80.685 84.843 85.718 86.343 85.733 84.698 83.483 83.94 83.47 82.053 77.373 77.298 77.483 78.115 77.65 76.425 76.138 77.053 77.845 78.478 76.22 80.078 81.023 81.08 80.555 76.355 76.838 81.49 82.2 82.658 83.208 84.218 83.51 82.87 82.353 81.198 78.77 74.998 74.063 73.745 73.8 74.103 73.708 73.573 73.41 73.328 73.248 73.325 74.116 73.323 73.166 73.038 74.623 78.433 80.038 80.108 80.128 80.598 80.938 82.148 81.346 77.933 77.058 75.103 72.963 72.946 75.998 75.726 75.836 79.511 81.716 81.968 82.041 81.098 72.501 69.666 69.561 69.571 69.586 69.558 69.543 69.573 69.596 69.651 69.448 69.368 69.251 70.103 69.166 70.911 71.123 71.091 71.233 72.216 69.793 69.856 70.186 69.798 69.718 72.278 77.323 73.386 76.803 74.508 75.751 76.448 71.326 73.741 76.623 76.761 72.288 70.891 71.038 70.853 80.838 87.103 87.428 82.341 75.341 82.251 85.681 83.208 75.423 71.251 70.501 70.346 70.273 70.191 69.988 69.766 69.561 69.708 71.883 72.248 69.556 68.611 67.986 66.938 67.108 67.698 66.693 67.696 71.931 72.428 71.811 69.091 66.496 70.623 75.313 76.676 76.553 76.868 76.591 75.986 75.173 70.643 64.831 64.423 64.426 64.316 64.578 65.626 63.848 64.231 65.806 64.023 63.266 63.381 63.486 63.281 63.053 63.356 63.338 63.126 62.923 66.473 72.458 73.063 74.246 73.541 73.116 72.803 69.383 64.453 65.296 61.953 62.048 61.753 61.653 61.703 62.403 62.061 61.576 61.723 62.048 61.821 60.631 60.536 65.093 71.563 72.943 73.181 73.136 72.781 65.946 60.508 59.478 59.236 59.713 59.183 59.003 59.426 59.196 59.078 60.411 65.293 69.806 70.536 70.893 70.328 64.258 59.386 59.811 60.096 59.006 58.341 58.153 58.156 59.378 58.358 61.598 66.051 68.571 69.736 68.431 67.101 57.301 56.811 56.528 56.343 56.308 56.388 56.376 56.333 56.433 56.513 56.881 56.998 59.041 57.091 57.476 58.711 57.343 57.098 56.786 55.951 55.741 55.928 56.208 55.803 55.476 55.473 55.941 56.561 54.818 55.281 54.656 54.513 54.626 60.546 65.121 65.686 66.448 67.233 66.928 66.536 66.061 65.621 61.711 54.823 54.146 57.131 55.548 53.243 53.088 52.886 52.748 54.278 52.603 54.961 59.023 58.118 55.606 52.431 53.171 53.946 53.556 52.656 55.811 53.278 61.143 65.551 67.213 68.173 66.951 68.266 68.023 69.508 70.223 69.686 68.713 68.068 64.326 54.526 51.983 50.458 50.311 50.188 50.111 50.071 50.123 50.003 49.813 49.743 49.723 49.628 49.851 49.453 49.426 49.373 49.323 49.206 49.133 49.053 49.026 48.926 48.823 48.748 48.963 49.426 48.496 48.506 48.471 48.433 48.388 48.841 48.813 48.226 48.208 48.108 48.768 48.128 48.113 48.116 51.576 54.953 56.288 56.831 56.623 55.761 55.553 55.518 53.408 49.993 47.748 48.996 48.168 46.818 47.571 47.438 47.438 48.178 49.188 47.031 47.191 48.736 49.358 47.251 46.363 47.308 47.378 46.253 46.596 47.696 46.408 46.768 50.593 55.591 58.366 58.836 59.706 59.596 59.171 58.731 58.313 53.361
93.896 93.916 94.056 93.116 92.496 92.908 92.386 89.031 86.616 83.751 85.376 82.928 81.028 80.091 81.768 86.991 82.431 82.093 82.256 83.736 82.251 84.141 82.798 79.423 78.423 78.248 78.993 78.271 77.998 77.943 78.148 78.098 77.868 81.353 84.333 85.528 86.358 85.955 85.003 80.61 83.058 83.735 84.54 82.388 78.358 77.495 77.64 78.26 76.43 75.923 75.663 77.623 80.438 80.2 76.81 77.845 80.775 81.003 80.943 80.67 82.285 82.76 83.355 83.84 83.465 82.925 82.398 81.628 77.48 74.973 74.285 73.94 74.288 74.178 73.973 73.598 73.575 73.535 73.433 73.503 74.295 73.378 73.236 74.056 75.098 78.761 79.186 80.121 80.563 81.123 81.088 80.466 80.121 80.308 79.333 76.468 72.728 72.873 72.943 73.028 73.256 74.751 75.943 76.883 81.796 81.661 81.093 80.851 75.558 69.578 69.836 69.951 69.416 69.476 69.473 69.488 69.448 69.536 69.423 69.341 69.273 69.138 69.066 69.768 71.261 71.108 72.556 72.076 70.611 69.561 69.551 69.503 69.531 69.683 72.708 76.366 76.948 73.561 75.828 73.531 70.331 75.403 75.096 75.188 72.248 72.398 80.551 81.941 86.713 87.338 88.461 84.811 84.161 86.733 86.483 85.951 84.193 78.748 73.006 70.451 70.248 70.133 70.001 69.876 69.713 69.751 72.178 72.418 72.256 67.208 66.956 66.983 70.736 72.678 68.893 66.713 68.461 70.548 70.038 66.233 65.968 69.818 73.291 75.133 75.423 76.616 76.848 76.706 75.523 74.856 70.146 65.568 64.576 64.406 65.758 65.206 64.236 63.928 63.438 63.983 64.343 63.263 63.018 63.128 63.443 63.528 63.153 63.343 63.141 62.268 64.503 70.353 72.808 73.233 73.641 73.636 72.791 72.358 64.398 61.763 61.843 61.278 61.653 61.741 61.803 61.373 61.358 62.223 61.528 61.691 61.821 60.728 60.328 63.916 73.226 73.153 72.921 71.886 67.266 61.263 59.458 59.173 59.158 59.093 59.211 59.523 58.891 59.721 66.078 69.661 70.396 71.061 70.401 69.608 62.948 60.346 60.196 58.841 58.316 59.116 59.478 58.043 58.203 61.808 63.833 67.783 68.678 69.263 68.123 58.826 58.043 57.473 56.466 56.386 56.406 56.393 56.363 56.418 56.496 56.783 58.558 60.221 57.403 57.346 57.301 57.371 57.451 58.031 56.381 55.893 55.726 56.823 56.638 55.786 55.358 54.886 54.801 54.776 54.766 54.723 54.558 54.456 60.073 65.238 65.721 66.633 67.326 66.953 66.476 66.041 65.603 64.896 58.316 53.981 53.463 53.381 53.343 53.233 53.111 52.896 52.766 52.678 52.593 55.336 58.883 57.423 56.088 52.741 55.013 55.108 59.313 51.801 53.871 62.838 65.746 67.488 68.078 66.763 65.443 67.796 69.713 70.246 70.466 70.303 69.096 65.673 52.266 50.976 50.468 50.348 50.248 50.526 50.161 50.056 50.241 50.268 49.956 49.726 49.588 50.023 51.571 49.781 49.433 49.343 49.286 49.228 49.091 49.003 48.936 48.846 48.763 48.641 48.608 48.638 48.556 48.543 48.511 48.781 49.193 48.328 48.333 48.268 48.188 48.071 48.213 48.246 48.678 51.776 55.063 55.988 56.783 56.986 55.626 54.326 52.913 53.718 50.128 47.378 46.528 47.306 48.678 48.931 47.026 47.323 48.508 50.416 50.116 48.136 47.428 49.348 47.623 46.418 46.346 46.851 46.648 46.153 47.058 46.871 46.568 50.336 56.451 58.418 58.991 59.588 59.578 59.148 58.693 57.963 54.203 49.996
93.766 93.908 93.831 93.193 93.093 93.166 89.506 88.918 84.901 84.336 83.793 82.486 81.138 80.071 81.396 85.156 83.113 84.121 81.101 87.443 85.843 80.961 82.633 82.536 78.806 78.608 78.603 78.116 78.003 78.376 78.286 77.876 80.105 84.698 85.35 86.27 86.18 85.27 82.99 78.73 79.18 82.975 83.593 79.685 77.578 77.99 80.035 78.03 76.463 76.293 78.998 80.625 80.928 80.825 79.168 76.64 80.575 81.438 82.163 82.74 83.683 84.17 83.72 83.263 82.448 81.655 78.778 75.893 74.47 73.943 74.125 74.118 74.318 73.725 73.67 73.66 73.555 74.093 74.75 73.955 73.433 73.405 73.911 78.918 80.721 80.293 80.476 81.106 81.363 81.511 80.763 79.443 78.636 77.753 77.421 75.858 72.436 71.956 70.653 72.686 73.386 75.653 75.868 75.803 79.731 80.838 80.476 80.796 81.121 70.766 69.533 70.673 69.323 69.376 69.316 69.388 69.383 69.398 69.506 69.293 69.188 69.091 68.978 68.948 69.633 69.791 69.656 72.166 71.146 69.466 69.598 70.051 69.393 69.481 69.626 73.726 73.963 71.163 72.711 72.986 70.308 71.466 74.783 71.061 70.916 78.006 84.511 86.288 86.741 87.116 87.983 86.508 86.418 86.578 86.728 86.588 86.198 85.073 79.968 75.101 70.733 70.181 69.986 69.883 69.806 69.611 69.578 71.003 71.726 69.828 67.011 67.943 72.268 73.063 71.506 67.651 67.653 66.521 66.203 66.338 66.401 70.448 71.688 71.973 72.296 75.198 76.723 75.838 76.126 75.663 75.186 73.556 67.866 65.143 64.893 63.958 63.796 63.681 63.546 63.218 64.633 65.133 63.173 62.923 63.211 62.933 62.671 62.708 62.878 62.671 62.331 62.851 68.896 72.698 73.591 73.381 72.858 67.421 62.091 64.038 62.628 62.393 60.476 61.188 61.238 61.281 61.638 61.913 61.448 60.981 61.036 61.333 60.241 60.113 62.201 73.051 71.808 68.571 59.816 59.528 59.563 59.296 59.103 59.023 59.471 59.048 59.318 59.211 64.806 70.521 70.848 70.451 69.826 67.221 63.926 61.043 59.438 58.891 58.221 58.076 58.578 58.596 59.078 63.263 64.031 67.888 69.296 68.828 67.806 62.231 57.998 56.521 56.388 56.373 56.406 56.416 56.416 58.553 57.253 57.036 58.631 63.483 58.788 57.581 57.301 57.186 57.311 56.738 56.331 57.321 55.543 56.138 55.986 55.326 54.968 54.903 54.853 54.753 54.721 54.521 54.706 60.866 65.341 65.771 66.646 67.203 66.881 66.466 65.998 65.566 63.746 58.533 54.638 54.736 53.531 53.388 53.333 53.228 53.111 52.913 52.766 52.693 52.656 52.603 52.983 52.571 53.191 52.503 53.441 54.628 51.821 55.488 62.913 66.018 67.661 68.051 66.508 65.953 66.763 69.586 70.278 70.428 70.278 69.906 67.113 55.426 50.266 50.243 50.336 50.223 50.163 50.166 50.108 50.056 50.136 50.068 49.863 49.703 50.138 52.451 52.766 52.136 49.926 49.316 49.301 49.191 49.076 48.991 48.923 48.811 48.721 48.683 48.631 48.593 48.581 48.623 48.698 49.326 48.708 48.363 48.343 48.258 48.171 48.151 48.553 49.503 52.376 55.138 56.211 56.906 56.656 55.848 50.558 47.753 51.403 51.486 49.286 47.903 47.633 48.263 48.436 48.726 47.916 47.791 50.608 51.483 48.091 46.618 48.816 48.336 46.488 46.328 46.303 46.541 46.141 46.136 46.151 46.908 50.853 56.458 58.456 58.973 59.741 59.553 59.151 58.648 58.161 51.616 50.108 50.003
92.241 93.303 93.166 93.071 93.131 91.168 88.991 88.443 83.623 83.353 83.313 83.791 80.966 79.818 79.608 79.233 79.386 80.013 80.703 83.378 84.688 83.166 82.858 82.701 78.403 78.173 78.136 78.086 78.213 78.146 77.891 79.826 84.063 85.458 86.145 86.28 85.273 84.18 83.15 81.088 77.798 79.063 79.593 77.81 78.27 78.285 77.045 76.228 76.12 76.735 79.208 80.595 81.233 81.13 81.195 80.92 81.908 82.758 83.47 83.86 83.87 83.575 82.568 81.495 77.71 75.59 74.653 74.025 73.91 74.328 74.498 73.918 73.75 73.745 73.795 73.905 73.815 73.69 73.773 73.95 75 78.12 80.286 81.398 82.183 82.691 81.103 80.856 81.383 81.473 78.891 74.848 77.126 77.301 77.228 77.221 74.661 70.353 70.181 71.071 72.851 73.881 74.328 75.613 76.953 80.621 81.368 81.493 80.931 74.533 69.368 69.446 69.223 69.238 69.291 69.256 69.246 69.278 69.368 69.246 69.118 69.026 68.928 68.853 69.393 70.866 70.778 70.363 70.356 69.513 69.326 70.128 69.381 69.291 69.398 69.581 71.501 72.848 72.833 71.508 70.318 71.721 70.993 70.573 76.283 83.901 86.033 86.621 86.676 86.171 85.908 85.598 84.118 85.818 86.448 86.686 86.706 86.411 85.848 83.393 76.946 72.466 70.193 69.883 69.743 69.633 69.451 69.311 69.036 71.026 69.981 67.301 67.141 69.228 68.568 67.683 66.261 66.308 66.868 66.488 70.098 71.433 71.761 71.138 68.713 69.196 73.488 74.981 75.708 76.343 75.871 75.256 74.266 67.536 64.373 63.983 63.846 63.761 63.968 63.833 63.228 63.923 62.858 62.741 62.746 62.716 62.786 63.756 62.568 62.726 62.628 62.476 62.986 67.976 72.566 72.841 71.268 66.596 64.503 70.878 67.373 66.238 63.951 60.146 60.026 61.533 61.721 60.813 61.206 61.158 61.343 61.203 60.421 60.168 59.921 59.791 64.128 62.178 59.831 59.491 60.056 59.271 59.098 59.491 59.148 58.888 59.053 59.258 65.126 70.808 70.611 69.738 66.971 66.758 65.333 64.568 60.566 59.448 58.498 58.131 57.986 58.031 57.943 59.668 64.613 67.441 69.158 68.056 64.576 57.173 57.346 56.496 56.408 56.406 56.403 56.403 56.786 58.656 59.263 59.673 61.283 61.021 61.423 59.448 57.713 57.056 57.293 56.411 55.943 55.533 55.266 55.218 55.111 55.018 55.006 55.318 55.371 54.948 54.503 55.508 61.276 65.336 65.796 66.798 67.283 66.848 66.418 65.978 65.556 63.548 58.356 54.636 54.878 54.031 53.423 53.378 53.328 53.231 53.118 52.913 52.776 52.743 52.683 52.656 52.606 52.923 52.873 52.483 52.888 54.166 56.191 63.388 66.256 67.893 68.221 66.858 65.096 67.738 70.063 70.313 70.468 70.228 69.731 63.901 55.363 50.326 50.268 50.268 50.593 50.593 50.443 50.211 50.088 50.076 50.223 50.023 49.841 49.666 49.613 52.403 52.701 51.298 49.681 49.336 49.276 49.211 49.111 49.013 48.943 48.838 48.721 48.718 48.711 48.698 48.636 48.553 48.501 48.553 48.493 48.388 48.256 48.196 48.216 48.411 51.398 55.618 53.681 56.256 56.731 56.168 55.106 52.323 47.893 47.906 47.313 48.516 47.503 47.946 49.173 48.618 47.688 47.333 47.673 49.656 51.446 53.596 49.913 47.878 46.638 46.503 46.323 46.233 46.183 46.143 46.133 46.121 47.036 51.073 57.088 58.468 59.028 59.671 59.543 59.071 58.641 57.643 52.468 50.086 49.961 50.053
84.403 89.918 92.153 92.888 92.993 92.268 90.808 89.081 87.021 84.513 83.863 86.111 82.143 80.011 79.498 81.963 83.593 84.448 81.881 83.038 83.448 81.721 81.223 81.001 79.823 78.213 78.121 78.198 78.621 78.016 78.513 82.411 85.205 86.22 86.795 85.398 84.378 83.238 83.215 83.11 82.083 78.05 77.7 77.923 78.473 78.353 76.42 75.658 77.268 76.118 76.838 78.018 82.383 82.403 83.33 83.963 83.578 83.873 83.818 83.315 82.56 82.063 78.67 76.33 74.263 74.125 74.58 74.85 74.263 73.903 73.878 73.818 73.845 74.125 74.588 74.158 73.855 73.955 76.248 78.9 80.943 81.808 82.233 83.053 83.273 82.918 80.361 79.846 79.716 78.816 74.348 72.903 75.183 77.216 76.691 75.536 77.153 72.748 70.363 70.213 72.701 72.936 75.186 75.763 75.673 80.011 81.006 80.456 80.303 80.081 69.736 69.261 69.163 69.126 69.186 69.118 69.206 69.186 69.188 69.281 69.038 68.946 68.903 68.798 68.726 69.456 69.526 71.608 74.191 71.706 69.218 69.281 69.118 69.158 69.156 69.291 72.198 71.578 71.353 72.716 69.851 70.343 69.813 73.018 81.346 85.803 86.553 86.718 86.313 82.581 85.268 79.876 74.411 80.276 83.451 85.803 86.626 86.726 86.568 86.113 84.376 79.153 72.991 70.181 69.766 69.593 69.466 69.368 69.163 68.923 69.028 68.421 67.926 67.073 67.746 67.173 66.283 67.293 66.578 66.466 68.518 70.668 71.303 70.163 67.436 65.523 68.421 73.556 74.961 75.536 76.163 76.038 75.953 74.178 69.133 64.051 63.818 63.956 63.938 64.101 63.543 63.108 62.786 62.771 63.168 62.618 62.548 62.996 63.061 62.946 62.518 62.453 62.378 61.853 64.256 71.851 63.183 63.461 69.728 71.401 71.283 70.168 66.386 61.198 60.401 61.688 60.676 60.761 61.466 61.203 61.083 61.048 61.361 61.138 60.078 59.666 59.478 59.576 59.188 59.333 59.351 59.111 59.323 59.823 58.973 58.916 59.183 62.648 68.828 70.188 71.136 65.246 62.851 64.761 65.518 63.936 59.566 58.306 58.993 58.706 57.548 58.856 60.286 61.081 66.598 68.706 69.271 68.696 59.423 57.696 57.248 56.448 56.423 56.406 56.381 56.423 56.536 58.343 57.861 59.321 61.746 61.341 57.936 59.351 57.191 56.703 56.121 55.651 55.411 55.278 55.183 55.118 55.083 55.046 55.336 56.013 55.778 54.726 56.033 63.428 65.401 65.868 66.738 67.208 66.798 66.373 65.961 65.511 63.566 57.143 54.828 55.433 54.281 53.641 53.543 53.393 53.293 53.253 53.166 53.008 52.826 52.761 52.733 52.721 52.568 52.546 52.546 52.176 57.278 65.673 65.138 66.443 68.006 67.776 67.541 66.563 64.096 66.576 69.661 70.433 70.208 69.476 63.261 53.598 50.358 50.346 50.273 50.236 50.513 50.781 50.726 50.211 50.113 50.101 50.266 50.181 49.768 49.641 50.046 50.521 50.756 49.458 49.303 49.281 49.211 49.203 49.126 49.028 48.996 48.893 48.808 48.786 48.778 48.723 48.611 48.561 48.551 48.556 48.478 48.351 48.256 48.393 49.046 53.153 56.393 57.006 55.693 55.796 56.221 55.218 53.628 52.951 51.761 47.878 48.178 47.286 47.436 49.193 50.718 47.776 47.096 47.116 48.348 51.828 54.023 53.876 48.666 48.166 46.428 46.398 46.256 46.201 46.778 46.201 46.136 47.261 52.188 57.313 58.503 59.061 59.726 59.516 59.051 58.583 58.096 51.793 50.366 50.011 49.963 50.003
83.671 83.831 85.076 89.373 92.341 92.408 92.466 91.841 88.278 83.146 84.093 82.481 80.673 79.871 79.828 80.953 81.728 82.061 81.866 79.486 81.003 82.223 78.713 79.538 79.801 78.193 78.228 78.538 78.038 78.258 81.141 85.133 86.003 86.53 85.718 84.708 79.665 82.988 83.218 83.248 81.805 77.893 77.68 78.733 77.91 76.54 76.658 77.618 80.65 79.75 76.37 79.07 82.703 83.505 84.08 84.108 84.268 83.26 82.615 81.31 78.768 77.01 75.19 74.463 74.463 74.508 74.505 74.295 73.9 73.898 73.873 73.95 74.485 75.135 73.808 73.913 75.658 77.888 79.988 81.025 82.405 82.998 83.316 82.963 81.956 81.338 78.571 76.688 77.608 77.643 77.298 73.148 72.193 73.181 73.428 73.538 74.873 74.651 71.206 70.701 72.071 71.221 72.851 75.101 73.968 75.451 80.218 80.806 81.716 81.351 75.781 69.201 69.091 69.038 69.098 69.106 69.103 69.083 69.101 69.168 69.043 68.903 68.801 68.733 68.678 68.923 69.491 72.223 73.096 72.793 69.731 69.071 69.001 68.958 69.021 69.151 69.533 69.451 70.331 69.843 69.568 69.516 71.168 79.411 84.946 86.381 86.676 86.478 83.963 81.996 80.511 72.663 70.716 77.756 81.101 81.673 83.673 86.491 86.706 86.671 86.321 85.653 80.641 76.546 70.863 69.598 69.433 69.368 69.248 68.878 68.888 69.928 72.263 71.743 69.116 66.741 67.308 66.891 65.526 65.448 66.906 67.153 69.421 68.608 66.101 66.791 69.906 71.608 73.901 74.706 75.561 76.471 75.448 74.898 74.346 72.411 66.213 64.656 64.313 63.781 63.298 63.186 62.908 62.758 62.936 62.398 62.378 62.296 62.623 63.753 62.256 62.436 62.688 61.951 61.888 62.583 62.718 68.761 71.231 71.858 72.083 71.533 70.861 62.196 60.218 60.026 60.736 61.508 61.258 61.276 61.733 60.898 60.426 60.701 60.751 60.218 59.388 59.191 59.053 59.046 59.068 59.001 59.058 59.006 59.228 59.136 62.543 68.698 70.098 70.741 70.403 68.136 61.108 62.333 63.963 60.718 59.466 58.256 58.171 60.416 58.871 57.766 60.458 63.511 65.966 69.318 69.033 68.128 62.641 58.091 56.816 56.473 56.398 56.393 56.348 56.451 56.618 56.846 58.043 59.023 59.818 59.778 59.576 57.151 56.833 56.053 55.608 55.468 55.361 55.391 55.476 55.361 55.061 54.908 54.781 54.953 54.633 55.516 61.946 65.481 65.876 66.948 67.196 66.763 66.343 65.881 65.481 63.453 57.358 55.116 56.826 54.126 54.601 53.613 53.703 53.358 52.318 52.461 53.213 53.058 52.923 52.841 52.781 52.693 52.573 52.596 52.363 57.451 67.076 68.101 67.018 68.478 67.423 65.838 64.863 64.448 64.458 67.623 68.441 69.863 69.338 62.446 52.776 50.263 50.373 50.313 50.281 50.273 50.253 50.461 50.373 50.178 50.088 50.058 49.973 49.843 49.718 50.166 51.646 52.643 50.773 49.346 49.268 50.063 51.211 49.721 49.153 49.148 49.008 48.903 48.863 48.811 48.776 48.688 48.656 48.636 48.606 48.508 48.351 48.313 48.586 48.568 52.448 56.393 57.073 57.766 57.878 55.826 52.676 51.201 52.268 52.666 50.778 48.223 47.696 48.013 47.588 49.518 48.511 48.021 47.148 47.896 49.908 51.501 54.288 51.736 49.403 46.538 46.376 46.288 46.248 46.698 47.343 46.506 47.716 52.391 57.393 58.586 59.246 59.883 59.451 59.021 58.568 56.888 51.551 50.168 50.516 50.081 49.946 49.953
82.826 83.273 83.703 84.118 88.056 91.423 92.301 92.428 92.151 86.771 84.941 81.361 85.028 81.971 79.121 82.853 81.433 81.931 83.898 82.746 82.618 80.793 78.798 78.333 78.248 78.113 78.343 78.228 78.083 82.156 84.958 85.738 86.528 85.913 84.845 81.623 77.678 79.4 82.903 82.643 79.208 77.66 78.39 78.013 77.96 76.955 76.508 80.208 81.735 81.083 81.463 82.745 84.165 84.083 84.083 84.055 84.093 82.303 81.7 74.973 74.43 74.22 74.408 74.283 74.645 74.155 74.008 74.01 73.945 74.308 74.845 74.015 73.813 73.92 75.888 78.605 81.78 81.688 81.793 81.81 82.075 82.91 82.106 81.136 80.168 78.343 73.158 74.151 77.663 77.646 77.066 72.981 72.766 71.983 72.121 72.776 72.816 74.548 73.273 71.528 71.481 71.303 70.633 73.083 75.423 76.343 80.256 81.486 81.393 80.323 78.933 69.936 69.058 68.943 68.971 68.968 69.001 69.016 69.016 68.998 69.073 68.801 68.761 68.671 68.616 68.538 70.221 71.991 71.336 74.056 69.141 68.966 68.896 68.846 68.891 68.996 69.188 69.363 69.381 69.421 69.278 69.736 76.788 84.288 86.196 86.741 86.661 86.006 81.271 79.161 75.818 72.201 71.226 76.226 79.243 81.566 81.288 84.631 86.336 86.661 86.726 86.506 85.993 84.573 77.066 72.276 70.116 69.446 69.043 68.626 68.418 68.431 68.718 71.273 72.486 69.006 67.253 65.783 65.676 65.791 66.126 65.481 65.803 66.216 65.118 69.033 70.931 70.931 70.503 70.628 74.668 74.968 75.151 75.496 75.221 74.511 73.563 66.516 63.981 63.883 63.488 63.091 63.113 63.491 62.781 62.316 62.763 62.376 62.066 62.303 62.428 62.241 62.563 62.303 61.771 61.808 62.301 66.883 71.203 71.708 72.346 71.893 71.523 71.298 65.963 62.448 62.806 61.341 61.866 60.978 60.373 60.321 60.973 61.683 59.616 59.873 59.521 59.101 59.086 59.078 59.043 59.503 59.618 58.808 58.931 60.858 68.706 70.043 70.801 70.651 69.771 67.203 60.243 58.966 58.528 58.563 59.213 59.046 58.508 59.368 58.506 57.638 58.006 62.533 63.508 67.073 68.546 65.803 57.828 57.366 56.553 56.381 56.406 56.381 56.321 56.431 56.696 56.978 57.993 58.408 57.968 58.943 58.531 57.138 56.518 55.698 55.593 56.516 57.278 56.316 56.343 56.246 55.218 54.923 54.803 54.596 55.253 61.586 65.521 66.026 66.973 67.181 66.726 66.281 65.886 65.431 62.713 57.451 55.936 55.651 55.471 53.781 53.583 54.736 54.153 58.886 52.273 50.818 53.226 53.046 52.911 52.866 52.761 52.673 52.571 52.628 51.968 57.296 65.916 67.786 68.373 67.371 65.783 64.783 64.183 64.253 64.973 68.881 68.291 67.138 63.543 51.653 50.976 50.476 50.391 50.343 50.348 50.518 50.276 50.248 50.196 50.088 50.021 50.221 50.343 50.251 49.756 50.941 53.026 52.921 52.128 49.513 49.636 51.233 51.143 49.948 49.696 49.428 49.453 48.933 48.848 48.818 48.791 48.713 48.683 48.603 48.543 48.428 48.411 48.676 49.081 53.981 56.726 57.156 57.838 58.553 56.948 57.783 52.451 48.121 49.648 50.148 49.148 49.688 48.873 47.898 47.641 48.341 49.836 48.021 48.358 49.878 50.168 50.758 51.446 50.436 46.938 46.556 46.981 46.386 46.226 46.483 46.496 47.331 52.926 58.146 58.608 59.268 59.791 59.411 58.976 58.518 57.786 51.151 49.978 49.943 50.601 50.253 49.916 49.953
81.826 81.898 83.458 83.663 82.796 84.741 88.293 91.993 89.943 86.026 84.263 84.316 88.828 88.981 84.046 81.888 81.456 79.288 81.343 85.228 79.813 80.338 78.941 78.328 78.291 78.433 77.958 78.176 81.428 84.393 85.638 86.436 85.965 85.095 84.12 83.06 79.528 77.723 78.903 78.525 77.728 79.415 80.633 76.743 76.705 76.86 76.625 80.74 81.108 81.58 82.535 83.65 84.41 83.768 83.055 82.463 81.618 76.468 74.928 74.405 74.455 74.643 74.845 74.12 74.06 74.038 73.975 74.56 74.79 74.4 75.303 74.1 74.598 77.768 81.465 82.01 82.578 83.143 83.51 81.753 81.253 80.898 79.848 78.943 78.426 78.036 74.768 73.021 76.568 75.003 72.788 72.288 72.508 72.391 72.096 73.086 73.316 72.256 72.098 71.511 71.461 71.423 71.946 74.733 76.508 75.281 74.598 80.278 80.036 80.073 80.683 76.001 68.981 68.908 68.886 68.886 68.891 68.913 68.873 68.888 68.918 68.851 68.736 68.601 68.508 68.488 68.856 69.263 69.111 70.266 68.841 68.823 68.791 68.868 69.003 68.803 68.973 69.438 69.548 70.141 69.036 75.073 82.123 85.921 86.603 86.661 86.218 82.963 76.043 71.048 71.153 70.716 70.743 70.998 73.943 77.818 80.381 79.321 85.016 86.123 86.606 86.783 86.598 86.213 85.158 79.913 75.193 70.623 69.076 68.446 68.206 68.141 68.043 68.143 69.436 71.618 69.498 66.296 65.741 66.101 65.996 65.416 65.833 64.701 64.788 69.383 71.118 70.616 68.831 64.976 65.298 72.378 74.323 75.118 75.558 75.223 74.981 74.298 67.416 63.363 63.218 63.198 63.213 63.656 63.943 62.481 62.298 62.911 61.976 61.916 61.858 62.668 61.761 61.781 61.881 61.886 62.701 61.621 65.751 69.966 71.418 71.848 72.441 72.001 71.203 70.113 63.568 61.096 60.931 60.281 60.758 60.653 63.158 64.213 59.748 59.628 60.006 59.096 59.046 59.026 58.943 59.443 58.911 58.901 58.898 62.126 69.961 70.676 70.623 69.956 68.748 64.921 63.083 59.001 58.626 58.316 58.161 58.556 59.208 59.333 58.686 58.358 57.773 59.971 65.481 68.196 68.488 61.876 58.051 58.248 56.551 56.371 56.391 56.376 56.321 56.426 56.653 57.173 59.086 58.053 57.308 57.383 57.213 56.913 56.103 55.723 57.183 61.238 60.348 56.186 56.266 56.426 57.968 57.971 57.813 57.393 61.908 63.863 65.748 67.001 67.146 66.721 66.366 65.861 65.403 62.693 55.623 54.478 56.106 55.306 53.701 53.648 56.503 58.823 59.583 62.193 61.781 53.336 52.651 53.008 52.881 52.833 52.733 52.663 52.611 52.698 52.011 51.831 59.796 66.163 67.916 67.743 65.851 64.296 63.976 65.011 66.496 67.008 65.246 60.163 52.011 51.171 50.741 50.456 50.393 50.331 50.421 50.731 50.668 50.336 50.183 50.093 49.996 50.246 50.386 50.296 49.706 49.571 50.881 51.831 49.538 49.508 50.983 51.338 49.756 49.101 49.183 49.671 49.931 49.008 48.843 48.861 48.826 48.731 48.696 48.598 48.518 48.511 48.516 49.821 54.758 56.781 57.203 58.258 58.218 57.558 57.731 57.318 56.888 49.958 47.783 48.086 50.358 50.598 48.038 47.751 48.188 48.341 52.941 53.421 49.776 50.021 50.286 48.241 47.658 47.601 46.458 46.673 46.538 46.221 46.178 46.221 48.038 54.536 58.206 58.636 59.323 59.843 59.388 58.923 58.486 56.353 50.501 50.103 50.066 49.998 49.916 49.898 49.953 49.996
81.701 81.558 81.481 82.128 82.278 82.493 83.718 85.551 85.253 86.078 84.433 88.203 89.476 89.816 89.348 86.286 81.771 81.253 80.571 84.138 80.533 78.653 78.378 78.268 78.833 78.696 78.101 79.078 84.761 85.843 87.051 86.468 85.165 83.92 83.63 83.773 83.393 80.618 77.58 77.515 77.895 78.178 78.02 77.355 76.395 77.793 76.893 76.02 80.83 82.3 83.525 84.178 83.665 82.465 78.453 75.113 74.965 74.393 74.31 75.053 74.95 74.225 74.133 74.138 74.103 74.005 73.955 74.13 74.055 74.19 75.343 78.745 81.53 81.693 82.288 83.205 84.118 83.08 81.675 80.815 80.185 77.02 73.243 77.246 78.133 78.121 77.801 73.651 73.018 72.801 74.056 72.478 72.418 73.318 73.213 72.918 75.401 72.106 72.058 71.981 71.676 70.756 71.908 72.316 73.106 72.226 73.918 78.588 80.788 81.021 80.643 80.951 71.836 68.921 68.753 68.778 68.783 68.778 68.811 68.781 68.808 68.823 68.648 68.578 68.488 68.426 68.343 69.006 69.031 68.936 68.811 68.693 68.728 68.956 69.818 68.643 68.681 68.978 70.516 68.766 72.516 80.806 85.658 86.496 86.718 86.441 85.486 77.551 72.816 70.736 70.746 70.351 69.498 70.553 70.703 73.303 72.906 73.328 76.556 82.493 85.881 86.413 86.678 86.681 86.411 85.781 83.828 76.498 71.498 68.363 68.128 68.041 67.938 67.851 68.216 68.168 72.281 72.891 69.693 66.686 66.201 65.863 65.263 64.738 65.156 66.503 68.631 69.308 64.761 64.518 66.273 69.531 73.458 74.223 74.831 75.431 75.526 74.161 73.551 69.983 63.921 63.131 63.463 63.771 62.973 62.868 62.361 61.993 61.813 61.766 61.753 61.663 61.986 62.326 61.673 62.661 61.886 62.241 61.911 62.971 69.881 71.446 72.406 71.896 71.363 67.503 63.103 66.023 59.196 60.236 60.266 61.448 62.996 61.093 59.553 59.551 59.468 59.051 59.076 58.943 59.373 60.591 58.976 58.963 61.158 67.276 70.218 70.961 70.058 68.583 66.183 65.661 64.756 61.788 58.533 58.866 58.326 59.041 58.931 58.533 58.373 58.636 58.086 61.606 67.691 69.391 69.333 68.378 63.041 58.733 57.586 56.328 56.363 56.361 56.308 56.368 56.596 58.271 59.833 58.786 57.131 57.223 57.123 57.006 55.908 57.363 60.676 58.318 56.066 55.831 56.616 58.188 58.366 58.561 58.011 57.781 60.128 64.298 65.186 66.813 66.646 66.343 65.931 65.458 61.893 56.158 54.783 55.276 53.748 53.673 53.628 53.621 56.541 61.228 62.241 62.878 63.353 63.101 52.888 52.698 52.833 52.826 52.863 54.141 52.596 52.611 52.413 52.006 53.081 63.363 66.383 68.126 67.573 65.673 65.246 66.661 65.843 63.668 57.408 57.098 56.586 51.621 50.666 50.511 50.418 50.358 50.303 50.628 50.711 50.516 50.166 50.066 49.948 49.908 49.881 49.803 49.581 49.551 49.446 49.908 49.413 50.973 51.456 49.976 49.133 49.141 49.111 49.066 49.408 48.861 48.803 48.766 48.721 48.713 48.646 48.548 48.528 48.598 49.388 53.013 56.506 57.363 58.268 57.543 58.003 57.673 57.263 56.861 54.813 49.516 48.766 49.073 50.223 48.491 47.733 47.573 47.478 51.518 53.278 53.801 54.348 53.226 48.748 47.186 46.636 46.633 46.388 46.316 46.273 46.208 46.223 48.231 54.093 58.241 58.728 59.561 59.768 59.336 58.891 58.448 56.713 50.241 49.973 50.188 50.296 49.913 49.928 49.951 49.983 50.013
81.603 81.461 81.356 81.228 81.273 82.048 82.298 82.468 81.573 83.708 85.141 88.983 89.816 90.376 90.503 89.183 86.833 84.586 79.508 78.891 78.921 78.476 78.353 78.578 78.353 78.121 79.436 82.841 85.728 86.763 86.918 85.736 82.943 81.848 83.43 84.238 84.298 80.843 78.475 78.12 79.538 76.74 76.685 77.398 78.673 81.01 79.023 77.865 81.835 83.05 84.1 83.893 82.923 78.8 75.503 74.383 74.273 75.08 74.82 74.35 74.208 74.185 74.168 74.053 74.02 74.025 74.008 74.12 74.67 78.398 82.173 82.035 82.66 83.063 83.4 83.02 82.558 81.925 80.848 79.4 78.753 77.31 73.843 75.198 78.113 76.386 74.471 73.233 73.698 72.853 74.206 73.961 72.881 73.863 72.938 71.741 74.583 72.048 71.823 71.643 71.001 70.456 71.373 72.073 72.861 75.031 75.161 76.151 80.441 81.101 82.958 84.466 75.813 68.808 68.736 68.616 68.658 68.683 68.688 68.666 68.681 68.766 68.641 68.516 68.431 68.338 68.226 68.526 69.001 68.856 68.778 69.163 69.018 68.611 69.146 68.481 68.523 68.533 68.521 69.638 77.801 84.761 86.283 86.713 86.571 85.086 80.603 72.843 70.731 70.771 70.291 68.641 68.361 68.751 70.658 70.733 70.691 70.756 72.038 74.706 80.913 83.108 85.413 86.611 86.708 86.536 86.121 84.841 78.186 68.733 68.063 67.966 67.908 67.788 67.658 67.368 70.693 73.211 73.183 71.363 67.288 65.643 64.818 64.778 66.346 67.838 64.873 64.843 64.421 65.006 68.918 70.106 71.426 72.023 73.943 75.321 75.328 74.901 74.336 73.808 71.253 65.368 65.311 64.208 62.486 62.578 62.296 62.368 61.926 61.678 61.603 61.548 61.556 61.908 61.683 61.428 61.856 62.606 61.281 60.798 61.148 69.621 71.166 71.388 70.156 65.623 69.291 70.658 67.371 63.268 63.288 62.078 59.553 62.881 59.711 60.033 59.101 59.021 59.003 60.691 61.046 61.643 58.946 58.838 66.068 69.698 70.463 70.701 69.443 61.411 63.788 65.001 65.458 60.441 58.291 58.431 58.666 60.181 59.258 59.041 59.271 59.241 57.411 57.976 66.506 69.301 68.291 67.498 62.406 58.286 57.581 56.358 56.316 56.338 56.266 56.353 56.446 58.926 59.298 60.753 61.021 58.213 58.853 56.543 55.956 56.358 59.233 58.203 59.983 56.938 58.198 58.386 58.558 58.678 58.033 58.086 60.436 64.723 65.048 65.091 65.988 65.891 65.038 60.751 55.321 54.821 55.043 54.453 53.683 53.621 53.606 54.731 60.083 62.316 62.943 63.356 63.076 62.623 61.548 52.883 52.851 53.638 58.343 56.623 57.331 52.916 52.601 52.171 51.928 53.603 65.583 67.918 68.451 67.363 66.853 65.883 63.871 58.416 57.063 57.073 57.083 54.838 51.196 50.956 50.496 50.373 50.366 50.361 50.631 50.351 50.093 50.021 49.946 49.888 49.793 49.666 49.606 49.508 49.391 49.618 51.021 51.471 50.271 50.558 51.101 49.138 49.181 49.076 49.266 49.828 48.756 48.671 48.688 48.711 48.646 48.521 48.533 48.718 50.288 54.141 55.643 58.021 57.748 58.008 57.626 57.203 56.788 53.118 48.858 49.036 48.606 50.043 49.131 47.806 47.366 47.698 50.438 53.093 53.608 54.186 54.671 54.186 52.576 49.551 47.208 46.468 46.363 46.341 46.261 46.226 48.541 54.736 58.256 58.706 59.456 59.746 59.298 58.866 58.373 55.978 50.303 50.221 49.936 50.271 49.928 49.918 49.941 49.968 50.006 50.011
81.523 81.386 81.231 81.713 81.366 81.001 82.131 81.468 81.768 81.463 79.808 84.458 89.303 90.766 90.228 90.051 89.208 82.921 78.841 78.691 78.496 78.416 78.558 79.006 78.356 79.126 83.418 85.441 86.641 87.071 86.281 84.953 79.17 77.943 80.745 83.39 81.593 78.505 78.025 79.24 79.023 76.86 76.165 78.14 81.08 81.555 81.028 81.615 83.053 84.355 84 83.023 80.118 75.23 74.575 74.735 74.748 74.388 74.308 74.285 74.22 74.15 74.085 74.023 74.06 74.24 74.36 78.69 81.18 81.583 82.688 83.488 83.583 83.1 82.488 81.533 80.923 76.575 76.805 78.815 78.783 78.735 75.956 74.051 74.658 73.911 73.431 73.056 74.801 74.658 75.423 74.156 71.976 71.826 72.006 72.138 74.553 76.448 75.581 71.818 71.441 71.143 70.448 70.796 70.293 74.043 71.816 72.386 80.938 85.586 85.351 85.233 83.171 68.906 68.671 68.551 68.561 68.566 68.583 68.578 68.563 68.613 68.641 68.523 68.376 68.301 68.198 68.116 68.901 68.848 68.681 68.813 69.176 68.443 68.403 68.483 68.376 68.391 69.031 75.811 82.823 86.101 86.661 86.678 85.196 81.501 80.273 72.716 70.736 70.516 69.313 68.353 68.358 68.371 68.376 69.548 70.773 70.943 70.758 70.721 77.783 81.196 81.913 84.563 86.513 86.718 86.663 85.993 72.368 68.096 68.038 67.983 67.893 67.768 67.678 67.318 67.136 72.381 73.773 72.743 69.891 65.016 64.883 65.001 65.261 64.711 64.618 64.636 64.208 68.078 69.981 70.386 69.888 67.583 67.963 74.966 75.218 75.271 75.126 74.513 73.948 72.703 67.096 63.791 62.601 62.333 62.351 63.226 63.578 62.136 61.521 61.431 61.416 61.383 61.338 62.181 61.166 61.158 62.216 62.023 61.968 60.861 66.291 70.536 62.386 67.433 70.691 71.036 70.391 68.231 65.053 63.361 60.371 60.583 60.718 59.633 59.056 58.998 58.981 59.166 60.261 60.313 58.951 58.783 58.861 65.431 70.603 70.058 68.423 63.236 60.078 63.223 62.016 59.488 58.603 58.283 63.016 65.458 58.653 58.848 59.861 57.713 57.193 57.063 57.236 64.483 68.033 63.881 58.236 57.123 57.101 56.308 56.251 56.276 56.283 56.293 56.348 56.461 58.951 60.841 59.758 62.113 59.531 57.288 55.908 56.476 58.283 57.216 57.881 58.226 58.383 58.586 58.601 58.136 58.201 60.403 64.748 65.668 65.411 64.418 64.493 65.008 60.641 56.186 54.561 55.108 53.908 53.703 54.506 53.656 55.451 61.218 62.346 63.011 63.433 63.068 62.591 62.151 61.706 54.306 53.746 57.041 60.958 58.896 57.773 59.743 54.978 52.343 52.116 51.783 59.371 67.938 67.108 68.213 67.178 66.003 61.866 57.293 57.016 57.056 57.076 57.078 54.756 51.196 50.856 50.491 50.358 50.321 50.231 50.223 50.191 50.008 49.903 49.811 49.726 49.658 49.588 49.461 49.428 50.736 51.478 50.831 50.003 52.023 52.616 54.048 50.721 49.123 49.003 49.411 49.868 48.668 48.601 48.661 48.623 48.548 48.476 48.536 48.521 51.766 56.103 56.938 57.936 57.538 57.146 56.731 53.601 49.196 49.478 53.931 49.883 49.266 47.891 48.273 47.408 47.488 52.406 53.423 53.948 54.491 54.628 53.491 52.928 48.921 46.706 46.478 46.416 46.966 46.391 48.806 55.618 58.326 58.838 59.521 59.716 59.258 58.813 58.378 54.516 50.293 50.021 50.026 50.723 49.896 49.913 50.006 50.153 50.001 50.006 49.993
