ncols 427
nrows 31
xllcorner    529062
yllcorner    185852
cellsize     2
NODATA_value -9999
54.979 56.846 56.929 57.084 59.679 61.836 63.389 59.999 60.166 63.214 63.249 63.279 61.986 52.149 46.674 46.719 49.069 49.509 49.146 50.189 48.051 46.491 47.234 50.104 49.434 48.629 46.931 48.079 46.191 46.101 46.096 46.049 46.026 46.076 46.474 54.024 54.531 54.914 55.721 56.899 58.669 60.659 61.604 61.776 61.199 59.249 55.806 45.241 45.104 45.081 45.051 45.146 45.321 44.864 44.934 50.729 58.734 59.511 60.046 60.209 59.719 56.834 55.944 48.524 42.139 42.021 41.979 42.064 43.306 43.379 49.389 51.856 51.851 51.844 50.176 47.581 45.461 42.596 41.726 42.066 42.214 41.064 40.959 40.789 40.811 40.801 40.671 41.439 44.556 46.631 44.656 40.314 40.694 40.066 40.021 40.124 39.966 39.761 39.649 39.559 39.501 39.411 39.341 39.286 39.201 39.131 39.074 38.969 38.956 39.104 39.471 39.481 39.151 39.011 39.151 39.034 39.066 38.396 38.594 39.216 38.066 38.191 38.694 38.751 38.931 37.984 37.984 41.996 43.586 39.636 38.144 38.906 43.539 44.719 39.614 39.106 38.929 38.351 38.439 38.334 38.319 38.431 38.291 38.954 43.999 47.229 48.124 47.584 45.449 39.794 43.174 45.216 46.076 43.896 41.104 40.606 39.861 45.671 46.064 45.421 43.346 43.259 40.116 38.394 38.779 37.539 37.631 37.039 37.109 36.999 37.134 36.921 36.869 36.944 36.999 36.956 36.586 36.439 36.454 36.266 36.226 36.156 36.194 36.231 36.154 36.109 36.081 35.979 36.676 36.706 36.231 35.991 35.844 35.894 35.836 35.774 35.759 35.686 35.639 35.636 35.546 35.539 35.476 35.426 35.431 35.399 35.389 35.381 35.549 36.079 36.181 35.359 35.719 35.626 35.171 35.156 35.179 35.159 35.521 35.769 35.241 35.461 35.709 36.304 35.634 35.721 35.504 36.059 36.729 36.411 35.511 35.499 35.164 35.174 37.296 36.634 35.421 35.201 38.261 38.234 40.369 41.769 43.466 45.461 45.596 45.936 46.026 46.299 46.601 46.614 47.219 47.124 45.154 47.226 47.124 47.079 47.566 47.376 47.421 42.676 42.979 46.266 46.599 46.874 46.359 46.181 46.161 45.926 45.029 43.229 41.979 41.339 41.956 40.394 39.139 38.909 37.876 37.281 36.409 34.984 35.471 33.616 33.749 34.036 34.396 34.164 34.859 33.891 33.934 33.854 33.824 33.754 33.896 34.359 33.929 33.699 33.714 33.554 33.569 34.386 33.479 33.469 33.471 33.489 33.346 33.584 33.959 34.541 33.426 33.289 33.774 33.231 33.149 34.146 36.456 36.424 36.796 35.399 37.464 37.058 34.103 34.541 33.723 33.801 33.836 33.718 33.546 33.676 36.266 36.271 36.238 36.151 36.163 36.461 35.353 35.281 34.051 33.743 34.123 33.746 33.573 35.041 34.588 33.443 33.448 34.496 37.011 35.261 34.886 37.911 37.681 40.068 36.573 34.838 35.948 33.623 33.198 33.663 32.846 34.678 36.006 36.113 34.221 34.526 35.263 33.318 32.681 37.156 35.451 32.496 33.023 32.613 33.496 35.601 32.548 34.081 35.178 33.061 36.246 36.943 36.791 34.963 32.671 34.143 33.213 32.638 32.991 32.491 32.953 32.643 32.401 33.363 33.266 32.471 33.516 32.671 32.591 32.903 32.401 32.638 36.741 39.356 34.548 32.436 33.806 33.716 32.561 32.121 32.181 32.403 32.356 32.181 32.051 35.183 38.008 34.343 31.538 34.121 34.768 34.423 33.116 34.328 33.073 33.318 33.568 33.323 35.361
56.916 56.866 56.851 56.874 56.961 57.161 59.101 63.441 63.224 63.209 63.244 63.286 63.354 63.384 55.379 46.651 47.064 50.066 48.026 48.964 48.676 47.784 47.911 48.616 52.019 47.236 46.631 47.724 46.566 46.121 46.049 46.086 46.019 45.981 46.104 51.016 54.699 53.276 54.614 57.049 59.124 60.911 61.444 61.629 60.856 58.854 53.736 45.236 45.076 45.114 45.071 46.344 47.029 44.911 45.144 52.376 54.881 55.666 56.269 57.061 56.734 54.471 55.616 46.736 42.044 42.164 42.159 42.649 42.939 43.441 51.909 51.981 51.896 49.424 49.629 47.739 43.906 43.424 41.686 41.769 42.924 44.941 42.246 40.739 40.724 40.764 40.889 43.421 44.166 44.596 43.179 42.196 40.099 40.014 39.889 39.794 39.759 39.681 39.589 39.526 39.461 39.379 39.309 39.291 39.869 39.574 38.999 39.139 39.779 39.641 39.129 39.229 39.109 38.591 39.029 38.751 38.886 38.584 38.171 39.131 38.896 41.041 42.371 44.061 41.899 39.371 39.291 45.251 45.401 43.061 39.701 43.389 44.794 47.279 43.614 39.384 40.251 38.446 38.304 38.519 38.529 38.256 38.314 38.734 41.686 46.314 47.726 48.346 47.291 45.841 45.909 46.444 46.314 44.669 40.246 38.461 37.471 38.196 38.441 38.329 38.291 37.881 37.289 37.436 37.481 37.964 37.974 37.349 37.546 36.929 37.256 36.846 37.086 36.594 36.569 36.509 36.446 36.424 36.391 36.336 36.231 36.216 36.161 36.149 36.154 36.089 36.056 35.986 35.996 35.944 35.941 35.861 35.864 35.886 35.856 35.791 35.764 35.719 35.611 35.569 35.529 35.489 35.479 35.439 35.806 36.034 35.319 35.311 35.356 35.609 35.321 35.311 35.314 35.681 35.476 35.466 36.841 37.479 37.396 36.329 36.291 35.471 36.071 37.574 36.299 35.344 35.596 36.291 36.756 35.979 35.376 35.809 38.084 40.824 40.886 43.899 43.251 45.291 45.574 45.836 46.131 46.206 46.669 46.771 46.909 47.601 47.259 47.314 47.416 47.246 47.056 47.139 44.859 46.431 46.176 45.879 46.136 47.191 46.941 42.846 42.604 45.921 44.576 43.649 42.086 41.836 40.104 41.059 38.629 37.314 37.881 35.379 35.876 34.616 33.691 36.884 37.101 35.196 34.296 34.961 34.766 34.059 34.331 34.794 35.156 34.009 35.031 35.064 33.954 33.964 34.249 33.809 34.079 36.596 37.831 36.024 34.549 33.621 33.541 33.571 34.051 33.474 33.406 33.469 33.796 33.604 34.044 34.329 33.331 33.306 33.349 33.261 33.216 35.164 35.774 37.496 37.256 37.639 37.714 36.951 34.916 34.108 33.923 33.766 33.843 33.791 33.586 33.593 35.996 36.316 36.248 36.063 36.141 36.973 36.883 35.341 34.821 34.763 36.443 35.091 33.368 33.121 32.933 32.898 32.856 32.868 32.841 33.738 33.568 35.841 38.553 39.748 37.748 35.053 34.503 33.421 33.063 32.843 32.913 34.771 36.901 34.928 34.586 32.926 33.511 33.366 32.753 33.033 33.748 32.576 32.713 33.288 33.056 34.041 32.651 34.213 34.686 33.608 36.838 34.913 37.526 34.203 32.726 33.416 33.276 32.568 33.228 32.561 32.591 33.016 32.458 32.546 32.673 32.513 34.046 32.683 33.536 33.841 32.626 33.096 37.746 38.526 35.056 32.361 33.518 34.736 33.556 32.223 32.218 32.178 33.401 32.731 32.106 32.388 34.281 34.761 35.951 36.978 36.903 36.166 36.296 36.151 38.938 40.983 41.903 42.556 43.703
56.866 56.856 56.886 56.889 57.094 56.879 59.631 63.316 63.206 63.216 63.266 63.314 63.346 63.374 63.341 54.156 47.194 48.169 48.939 46.566 46.479 46.551 47.479 48.039 52.906 48.941 47.401 46.984 46.534 46.154 46.021 46.056 46.001 45.964 46.006 46.201 52.846 53.016 54.379 57.299 59.231 59.969 60.886 60.676 60.224 58.456 51.429 45.259 45.104 45.099 45.111 46.796 46.206 46.309 46.416 53.961 55.061 55.809 55.456 54.621 46.884 44.121 46.074 43.176 42.784 44.259 46.124 47.214 47.489 46.841 51.816 51.964 51.931 51.614 49.454 49.766 45.279 43.321 41.796 42.609 41.584 41.459 41.434 40.719 40.676 40.761 41.174 43.589 42.176 42.044 41.891 40.116 40.079 39.954 39.846 39.759 39.726 39.656 39.959 40.116 40.186 39.274 39.506 39.471 39.071 39.321 39.126 38.709 38.834 38.521 38.469 38.834 40.126 38.561 38.561 38.421 42.426 43.574 41.274 38.151 38.529 43.759 45.689 45.499 41.344 41.494 43.464 46.626 47.259 47.354 47.764 48.886 49.434 48.839 48.059 38.886 40.239 38.856 38.319 38.449 38.779 38.181 38.394 38.081 39.069 43.246 47.761 48.666 47.836 47.026 46.826 44.721 41.514 39.129 37.651 37.039 36.971 37.401 37.404 37.244 38.084 38.234 37.276 37.339 37.336 37.829 37.451 36.899 36.824 36.749 36.691 36.726 38.359 36.569 37.401 37.051 36.431 36.399 36.386 36.329 36.271 36.236 36.189 36.139 36.121 36.096 36.059 36.066 36.011 35.989 35.946 35.896 40.404 40.901 40.496 35.899 35.776 35.631 35.806 36.669 35.946 35.486 35.446 35.456 35.486 35.414 35.401 35.454 35.696 35.364 35.794 36.516 37.021 36.816 35.511 35.704 35.629 37.109 36.504 35.209 36.441 35.434 35.821 36.901 36.416 37.269 38.136 39.341 41.209 43.044 43.141 45.029 45.471 45.951 46.111 46.334 46.471 46.774 46.894 47.176 47.941 47.284 47.379 47.284 47.091 47.379 46.639 46.431 46.324 46.019 45.786 45.551 41.316 44.361 42.781 41.559 38.291 38.204 39.886 41.109 40.004 39.639 37.984 36.971 36.861 34.691 35.314 34.849 34.451 34.891 37.124 34.769 34.466 34.316 34.939 37.741 37.319 37.609 34.056 34.746 35.811 34.094 34.079 34.076 35.219 33.946 35.824 35.881 34.349 33.941 35.461 33.816 33.769 34.956 34.031 34.074 34.166 33.556 33.519 34.086 35.394 33.374 33.624 34.251 34.091 34.944 37.656 37.096 34.114 33.349 33.736 33.416 33.359 34.016 34.761 33.734 35.111 35.379 34.224 34.326 34.318 34.421 34.668 33.793 33.816 33.801 33.633 33.631 35.058 34.801 36.768 40.156 44.281 44.566 44.826 37.653 37.096 39.008 37.183 34.661 33.423 33.188 33.291 33.016 33.051 33.113 32.931 33.091 32.963 36.471 39.708 38.123 36.226 34.126 32.913 32.846 33.186 34.028 32.906 33.036 33.138 33.158 33.338 32.606 32.796 33.923 32.978 33.263 33.398 32.606 32.638 32.801 32.588 33.663 32.983 32.803 34.546 34.596 35.283 35.926 34.213 34.898 32.523 32.903 32.686 32.788 32.878 33.001 32.578 33.453 32.453 32.791 32.883 33.851 32.936 32.701 37.006 37.826 37.881 35.788 36.273 36.623 37.396 32.253 34.048 34.083 31.946 31.506 32.013 32.233 35.616 37.683 35.838 32.878 34.813 40.591 42.046 41.446 41.083 39.833 39.236 42.213 44.141 44.591 44.953 44.933 44.206
56.101 56.904 56.906 57.101 56.991 57.546 62.801 61.811 61.024 63.216 63.294 63.321 63.381 63.406 61.244 55.979 48.871 47.259 46.624 46.459 46.451 46.469 47.889 48.984 51.651 51.371 47.789 46.771 46.486 46.224 46.061 46.031 46.006 45.974 45.906 45.979 48.884 55.186 54.894 54.889 53.496 55.256 57.724 58.779 59.729 58.179 48.509 45.254 45.166 45.166 45.121 47.279 45.196 44.956 46.731 54.389 55.224 55.839 55.314 54.491 43.776 42.729 42.729 42.686 44.221 48.696 47.934 50.564 45.426 47.549 48.184 47.361 45.946 44.449 44.161 43.789 42.946 41.771 41.281 41.646 40.939 40.821 40.681 40.654 40.636 40.689 40.644 40.436 40.376 40.274 40.179 40.091 40.126 40.471 40.316 40.036 40.084 40.299 40.331 39.301 40.014 39.224 39.111 39.606 38.856 40.034 39.944 39.029 38.919 39.684 41.259 42.911 44.069 40.364 39.299 39.151 45.376 45.966 44.381 39.841 41.459 45.661 46.899 47.469 47.561 48.169 48.179 48.374 48.621 48.946 49.159 50.269 49.729 49.664 48.901 43.491 38.531 38.436 38.251 38.226 38.149 38.074 38.204 38.236 38.311 41.196 45.936 47.859 47.571 43.876 43.294 38.686 37.174 37.166 37.289 38.131 37.586 37.726 37.994 37.581 37.389 37.574 37.086 37.014 36.966 37.086 37.169 37.984 37.381 37.911 37.184 36.804 37.254 36.536 36.536 36.509 36.429 36.456 36.374 36.314 36.314 36.276 36.211 36.189 36.154 36.076 36.016 36.026 35.981 35.981 41.301 38.979 42.134 40.461 44.361 40.609 35.731 35.619 35.616 35.609 35.551 35.591 35.626 35.479 35.749 36.346 36.796 37.816 36.266 35.464 35.489 35.739 36.841 36.271 35.516 36.109 35.426 36.746 36.861 36.541 38.196 39.546 42.221 43.289 44.899 44.844 45.231 45.681 46.154 46.539 46.539 46.791 47.011 47.144 48.069 47.336 47.321 47.304 46.979 46.791 47.024 45.174 46.199 46.029 45.801 44.956 44.206 42.679 43.996 42.876 38.616 37.349 37.471 39.854 39.999 39.844 35.001 37.091 39.771 40.229 35.771 34.951 34.104 34.124 34.196 34.201 34.174 34.214 34.239 34.291 34.571 34.241 34.171 34.419 36.726 40.109 38.256 35.821 34.089 34.681 34.754 34.139 34.126 34.131 37.404 35.021 36.406 38.921 35.309 33.829 35.454 33.981 33.889 33.754 33.611 33.654 33.721 33.599 33.556 33.704 34.519 33.664 39.069 36.404 34.219 34.996 39.669 42.529 38.526 33.601 34.161 33.606 33.616 34.749 34.089 33.926 34.126 35.684 35.151 35.573 35.986 33.793 33.951 33.856 33.901 33.793 33.881 33.728 33.786 34.223 40.181 45.026 45.768 45.948 45.138 41.896 39.483 39.453 38.771 35.921 33.646 33.358 33.211 33.238 33.083 32.853 33.243 35.261 33.458 34.888 35.926 36.261 32.801 32.866 32.776 32.891 33.126 34.233 33.031 32.976 34.118 32.686 33.671 32.758 32.643 33.981 33.961 33.241 33.946 32.708 33.241 33.946 33.256 33.366 33.161 33.263 32.808 33.756 32.736 32.501 33.401 34.531 32.443 32.708 34.286 32.801 33.078 34.358 33.041 32.698 34.096 36.886 37.973 38.076 33.561 32.941 37.768 38.048 38.041 37.588 34.581 38.161 37.006 32.373 32.446 32.303 31.291 32.483 33.953 36.878 38.513 41.096 42.373 43.863 44.026 44.793 44.946 44.291 41.173 39.641 39.376 41.553 44.196 45.421 46.463 45.491 44.416
55.916 56.296 57.109 57.011 52.469 60.854 61.506 63.251 57.301 60.624 63.296 63.351 63.386 63.496 55.166 53.599 51.714 48.561 46.476 46.444 46.449 47.686 51.569 47.331 48.344 48.686 48.979 46.731 47.036 46.184 46.051 46.009 45.976 45.989 45.926 45.929 46.139 54.989 54.849 54.391 50.659 51.166 53.496 54.984 55.831 55.846 46.446 45.241 45.151 45.144 45.446 47.736 44.929 44.971 47.564 54.574 55.389 55.871 55.141 54.311 43.764 42.744 42.691 42.684 44.584 45.844 50.606 45.559 44.404 45.251 46.281 42.446 41.901 42.101 41.989 41.556 41.476 41.359 41.199 41.071 40.909 40.771 40.686 40.654 40.626 40.686 40.629 40.591 40.419 40.339 40.219 40.201 40.794 39.824 39.636 40.006 40.016 39.911 40.279 39.331 39.514 40.021 39.134 39.994 38.954 43.141 43.431 44.069 38.836 39.136 42.704 46.266 46.159 40.899 39.984 42.964 46.481 47.844 47.899 47.981 48.546 48.574 48.899 49.176 49.339 50.046 49.836 49.534 49.631 49.301 49.126 49.861 48.729 49.391 48.339 44.901 38.481 38.174 38.209 38.226 38.124 38.046 38.091 38.566 38.239 38.366 41.891 43.099 41.714 39.411 37.879 37.951 37.776 37.766 38.394 37.734 37.349 37.294 37.266 37.166 37.096 37.644 37.869 37.269 38.066 37.531 37.274 37.019 36.869 36.696 36.674 36.619 36.629 36.601 36.549 36.509 36.479 36.409 36.344 36.316 36.259 36.226 36.211 36.159 36.119 36.056 36.031 36.014 35.999 35.999 35.951 40.379 46.429 42.434 44.119 36.791 35.961 37.134 37.646 38.201 37.769 37.836 36.539 35.906 35.519 35.599 36.186 36.296 35.374 35.694 35.641 35.696 37.501 41.929 39.061 39.404 41.336 42.959 44.209 45.494 45.404 45.954 46.056 46.446 46.581 46.719 47.181 47.134 47.244 47.891 47.276 47.146 47.096 46.889 47.046 46.751 45.626 46.096 45.799 44.771 44.756 42.881 43.511 42.564 40.901 36.656 35.421 38.641 40.144 40.289 37.471 34.874 36.239 39.856 39.929 39.866 34.866 36.821 39.421 39.256 34.406 34.514 35.259 35.809 34.484 34.316 34.486 34.884 35.316 34.216 34.614 34.251 34.174 34.239 34.326 38.631 37.216 37.281 34.116 34.174 35.134 34.236 34.129 34.114 36.079 34.694 35.199 35.966 35.129 34.011 35.346 34.059 34.091 34.424 33.619 33.686 33.919 33.931 33.736 33.811 35.014 37.846 39.591 37.681 35.744 37.921 43.429 44.396 40.439 34.206 34.884 33.776 34.196 35.056 36.156 35.406 36.041 40.011 38.854 34.721 34.763 33.818 34.138 33.833 33.886 33.858 34.373 34.188 34.091 33.896 38.213 44.226 45.983 46.453 45.431 43.026 39.791 39.391 38.666 36.451 34.086 33.138 32.948 32.951 32.911 32.866 33.391 35.128 36.398 34.686 33.416 32.906 33.106 32.981 33.453 33.331 33.368 34.076 32.728 32.858 34.741 32.976 33.266 33.733 32.683 33.136 33.261 32.766 33.208 32.963 32.808 33.366 32.711 33.103 33.503 33.001 32.816 33.371 32.808 32.533 33.083 35.341 35.206 33.426 33.348 36.043 38.068 38.361 36.016 33.131 35.798 38.008 38.386 38.076 34.966 33.383 36.888 38.008 38.871 37.481 33.046 33.683 36.436 39.303 40.791 42.271 42.621 44.233 44.166 40.391 40.316 41.703 42.651 44.441 45.381 46.411 45.721 44.188 41.613 39.636 39.138 41.188 44.108 44.758 43.473 44.496 44.148
56.216 56.479 56.971 56.416 54.239 55.911 59.341 62.316 63.296 61.801 62.209 63.359 63.274 58.224 53.674 53.699 49.169 46.461 46.369 46.389 46.989 50.421 56.691 47.761 47.601 49.401 47.794 48.686 46.591 46.516 46.146 45.949 45.981 45.979 45.934 46.481 45.936 52.281 54.801 55.199 55.684 52.761 54.381 54.889 54.939 52.936 45.334 45.204 45.196 45.196 45.864 47.091 44.954 44.971 50.476 54.716 55.564 55.801 54.976 53.571 43.246 43.449 43.159 42.639 42.644 45.099 48.024 46.066 47.561 45.789 44.506 42.116 42.626 41.681 41.604 41.624 41.506 41.371 41.236 41.074 40.884 40.729 40.606 40.656 40.641 40.549 40.491 40.396 40.326 40.281 40.246 40.206 40.856 39.524 39.514 39.814 40.026 39.511 40.379 40.969 43.964 45.244 40.401 39.551 38.919 45.781 46.636 46.236 40.069 42.366 44.849 47.211 48.164 48.026 48.631 48.686 48.931 49.356 49.509 49.769 50.171 49.824 49.876 49.829 49.534 49.456 49.371 48.524 48.301 47.939 47.699 46.804 46.431 45.029 43.876 42.274 38.761 38.264 38.149 38.144 38.116 38.034 37.986 38.096 38.171 37.989 38.769 37.866 38.054 37.966 37.784 37.674 38.849 38.209 37.714 38.081 37.609 37.226 37.201 37.109 37.076 37.511 37.186 36.969 36.949 36.901 36.871 36.819 36.856 36.751 36.686 36.626 36.619 36.556 36.534 36.436 36.441 36.411 36.316 36.264 36.171 36.106 36.189 36.216 36.174 36.091 36.054 36.014 36.031 38.911 42.684 40.441 44.776 47.214 43.709 43.054 36.909 36.771 36.494 36.226 35.664 37.289 36.589 35.916 35.614 35.969 36.564 37.606 38.596 38.121 38.591 43.289 44.889 45.636 45.916 46.174 46.249 46.419 46.636 46.591 46.869 47.034 47.111 47.771 47.489 47.021 47.029 47.086 47.016 47.064 45.759 45.984 45.844 45.481 44.561 42.941 42.494 42.791 42.116 38.771 35.879 35.814 40.299 40.371 39.779 35.774 35.111 37.829 40.231 40.211 37.851 34.739 35.279 39.756 40.066 38.134 36.201 36.286 37.801 37.069 34.621 34.621 35.929 35.304 34.531 34.469 34.556 35.291 34.461 34.204 34.839 34.339 34.326 34.196 34.316 35.871 36.611 36.441 34.094 34.451 35.921 34.181 34.114 34.099 35.059 34.359 34.126 34.609 34.324 33.889 35.559 34.411 34.094 38.144 34.024 33.954 33.996 34.009 33.764 34.666 36.434 37.011 35.174 34.699 36.664 39.734 43.424 43.189 41.739 34.964 34.176 34.401 33.776 35.721 43.886 45.271 45.629 45.624 44.714 36.556 34.571 34.083 34.061 34.198 33.908 33.883 34.238 34.088 33.911 34.221 36.843 44.193 45.858 46.031 45.478 43.123 39.343 39.256 39.236 36.486 35.486 33.153 33.046 32.966 32.921 32.881 33.243 36.531 36.208 34.796 33.251 32.738 32.766 32.798 33.903 33.386 33.208 34.258 33.191 33.051 34.298 32.868 33.168 33.738 32.838 33.018 33.216 32.878 33.333 32.956 32.891 33.191 32.966 33.148 34.426 34.041 33.008 33.398 33.083 34.601 38.358 38.376 38.293 34.161 32.993 36.858 38.551 38.648 38.413 33.961 35.798 38.013 38.356 38.036 35.948 33.598 37.353 40.106 41.756 40.496 41.203 36.968 39.793 42.523 44.703 45.178 45.551 45.538 44.528 41.693 39.608 40.081 41.126 43.526 45.381 45.903 45.258 44.653 43.521 39.686 39.568 38.821 43.121 43.301 42.378 40.928 40.078
56.931 57.111 56.899 52.396 55.699 50.766 50.989 57.206 60.771 60.574 61.716 63.419 59.264 53.701 53.711 50.261 46.469 46.401 46.319 46.464 46.631 48.641 53.726 50.284 47.744 47.531 47.111 46.629 46.571 46.394 47.894 46.046 45.976 46.001 45.969 46.864 46.189 46.306 57.799 61.519 61.461 60.944 55.429 54.871 55.094 50.534 45.346 45.244 45.201 45.174 45.169 45.016 44.944 44.984 52.146 54.896 55.669 55.616 54.791 49.981 43.486 43.291 42.774 42.621 42.614 42.646 45.929 43.684 45.809 44.751 44.131 43.619 41.679 41.584 41.579 41.604 41.576 41.464 41.294 41.086 40.736 40.576 40.539 40.609 40.916 41.929 41.739 40.501 40.534 41.114 41.696 41.129 40.606 39.691 42.196 44.886 45.084 39.541 39.431 42.354 47.136 47.016 44.139 41.746 42.814 47.206 48.334 48.624 48.924 48.954 49.011 49.244 49.591 49.769 50.151 50.539 50.236 50.266 50.229 49.956 50.156 49.079 48.766 48.526 47.934 47.699 46.541 45.916 44.829 42.641 43.054 40.441 38.369 38.761 39.339 39.341 38.929 38.259 38.144 38.076 38.084 38.029 37.899 37.964 37.991 37.894 37.816 37.756 37.689 37.629 37.574 37.501 38.156 38.316 37.481 38.031 37.596 37.291 37.244 37.219 37.161 37.079 37.031 36.981 36.941 36.899 36.891 36.779 36.804 36.746 36.686 36.616 37.059 36.879 37.149 36.986 36.284 36.324 36.316 36.266 36.256 36.214 36.294 36.326 36.176 36.171 36.049 36.061 36.064 36.599 44.219 40.251 41.121 43.306 43.171 43.721 36.421 35.846 35.709 36.599 36.471 37.056 39.941 40.971 42.504 44.281 44.811 45.584 45.939 46.089 46.469 46.494 46.766 47.144 47.104 47.324 47.316 47.286 47.356 47.294 47.359 46.924 46.524 46.439 46.244 45.944 45.826 46.364 45.976 44.401 40.674 42.311 41.836 40.766 36.839 35.489 38.239 40.446 40.349 38.264 35.149 35.149 40.081 40.321 40.409 37.181 34.704 36.816 40.049 39.991 38.311 34.481 34.569 37.061 37.086 34.691 34.559 35.121 36.399 35.396 34.989 34.406 34.459 34.411 34.389 34.541 34.356 35.046 36.136 35.849 35.034 34.351 34.241 34.234 34.481 36.879 35.361 36.141 34.121 34.354 35.109 34.371 35.606 35.261 34.464 34.796 35.146 34.634 36.529 38.711 36.826 34.349 37.506 36.456 37.216 34.019 33.991 34.281 37.221 36.154 38.129 37.611 36.169 35.501 36.131 35.716 36.309 39.356 36.871 33.789 33.791 36.084 38.576 38.549 44.414 45.644 46.539 46.014 44.764 36.541 34.508 34.063 33.831 34.101 33.936 33.898 33.878 34.136 33.858 33.803 35.006 42.336 45.591 45.923 45.426 43.306 36.401 37.341 37.233 36.203 34.516 33.231 33.381 33.431 34.196 34.028 33.891 33.716 33.513 33.441 33.351 32.768 32.823 32.798 33.688 32.976 32.913 34.006 33.188 32.961 34.236 32.886 32.998 33.598 32.948 32.951 33.191 32.946 34.703 34.351 34.611 33.408 33.363 38.701 38.866 38.763 35.538 33.273 32.813 34.683 38.368 38.853 38.363 36.093 32.708 36.881 38.796 39.611 38.376 34.151 35.116 40.446 40.491 42.226 41.338 42.103 43.703 43.843 44.303 44.301 43.973 41.971 39.583 41.626 44.736 45.996 46.961 45.926 44.828 42.151 39.758 39.411 38.941 43.921 44.293 44.243 43.813 42.553 38.523 33.921 34.461 34.016 35.838 35.246 33.721 33.736 32.751
56.659 55.422 52.092 52.899 50.232 46.569 48.362 49.869 55.442 58.284 63.414 59.704 53.694 52.594 49.942 46.509 46.344 46.327 46.444 46.849 47.046 47.546 49.206 48.991 49.044 50.684 49.429 46.659 46.896 48.301 49.179 49.191 45.954 45.989 46.004 46.749 45.936 45.901 56.849 61.146 61.416 61.524 61.491 60.461 58.206 46.334 45.316 45.251 45.239 45.209 45.154 44.976 44.971 46.371 54.281 55.091 55.784 55.421 54.614 48.469 42.859 42.814 42.654 42.609 42.616 42.634 43.116 45.481 47.171 45.029 49.434 45.204 41.641 41.609 41.589 41.636 41.569 41.346 41.139 40.936 40.646 40.444 41.351 42.016 42.551 43.141 42.884 46.114 45.851 43.751 46.234 46.036 40.511 39.554 45.534 47.151 46.474 41.194 42.669 46.204 48.619 49.139 49.124 49.389 49.334 49.539 49.861 50.031 50.279 50.974 50.321 50.399 50.496 50.504 50.316 50.371 49.319 49.074 48.556 48.494 48.026 47.336 44.909 44.411 43.944 41.146 39.719 39.044 39.436 39.161 42.349 41.499 40.641 39.176 39.424 39.069 39.019 38.266 38.146 38.086 38.034 38.001 37.884 37.851 37.854 37.799 37.749 37.696 37.701 37.661 37.581 37.574 37.484 37.476 37.409 37.379 37.339 37.324 37.201 37.196 37.199 37.101 37.009 36.959 36.921 36.914 37.094 36.939 37.351 37.349 37.739 37.021 37.156 36.624 36.584 36.466 36.481 36.491 36.394 36.496 36.386 36.386 36.411 36.779 36.376 36.139 36.109 36.036 36.036 38.454 43.824 43.699 47.089 41.611 47.161 38.524 35.654 36.089 38.016 43.199 45.146 45.651 46.234 46.329 46.586 46.759 46.919 47.619 47.109 47.311 47.401 47.374 47.351 47.844 47.076 46.909 46.731 46.469 46.261 46.769 46.991 45.766 45.186 43.574 42.061 41.176 41.926 42.379 42.044 38.199 35.826 40.271 40.269 40.046 37.206 35.236 35.804 40.454 40.516 40.201 34.969 34.526 38.434 39.879 40.159 36.149 34.724 35.636 36.271 36.959 34.526 34.509 34.994 36.856 37.161 34.844 34.584 34.734 34.431 34.259 35.346 35.114 34.426 34.409 34.669 34.774 36.256 39.629 39.624 37.996 34.849 34.576 34.494 37.094 39.491 36.136 35.624 34.769 34.091 34.456 34.921 34.631 39.871 40.079 37.106 36.606 34.939 37.196 38.409 40.671 36.304 37.711 35.044 37.046 36.634 34.576 34.941 35.964 37.049 34.934 39.951 39.516 38.509 33.904 33.521 33.491 33.519 33.879 33.441 33.589 33.886 38.114 39.441 39.589 42.766 45.716 46.744 46.239 45.316 35.981 34.221 34.313 34.108 34.636 33.946 33.903 33.961 34.573 33.738 33.851 35.026 42.196 44.836 42.106 41.276 40.063 34.678 37.878 38.411 36.303 33.988 33.451 33.261 35.333 39.198 35.588 33.076 33.263 32.988 32.998 33.863 34.198 33.826 32.838 33.768 33.023 34.041 35.008 33.258 33.756 35.513 34.123 33.531 34.501 36.021 33.313 33.426 35.923 38.838 38.776 37.263 33.496 33.956 38.653 38.976 38.758 37.193 33.156 34.123 33.586 38.256 39.178 38.391 36.521 36.618 40.258 41.101 42.981 43.678 43.031 43.956 43.968 44.238 44.403 44.561 45.273 45.003 45.196 45.386 45.218 44.221 39.578 39.873 41.303 42.156 45.173 45.116 44.751 44.503 40.911 36.551 36.276 34.743 38.813 39.351 38.526 35.133 32.271 33.781 32.381 33.396 32.781 32.608 32.478 36.238 35.088 36.121
56.182 49.939 51.154 50.104 48.919 46.597 46.799 46.702 48.834 56.004 59.314 53.212 51.152 52.072 47.167 46.417 46.374 46.414 46.662 46.696 49.266 49.239 50.554 51.634 50.174 51.376 51.734 49.544 49.569 50.374 51.114 50.879 46.019 46.006 46.039 46.044 45.949 45.896 48.614 61.116 61.389 61.441 61.476 61.404 56.351 45.466 45.329 45.261 45.276 45.189 45.151 45.006 45.019 49.039 54.479 55.254 55.831 55.251 54.419 44.461 43.059 43.599 42.684 42.639 42.651 42.674 42.686 44.559 46.224 46.781 43.036 42.354 41.669 41.674 41.644 41.796 41.796 42.494 42.154 42.246 44.376 43.079 43.096 45.464 48.496 50.059 49.836 54.234 54.026 54.371 54.219 54.469 41.214 44.114 46.119 48.854 50.111 50.931 50.229 51.134 50.559 50.326 50.476 50.849 51.414 50.774 50.824 50.791 50.671 50.884 49.921 49.616 49.404 49.079 48.904 48.379 47.634 44.571 43.869 43.904 41.186 39.881 39.086 39.719 39.139 38.999 38.836 38.861 38.989 40.499 43.359 44.344 41.864 39.176 38.766 38.416 38.344 38.321 38.231 38.064 38.044 38.016 37.934 37.934 37.889 37.876 37.794 37.781 37.721 37.709 37.651 37.584 37.531 37.501 37.419 37.396 37.321 37.316 37.259 37.186 37.151 37.109 37.289 37.926 37.624 37.206 37.346 37.464 36.931 36.746 36.724 36.834 37.186 36.866 36.686 36.599 36.969 36.816 37.709 36.686 36.539 36.481 36.311 36.444 37.031 36.176 36.121 36.036 36.091 36.079 42.271 40.841 42.179 42.239 36.964 36.491 35.866 40.156 43.051 45.619 46.706 47.001 47.484 47.556 47.639 47.634 47.529 47.851 46.319 46.829 46.759 46.494 46.296 46.199 45.366 45.794 45.004 43.984 42.174 40.021 41.699 40.921 40.456 37.311 36.051 36.746 40.276 40.614 40.599 36.124 35.651 40.029 40.461 40.119 37.774 35.366 35.559 39.051 39.589 37.784 34.619 35.104 34.864 36.154 35.916 34.496 35.321 34.621 34.579 34.939 34.441 34.356 34.976 34.779 35.236 34.681 34.569 34.779 34.906 34.379 34.561 34.994 34.529 34.494 34.454 36.129 38.286 41.779 38.539 36.276 35.006 36.029 36.929 38.171 36.919 36.829 37.299 38.299 40.901 38.536 36.374 37.299 38.269 41.161 36.296 37.836 34.814 36.484 37.729 40.476 39.779 38.386 38.364 37.441 36.896 35.339 35.964 35.726 37.741 38.639 40.086 39.181 36.886 34.991 33.694 33.829 33.491 33.489 34.484 33.991 34.471 37.569 39.526 40.014 42.199 45.416 46.411 46.321 45.354 41.793 34.448 34.513 33.963 34.271 33.916 33.998 33.861 33.816 33.776 34.273 34.528 36.553 34.956 34.116 34.708 34.138 35.461 36.183 35.211 34.436 33.993 33.466 33.198 34.838 36.716 36.956 33.046 33.031 32.963 32.856 33.828 35.596 35.461 33.256 34.463 33.326 34.098 36.341 36.663 36.021 36.348 36.343 38.313 39.128 39.086 36.011 33.513 37.086 38.821 38.776 38.738 35.261 33.951 38.501 38.831 39.346 37.011 34.201 33.633 38.958 41.848 42.921 43.686 43.853 44.168 45.186 44.743 44.866 44.978 45.658 45.286 45.288 45.468 45.578 45.498 46.318 45.603 45.073 44.993 44.228 44.166 41.883 37.213 39.748 42.976 42.133 42.366 41.126 37.513 34.593 32.658 32.996 33.056 32.693 32.718 33.416 32.838 32.378 32.523 32.978 33.048 33.146 32.558 35.036 39.831 37.396 38.853
55.517 50.137 49.429 49.494 49.524 47.627 46.667 46.704 46.697 47.152 49.982 53.169 52.662 47.244 46.502 46.429 46.374 46.594 47.439 48.669 51.951 51.066 47.936 49.189 51.234 49.524 49.329 51.506 51.966 50.886 53.171 49.309 47.661 47.774 46.031 46.029 45.989 45.869 45.836 58.984 61.291 61.454 61.406 61.221 54.734 45.484 45.314 45.299 45.259 45.209 45.094 45.004 45.039 50.331 54.636 55.441 55.756 55.069 53.086 43.349 42.699 42.666 42.671 42.629 42.641 42.679 43.276 43.754 46.664 44.579 46.576 42.819 41.759 41.704 41.649 41.671 43.476 45.819 47.079 50.024 52.716 51.924 54.239 54.326 54.324 54.341 54.361 54.354 54.379 54.374 54.389 54.371 44.786 47.104 50.224 50.496 51.509 51.519 51.769 51.496 51.146 51.216 51.066 50.951 51.214 50.034 49.826 49.556 49.219 48.996 48.459 47.164 44.859 44.014 42.194 40.349 40.634 39.911 40.041 39.246 39.796 40.206 39.414 39.234 39.136 39.234 39.256 38.994 38.756 38.716 39.709 39.839 40.331 40.719 38.556 38.446 38.404 38.329 38.274 38.191 38.116 38.079 38.024 37.984 37.961 37.926 37.869 37.809 37.754 37.741 37.661 37.641 37.524 38.069 37.906 37.636 38.006 37.361 37.251 37.171 37.144 37.141 37.301 37.064 36.991 36.916 36.949 37.101 37.019 36.939 36.804 37.294 37.556 37.121 36.694 36.689 36.869 36.929 37.531 36.786 36.199 36.861 35.846 35.576 36.726 36.591 36.129 36.014 36.081 36.086 37.394 38.521 41.249 36.984 36.031 36.174 35.821 41.699 44.031 45.441 46.914 47.334 47.774 47.656 47.724 46.829 46.451 46.359 45.991 45.546 44.861 44.681 42.381 39.321 41.401 40.434 40.401 40.279 36.661 35.629 39.509 40.864 40.229 39.271 36.891 35.201 40.434 40.651 40.546 35.686 35.249 39.089 39.246 38.376 35.359 35.706 34.891 35.021 37.064 34.716 34.741 35.614 34.524 35.511 34.571 34.456 35.321 34.706 34.524 34.989 34.494 34.399 34.759 34.534 34.616 34.661 34.574 34.794 35.056 34.394 34.894 36.214 34.631 34.479 34.516 35.049 39.946 37.394 36.016 35.646 34.609 37.134 36.636 37.526 37.924 35.129 34.864 38.301 41.759 37.149 36.369 39.511 41.404 37.911 35.824 39.156 39.684 36.164 36.139 36.846 38.511 37.854 35.184 35.616 35.094 34.821 35.039 34.506 34.059 39.484 37.751 34.794 37.636 36.564 34.299 34.111 33.936 34.699 33.919 33.636 33.616 35.406 39.374 39.471 38.801 45.306 45.851 45.871 44.234 40.553 34.291 34.921 33.898 33.736 33.896 34.026 33.951 33.771 33.726 34.516 34.553 33.976 34.368 34.138 34.141 33.656 34.146 34.661 33.273 33.293 33.236 33.156 34.053 33.996 34.998 33.238 33.078 33.111 33.313 32.941 33.951 35.773 36.821 33.836 34.416 33.201 36.378 39.278 39.223 39.073 36.046 35.088 38.541 39.223 39.326 38.086 33.358 35.523 38.796 39.201 38.878 35.368 36.768 40.713 43.131 43.648 43.826 43.343 33.043 41.306 44.493 44.793 45.148 45.203 45.683 46.056 45.786 45.916 45.878 45.658 45.773 45.038 44.816 44.756 44.428 43.283 44.018 43.768 41.481 42.966 41.601 38.043 33.976 34.363 35.121 34.196 33.893 33.146 32.576 32.686 33.223 32.871 32.826 32.581 35.586 36.476 33.388 33.431 32.781 32.726 32.613 32.638 32.478 35.551 37.041 35.888 36.208
50.289 48.252 48.969 49.384 49.322 48.059 46.752 46.679 46.694 46.684 46.657 49.712 47.244 46.607 46.472 46.484 46.424 46.597 46.807 49.666 51.639 50.571 49.369 49.741 52.651 50.204 48.479 49.541 49.566 51.821 56.286 53.374 50.939 46.061 46.031 46.024 45.976 45.916 45.824 48.619 59.944 61.374 61.396 60.459 46.581 45.426 45.326 45.229 45.221 45.184 45.079 44.964 45.024 51.751 54.806 55.601 55.631 54.886 51.514 43.074 43.321 42.821 42.646 42.631 42.666 42.959 43.184 43.019 42.899 43.406 42.341 42.009 41.884 41.821 41.701 41.824 50.551 54.321 54.334 54.341 54.341 54.326 54.346 54.351 54.366 54.369 54.389 54.134 54.411 54.411 54.406 53.634 43.109 47.129 51.424 51.499 51.506 51.226 51.421 50.966 50.124 50.059 49.404 49.434 49.296 47.201 46.714 44.476 44.484 42.204 41.461 40.264 40.371 39.991 39.721 39.976 39.671 39.606 39.526 39.461 39.531 39.609 39.449 39.046 38.981 39.056 39.331 38.786 38.721 38.669 38.621 38.581 38.764 38.581 38.616 38.554 38.456 38.391 38.316 38.221 38.191 38.099 38.021 38.031 37.951 37.899 37.866 37.779 37.751 37.719 37.621 37.754 39.621 39.226 38.219 37.656 37.621 37.311 37.274 37.189 38.551 39.056 38.944 37.544 37.526 37.116 37.261 37.031 36.824 36.931 36.944 37.194 37.436 37.096 37.321 37.134 37.329 37.534 37.994 38.364 42.561 42.774 45.321 41.149 36.161 36.514 36.179 36.096 36.019 36.241 36.151 38.301 37.584 36.636 36.416 35.991 36.459 39.504 43.819 45.296 46.349 46.299 46.599 46.441 45.846 44.806 44.564 41.356 38.061 39.951 40.729 40.286 38.136 35.841 39.781 40.314 40.381 40.409 36.454 36.561 39.629 41.024 40.299 38.619 37.081 34.979 39.329 39.194 39.134 36.164 35.196 36.211 37.821 36.344 35.134 34.874 34.921 34.821 37.174 34.966 34.759 35.376 34.539 34.724 34.926 34.474 34.989 34.819 34.539 34.526 34.919 34.961 34.806 34.829 34.586 34.719 34.581 34.681 35.324 34.766 35.371 36.834 34.691 34.514 34.501 34.774 36.199 35.556 36.149 34.744 35.131 41.389 39.829 40.234 42.214 37.844 37.769 39.219 43.994 39.766 38.049 37.324 43.769 40.189 37.071 39.534 38.866 37.464 36.651 35.191 35.296 36.094 34.739 34.726 34.739 34.491 34.344 35.071 36.271 39.004 38.716 36.841 35.919 34.724 33.616 33.454 33.451 33.469 33.461 33.524 33.609 35.216 35.004 33.561 34.601 41.104 40.164 37.926 36.069 36.113 35.068 34.501 33.908 34.241 33.976 33.998 33.938 33.833 33.703 33.828 33.628 33.536 33.521 33.491 34.876 33.816 33.301 33.956 33.226 33.391 33.933 33.378 33.613 33.258 32.976 34.946 36.336 34.551 34.523 35.518 38.691 38.833 38.708 33.268 34.691 33.756 36.083 39.148 39.983 39.076 35.408 35.143 37.921 40.496 40.753 38.071 36.946 39.948 41.881 43.973 44.193 43.991 44.726 44.848 45.066 45.411 45.348 44.616 36.668 41.271 44.783 45.798 45.943 45.743 45.686 45.703 45.158 43.673 44.773 44.218 44.308 43.728 43.483 41.371 41.416 40.903 38.701 37.208 34.393 34.666 33.491 33.123 32.986 33.261 33.151 32.916 33.796 33.893 33.298 32.708 32.831 33.708 32.876 32.736 35.608 37.816 33.298 32.603 32.393 32.388 32.423 32.326 32.538 32.383 35.191 36.968 37.553
47.547 47.579 49.014 49.242 49.189 49.199 47.137 46.687 46.712 46.692 46.692 46.677 46.687 46.669 46.569 46.462 46.454 46.569 46.709 49.281 53.541 50.494 48.139 49.586 51.071 52.834 50.386 49.801 56.229 51.116 51.454 50.656 53.471 46.056 46.021 46.039 45.981 45.956 45.861 45.874 59.359 61.411 60.784 60.934 46.249 45.511 45.329 45.311 45.311 45.181 45.076 44.976 45.039 52.934 54.994 55.786 55.534 54.719 49.401 42.794 43.349 42.726 42.629 42.636 42.711 43.181 43.174 43.041 42.966 43.271 42.396 42.119 41.961 41.904 41.804 41.811 50.319 54.356 54.366 54.384 54.399 54.374 54.371 54.379 54.411 54.416 54.014 54.409 54.361 54.406 54.429 54.419 46.599 45.724 50.631 50.346 50.079 48.961 49.594 47.921 47.614 46.231 43.766 43.686 41.609 41.764 41.109 41.134 40.296 39.721 39.804 40.036 39.891 39.741 39.911 39.741 39.526 39.431 39.354 39.379 39.284 39.846 39.254 38.986 38.964 39.191 39.389 38.836 38.766 38.769 38.674 38.669 39.341 39.274 38.661 38.539 38.464 38.451 38.334 38.284 38.189 38.124 38.054 37.981 37.974 37.929 37.859 37.759 37.731 37.784 37.731 37.656 37.621 37.546 37.534 37.466 37.384 37.311 37.216 37.166 37.831 39.884 38.986 38.676 37.089 37.214 37.034 36.741 36.689 36.544 37.459 36.771 37.924 39.281 42.331 45.444 45.904 47.311 47.931 48.256 48.424 48.584 48.784 48.156 41.879 36.066 36.214 36.339 36.121 36.749 36.179 36.204 36.139 36.094 36.351 35.961 36.276 39.744 43.654 45.001 43.826 39.114 38.819 39.576 40.476 41.706 43.151 35.641 35.456 39.086 40.414 40.369 39.269 35.061 38.151 40.151 40.409 40.404 35.569 36.421 38.564 38.896 38.839 37.944 37.574 35.341 37.501 37.284 36.454 35.544 35.319 35.661 36.279 37.099 35.564 34.704 34.936 34.556 36.549 35.219 34.619 34.764 34.526 34.486 34.899 34.564 35.151 34.854 34.526 34.649 34.379 34.374 34.739 34.669 34.566 34.729 34.574 34.564 35.066 35.131 36.501 38.414 34.661 35.686 35.814 36.026 34.766 34.956 35.576 35.546 38.481 40.899 39.959 40.769 40.701 42.166 40.369 36.376 39.654 38.909 36.624 37.059 35.151 35.354 34.861 34.466 35.421 34.919 34.524 34.534 34.246 35.501 34.336 34.821 34.504 34.296 33.939 36.141 35.079 35.441 35.476 35.204 33.729 33.501 33.469 33.466 33.454 33.629 33.891 34.176 34.311 33.936 33.754 34.599 33.974 35.399 34.039 34.261 35.486 36.166 35.291 34.031 33.901 34.618 34.203 34.003 33.933 33.881 33.941 34.128 33.501 33.488 33.503 33.511 34.776 33.701 33.293 33.681 33.183 34.723 36.931 36.438 33.591 33.058 37.223 38.773 38.818 37.843 34.041 35.666 38.626 39.371 38.521 35.148 34.056 33.841 34.643 39.193 41.328 39.748 38.316 38.618 42.028 43.223 44.596 44.526 44.906 44.731 45.096 45.403 45.536 45.686 46.703 46.088 46.231 46.253 45.571 44.798 37.646 39.143 44.503 44.876 44.713 43.756 42.071 44.281 43.863 42.396 40.713 39.353 37.926 35.483 34.113 34.183 33.616 33.573 34.571 33.071 33.048 33.333 33.408 32.886 32.996 33.446 34.646 35.368 34.068 34.138 32.753 32.678 32.741 32.486 32.513 32.503 34.136 32.563 32.743 32.401 32.848 33.078 33.291 32.463 32.546 33.231 33.028 32.481 32.698
47.649 47.727 48.057 49.017 49.064 49.009 47.779 46.839 46.759 46.724 46.729 46.737 46.719 46.739 46.654 46.577 46.547 46.627 46.729 47.539 52.616 48.606 48.914 47.414 50.641 51.771 53.826 49.774 51.079 49.616 52.541 51.729 52.746 46.066 46.074 46.031 45.979 45.959 45.879 45.814 52.256 63.461 66.199 57.946 45.509 45.396 45.309 45.301 45.266 45.124 45.021 44.996 46.684 54.334 55.156 55.841 55.379 54.559 48.466 43.424 43.336 42.681 42.621 42.674 43.846 44.486 44.889 45.116 44.789 45.716 44.081 42.194 42.051 42.034 41.874 41.826 47.024 54.396 53.444 54.414 54.411 52.641 54.391 54.414 54.424 52.306 54.441 54.436 54.446 53.494 54.486 54.484 47.716 43.564 47.946 46.841 44.994 44.614 42.024 40.686 41.006 40.864 40.466 40.041 40.811 40.426 40.354 40.199 40.201 40.109 40.026 39.766 39.721 39.641 39.676 39.984 39.756 39.526 40.219 39.966 39.374 39.501 39.216 39.086 39.006 38.961 38.944 38.866 38.831 38.761 38.734 38.691 38.821 38.614 38.589 38.514 38.476 38.494 38.344 38.161 38.149 38.106 38.071 39.894 38.036 37.941 37.946 37.889 37.859 37.814 37.749 37.714 37.619 37.574 37.531 37.476 37.351 37.269 37.166 37.166 37.774 37.894 38.414 37.746 37.074 37.734 37.334 38.581 38.736 43.746 42.744 46.674 48.189 48.389 48.404 48.571 48.896 48.971 49.221 47.459 49.389 46.886 49.564 48.794 47.884 40.524 40.406 37.551 36.224 36.334 36.496 36.159 36.216 36.156 36.071 35.961 35.944 36.909 41.451 44.064 42.721 35.846 36.409 37.919 40.359 41.571 43.659 38.929 35.151 37.536 40.426 40.124 38.844 35.111 36.741 37.234 36.336 35.706 34.894 36.324 36.374 37.061 37.826 37.436 36.589 35.741 34.879 35.186 34.869 34.674 35.011 34.764 34.766 35.461 34.706 34.709 35.679 34.561 35.669 34.989 34.579 35.289 34.526 34.484 35.014 34.644 34.711 35.101 34.551 34.501 34.544 34.416 34.506 34.761 34.656 35.794 37.211 37.476 35.754 34.959 35.059 38.804 38.854 41.334 41.959 41.844 39.916 37.724 35.379 35.169 40.021 43.439 43.539 42.486 41.979 37.969 37.034 37.701 37.726 37.421 35.769 35.194 35.209 35.539 34.481 34.471 35.186 34.351 34.734 34.386 34.951 36.336 34.634 34.249 34.666 34.254 33.861 34.389 34.681 33.759 33.729 34.991 33.824 33.759 34.799 36.551 36.664 35.101 34.186 34.706 34.021 33.809 33.871 33.749 33.764 35.524 33.976 34.189 36.549 34.876 34.168 34.496 34.926 34.098 34.021 34.033 33.983 34.068 34.673 34.191 33.703 33.516 33.788 35.083 37.233 36.961 36.713 33.948 34.913 38.811 39.018 38.593 34.823 33.183 37.956 38.978 39.668 38.116 33.481 34.196 38.681 42.698 38.708 37.078 35.161 34.728 41.851 43.456 44.556 45.058 45.068 45.248 46.158 46.428 45.881 45.963 46.466 46.906 45.968 46.183 46.128 45.991 46.431 45.768 45.458 45.301 44.983 43.676 38.686 39.171 43.238 42.283 39.966 36.108 37.126 36.128 34.866 34.078 33.746 33.768 33.458 33.373 33.116 33.591 33.956 33.263 34.286 33.296 33.236 33.293 33.756 33.563 33.316 33.011 33.688 33.018 32.756 32.581 32.726 32.636 32.936 32.471 32.746 32.853 32.483 32.511 33.063 33.256 32.473 32.898 32.768 32.583 32.401 32.506 32.381 32.308 32.323
49.007 50.349 47.819 50.509 48.922 48.869 48.724 47.474 47.332 46.914 46.837 46.854 46.807 46.799 46.732 46.642 46.622 46.679 46.782 48.134 48.574 46.846 47.984 47.736 48.859 49.884 52.391 51.474 46.964 50.806 52.146 51.394 46.054 46.064 45.989 45.974 45.981 45.981 45.934 45.816 46.084 60.474 64.616 51.991 45.489 45.379 45.374 45.296 45.251 45.144 44.999 45.031 51.464 54.514 55.329 55.876 55.186 53.194 43.706 42.746 42.696 42.641 42.624 42.716 45.391 45.969 46.046 46.134 46.224 45.996 43.999 42.289 42.149 42.109 41.971 41.936 42.439 54.386 54.449 54.441 54.446 54.409 54.436 52.249 54.514 52.274 49.779 48.809 46.711 45.909 45.591 44.569 42.866 40.954 41.231 40.911 41.171 40.661 41.409 41.324 41.099 40.514 40.369 40.321 40.341 40.146 40.056 40.009 39.934 40.456 40.366 39.799 40.499 39.971 39.659 39.914 39.496 39.431 39.404 39.301 39.221 39.249 39.179 39.131 39.056 38.989 38.926 38.834 38.806 38.731 38.694 38.639 38.599 38.544 38.494 38.514 40.121 39.216 39.394 38.189 38.694 38.981 39.409 38.114 38.094 38.054 37.986 37.939 37.901 37.854 37.809 37.836 37.664 37.616 37.551 37.629 38.094 37.169 37.094 37.331 37.376 37.319 37.679 37.726 37.739 39.369 47.791 48.106 48.564 48.744 48.969 49.291 49.406 47.236 50.186 49.676 49.739 49.614 49.459 49.924 49.391 49.201 49.169 48.239 48.794 45.634 40.781 36.836 36.646 36.141 36.086 36.131 36.199 36.194 36.204 36.101 36.304 35.974 37.006 36.306 39.919 37.799 36.309 37.564 40.026 41.496 43.421 38.239 35.736 36.644 37.161 37.889 35.371 34.951 35.324 34.789 36.011 35.526 35.426 36.029 35.066 35.101 35.954 35.256 34.961 36.016 34.959 35.329 35.279 34.959 36.196 34.789 35.151 35.459 34.716 34.761 35.871 34.566 34.831 35.256 34.671 34.844 35.021 34.554 34.896 34.716 34.976 35.624 35.071 34.896 35.416 36.769 37.666 34.934 34.671 38.251 40.741 42.816 40.456 38.331 37.171 36.864 41.069 41.004 37.341 38.904 40.906 37.194 34.619 34.519 37.646 38.784 40.341 40.614 39.134 35.324 34.611 35.541 34.779 34.636 34.959 34.821 34.516 35.189 34.496 34.501 35.589 35.059 34.424 35.956 34.591 34.886 34.306 34.229 34.389 34.296 33.986 34.069 34.574 33.789 33.786 35.786 35.279 34.101 35.356 37.039 37.189 35.686 33.919 34.329 33.874 33.819 33.956 34.174 33.724 35.521 33.826 34.576 36.966 34.166 33.806 34.326 34.921 33.988 34.468 34.068 34.091 34.011 34.386 34.006 34.563 33.368 36.736 39.126 39.166 39.103 38.161 34.008 35.406 38.873 39.001 38.911 36.653 33.678 36.691 39.398 41.531 40.233 38.391 40.876 42.848 44.563 44.441 44.576 41.161 35.928 44.961 45.513 45.763 45.978 45.151 47.178 46.638 46.376 46.341 44.321 46.188 46.436 45.356 45.163 44.273 44.816 44.743 44.066 43.986 40.438 37.058 39.428 36.586 33.796 34.818 34.081 34.168 33.716 33.161 34.393 33.256 33.128 33.481 33.866 33.523 33.161 32.931 33.131 33.798 33.063 33.546 33.076 33.213 32.753 32.773 32.681 32.743 32.736 32.616 32.571 32.983 32.868 32.651 33.453 33.373 33.078 32.606 33.381 32.658 32.523 32.558 32.841 32.471 32.468 32.443 32.436 32.428 32.391 32.336 36.183 32.966
47.714 49.429 48.397 50.542 49.329 48.732 48.699 47.694 47.102 47.084 46.982 46.912 46.924 47.099 47.234 46.849 46.757 46.757 46.889 46.911 46.864 47.269 46.761 47.661 48.714 49.764 52.926 52.321 50.621 48.271 51.166 48.754 46.091 46.029 45.979 45.961 45.921 45.924 45.881 45.789 45.709 48.451 50.549 47.031 45.491 45.351 45.391 45.336 45.259 45.111 45.001 45.306 52.339 54.681 55.501 55.789 54.949 50.634 42.884 42.721 42.661 42.656 42.691 42.704 45.971 47.196 47.284 47.496 47.224 46.111 44.344 42.429 42.231 42.344 42.059 42.044 42.096 53.079 52.929 50.294 49.431 46.794 46.296 46.486 45.999 43.919 43.089 43.091 43.059 43.004 43.089 43.076 41.871 40.884 40.721 40.854 40.716 40.639 40.806 42.221 41.144 40.326 40.236 40.156 40.139 40.051 39.994 39.941 39.891 40.379 40.246 39.809 39.716 39.694 39.619 39.551 39.534 39.499 39.429 39.364 39.291 39.186 39.199 39.099 39.066 38.964 39.009 39.356 38.789 38.726 38.611 38.591 38.576 38.526 38.511 41.216 41.089 40.661 38.649 38.466 38.969 40.066 40.056 38.121 38.089 38.089 37.961 37.939 37.886 37.926 37.926 37.764 37.704 37.711 38.234 38.859 38.071 37.191 37.666 38.189 37.949 37.811 38.836 38.009 38.416 40.469 49.309 49.521 50.756 49.821 49.891 49.869 49.774 49.416 49.961 45.629 48.819 48.539 48.294 48.204 48.259 45.161 46.084 45.769 47.786 48.104 45.186 37.344 36.576 36.244 36.144 36.176 36.459 36.204 36.276 36.219 36.691 36.556 35.994 36.634 38.101 36.201 37.434 37.196 38.099 38.549 42.599 39.254 35.856 35.054 35.229 35.434 34.979 35.166 36.669 35.831 36.029 35.816 34.884 35.936 35.009 34.799 35.729 34.891 35.116 37.384 35.504 35.961 35.124 35.096 37.106 34.809 34.891 35.436 34.729 34.789 35.469 34.884 36.004 35.891 34.826 34.699 35.201 34.644 34.929 35.694 35.899 35.294 35.564 35.229 36.774 39.496 38.624 38.354 36.234 37.359 36.746 39.851 40.896 39.244 37.396 38.156 39.214 38.101 38.216 35.434 36.901 34.574 34.886 34.476 34.494 35.714 35.341 35.416 35.114 34.881 34.316 35.184 34.766 34.639 34.664 35.006 34.979 35.384 34.499 34.461 35.274 36.104 34.376 35.419 34.251 34.526 34.494 34.281 34.364 34.356 34.224 34.281 34.159 33.861 34.086 35.071 36.521 34.259 35.704 35.749 34.244 34.681 33.934 34.161 34.664 34.159 36.901 36.004 33.724 34.836 33.819 33.759 36.124 36.683 34.983 33.986 35.508 33.941 34.596 34.031 34.076 33.986 34.128 33.873 34.218 33.463 36.658 39.011 39.173 39.191 38.758 33.581 33.723 37.846 41.746 40.088 39.626 41.386 41.018 44.113 43.728 44.713 44.941 45.143 45.171 45.441 45.626 45.313 41.868 34.353 41.108 45.593 46.368 46.396 46.056 46.018 45.786 45.426 43.793 43.863 44.733 44.483 43.281 41.343 38.011 37.763 37.816 37.198 34.578 33.663 33.493 33.471 33.531 33.796 33.793 33.881 33.453 34.201 33.398 34.828 33.536 33.916 33.546 33.673 33.693 33.168 32.878 32.878 32.833 32.758 32.721 32.933 33.068 32.666 33.446 32.826 32.751 33.568 32.731 32.603 32.708 33.643 32.598 33.031 32.796 32.591 32.578 32.616 32.586 32.536 32.516 32.508 32.486 32.471 33.241 34.351 32.358 32.446 35.181 37.523 35.068
47.737 47.987 50.049 48.882 48.714 48.612 48.562 48.474 47.284 47.279 47.199 47.072 47.419 51.212 51.549 46.962 46.872 46.872 46.912 47.961 47.116 46.866 46.684 46.601 49.016 51.986 49.639 48.889 49.296 48.581 49.489 46.601 46.064 46.061 46.044 45.954 45.871 45.839 45.851 45.804 45.736 45.734 45.721 45.666 45.489 45.439 45.426 45.401 45.249 45.054 45.079 45.061 53.251 54.869 55.686 55.644 54.804 48.376 43.239 42.806 42.676 42.689 42.736 42.729 46.751 48.696 48.829 48.849 47.846 46.226 44.976 42.831 42.419 42.441 42.149 42.124 42.181 44.676 43.496 43.376 43.049 43.074 43.066 43.199 43.076 43.089 43.046 43.004 42.909 42.339 42.229 41.979 40.949 40.911 40.826 40.731 40.631 40.531 40.481 40.389 41.231 40.279 40.286 40.261 40.161 40.081 40.059 39.994 39.951 39.966 39.844 39.826 39.766 39.756 39.656 39.629 39.561 39.486 39.391 39.391 39.384 39.599 39.534 39.074 39.001 38.924 39.174 39.474 38.801 38.759 38.664 38.784 38.756 38.936 38.834 42.499 42.031 41.494 40.916 40.354 40.129 41.219 38.596 38.349 38.174 38.174 38.056 37.969 37.904 37.939 37.916 37.834 37.806 38.594 38.774 38.434 37.271 38.731 37.986 37.324 38.336 39.914 44.621 42.909 38.151 39.416 49.309 49.629 50.214 49.464 48.989 48.876 47.189 48.389 47.181 46.154 45.424 45.134 42.989 40.516 37.356 37.456 41.096 42.969 43.901 47.334 48.001 41.214 37.434 36.729 36.191 36.221 36.909 36.341 36.199 36.249 36.171 36.254 36.281 37.199 37.896 38.076 36.709 37.769 35.426 35.346 37.171 36.746 35.474 35.081 35.026 35.251 35.511 34.956 36.694 35.521 35.966 37.876 36.334 37.614 35.271 34.791 35.154 35.591 35.126 36.944 35.719 36.761 36.051 34.884 35.526 34.984 34.811 35.824 34.841 34.794 35.839 36.914 36.589 36.206 35.714 36.199 35.649 34.956 35.049 36.251 36.694 37.749 36.926 38.241 37.469 37.454 41.866 38.584 36.831 35.511 37.101 36.766 37.386 40.204 38.016 36.784 38.664 37.896 39.969 34.639 34.526 34.494 34.889 34.466 34.534 35.961 34.486 34.429 35.189 34.549 34.316 35.604 34.994 34.789 34.614 35.091 34.484 35.124 34.531 34.504 35.289 34.966 34.469 35.699 35.199 34.761 34.859 34.161 34.534 35.051 34.651 34.999 34.736 33.959 34.304 34.331 36.559 34.706 34.396 34.894 34.099 34.336 34.006 34.106 34.261 33.959 35.766 34.396 34.636 35.289 36.126 37.111 38.466 39.416 37.786 33.941 35.826 33.966 33.908 33.953 34.023 34.016 34.586 33.851 34.361 33.691 36.411 39.093 39.421 41.278 41.106 41.058 39.666 44.201 44.668 44.811 45.036 45.353 45.278 45.348 45.923 45.953 46.103 47.223 46.113 46.166 45.988 44.211 44.356 35.716 39.043 45.186 45.301 42.916 44.703 43.878 43.406 42.376 37.553 38.726 36.566 35.906 34.698 33.656 33.591 33.526 33.851 34.096 33.871 34.318 34.001 33.506 33.698 33.958 34.506 34.641 34.236 34.551 33.616 33.358 33.248 33.291 32.976 32.928 33.088 32.996 33.151 33.373 32.766 32.766 32.771 32.931 33.971 32.773 33.101 33.253 32.728 32.898 32.683 32.703 32.698 32.663 32.626 32.628 32.633 32.623 32.608 32.563 32.516 33.533 34.371 35.436 32.378 32.328 36.346 34.661 34.266 32.288 35.773 38.413 36.011
47.727 47.862 47.977 48.477 48.672 48.477 48.429 48.382 48.092 47.444 47.369 47.244 48.207 50.937 50.679 47.774 47.017 47.052 47.707 47.036 46.919 47.014 46.649 46.616 46.586 46.571 47.766 47.844 46.381 47.346 46.606 46.471 46.136 46.094 47.986 47.039 45.894 45.794 45.861 45.866 45.729 45.751 45.729 45.609 45.504 45.459 45.506 45.411 45.211 45.074 45.061 46.014 53.909 55.041 55.804 55.474 54.659 48.896 45.154 44.961 45.161 43.749 42.894 42.864 45.944 48.951 49.541 49.154 48.319 46.321 45.471 42.726 42.544 42.506 42.349 42.256 42.201 42.776 43.114 43.109 43.109 43.089 42.616 42.541 42.036 41.939 41.876 41.429 41.456 42.304 41.941 42.491 40.946 40.869 40.741 40.669 40.599 40.524 40.526 40.436 40.384 40.414 40.399 40.331 40.229 40.161 40.094 40.051 40.029 39.966 39.886 39.841 39.771 39.701 39.614 39.566 40.084 40.074 39.966 40.246 39.629 39.646 39.356 39.094 39.054 38.991 38.999 38.906 40.064 40.046 38.604 38.609 38.599 38.639 38.934 41.889 39.489 40.684 39.121 39.619 41.339 40.806 38.956 38.051 38.059 38.134 38.104 38.054 37.931 37.934 38.091 38.269 38.481 38.866 38.161 37.221 38.324 38.209 37.466 37.371 41.339 45.499 44.899 44.459 42.466 38.419 45.339 48.159 48.314 46.391 45.736 44.874 43.446 40.729 38.481 36.201 39.411 40.504 39.289 36.479 35.576 36.596 37.291 40.309 43.979 46.929 48.409 47.981 39.229 35.904 35.851 36.224 36.254 36.296 36.194 36.266 36.236 36.134 36.809 36.536 36.656 37.371 36.701 37.059 34.939 34.956 35.706 35.299 35.414 35.679 35.114 35.584 35.191 34.959 36.029 34.996 36.316 37.336 35.551 37.601 36.136 34.886 35.081 35.859 34.864 35.566 37.136 35.736 36.001 35.141 35.116 36.754 35.536 35.974 35.579 34.884 35.379 36.116 36.111 36.074 35.889 37.324 37.501 37.489 36.781 36.386 35.654 37.204 36.141 35.484 35.889 36.776 38.781 37.056 36.284 37.726 36.606 37.136 37.214 37.869 35.811 34.834 35.144 34.644 34.806 36.146 34.786 34.506 34.656 34.456 34.486 35.504 34.419 34.419 34.584 35.034 34.451 34.566 35.556 35.999 34.706 35.156 34.624 35.079 34.709 34.539 34.884 35.081 34.329 35.754 38.104 37.761 36.554 34.531 34.516 35.269 35.909 35.564 34.531 34.034 34.136 34.796 35.159 34.331 34.076 34.539 34.019 34.526 35.586 35.191 34.461 36.849 39.044 39.434 39.764 37.126 37.096 39.381 39.464 39.373 39.183 34.231 35.291 33.938 34.846 34.281 34.068 33.936 34.351 33.923 34.426 35.303 42.651 44.971 44.801 45.046 45.186 45.406 45.808 45.676 45.888 46.221 46.321 46.456 46.601 46.298 46.341 46.086 45.896 46.263 45.301 45.138 45.031 42.476 43.966 36.783 39.068 40.613 41.216 37.808 36.041 35.626 35.206 33.833 33.728 33.888 33.646 34.478 34.833 33.533 33.856 33.508 33.743 34.618 33.876 34.003 34.543 34.073 33.766 33.496 33.043 33.763 33.101 33.096 32.993 32.973 32.916 33.566 33.896 33.396 33.738 33.071 33.098 32.961 32.826 32.841 32.806 32.823 32.986 32.866 32.763 32.796 32.736 32.711 32.723 32.703 33.223 32.623 32.608 32.601 32.743 33.216 33.998 35.036 34.956 36.111 34.556 35.301 33.958 35.353 36.148 35.853 34.438 37.136 35.581 39.368 37.931
47.782 47.819 47.857 48.329 48.289 48.379 48.299 48.239 48.179 48.869 47.517 47.532 49.859 49.619 48.399 47.644 47.104 46.989 46.904 46.874 46.841 46.941 46.739 46.684 46.594 46.579 46.494 46.566 46.929 46.234 46.271 47.474 51.429 51.994 49.799 49.101 45.939 45.774 45.786 45.919 45.726 45.699 45.729 45.576 45.534 45.594 45.571 45.364 45.214 45.064 45.091 47.964 54.409 55.204 55.861 55.299 54.481 50.681 48.641 48.389 47.556 44.429 43.069 43.006 45.256 48.784 49.251 49.041 48.449 46.016 45.329 42.806 42.686 42.579 42.471 42.419 42.294 42.251 42.349 42.229 42.016 41.846 41.761 41.649 41.556 41.479 41.379 41.314 41.326 41.784 41.096 40.996 40.931 40.869 40.799 40.739 40.629 40.586 40.591 40.499 40.486 40.474 40.484 40.381 40.276 40.186 40.116 40.021 40.036 39.879 39.804 39.729 39.724 39.636 39.611 39.554 39.961 39.679 39.429 39.356 39.311 39.236 39.201 39.256 39.081 39.161 39.039 39.084 40.569 40.979 39.456 38.276 37.994 38.361 38.911 39.969 38.706 38.474 38.824 40.039 41.384 40.766 40.116 38.024 38.036 38.066 38.036 38.029 37.959 37.974 38.119 38.214 38.376 38.416 37.356 37.926 38.676 38.691 38.029 44.381 47.809 48.039 46.801 45.131 44.551 37.839 41.606 42.841 38.629 37.824 37.976 40.786 40.789 37.106 36.419 35.824 37.309 36.829 36.366 35.854 35.951 35.656 35.734 40.221 46.931 48.469 49.296 49.259 47.721 38.696 35.964 36.269 36.154 36.126 36.131 36.231 36.236 36.181 36.339 36.734 36.016 36.771 38.141 37.149 35.046 34.984 36.314 35.314 35.336 35.394 35.211 36.264 35.981 34.949 35.586 35.999 38.226 37.296 35.126 36.324 36.711 35.579 35.236 36.144 34.854 35.399 35.999 37.726 39.054 38.549 40.394 38.304 37.391 36.486 37.344 36.064 35.924 37.526 36.539 37.404 35.864 35.796 38.604 38.484 37.956 35.986 35.881 36.404 34.881 34.676 34.829 35.409 35.134 34.759 35.019 34.854 36.414 35.089 34.609 34.636 35.419 34.899 34.706 34.846 35.189 35.136 34.671 34.534 35.269 34.471 34.479 34.861 34.459 34.396 35.184 34.854 34.661 34.966 36.556 36.944 34.744 35.201 34.636 34.559 34.976 34.609 34.616 35.319 34.721 35.926 38.021 38.644 36.649 34.544 34.759 35.326 36.161 36.441 35.031 34.396 34.389 34.666 37.091 37.564 35.624 35.419 38.911 39.811 39.821 39.449 34.671 37.641 39.709 39.986 39.711 35.811 37.001 38.781 39.766 39.838 39.163 35.343 34.571 34.563 34.493 34.206 34.093 34.031 34.311 34.068 34.501 37.826 42.411 45.763 46.036 46.371 46.493 46.691 47.381 46.476 46.351 46.183 46.013 45.888 45.858 43.896 44.936 41.163 44.358 44.416 43.071 41.343 38.738 37.893 37.116 34.551 33.923 34.043 34.368 34.331 33.598 33.681 34.736 33.633 33.633 33.966 33.738 34.191 35.138 33.566 33.688 33.678 33.636 34.798 33.556 33.383 33.153 33.113 33.138 33.061 33.021 33.036 34.101 33.698 32.963 32.976 32.971 32.936 32.941 32.943 32.936 32.933 32.886 32.878 32.871 32.853 32.871 32.828 32.813 32.783 32.766 32.736 32.706 32.661 32.586 32.613 33.493 39.323 36.058 32.766 32.733 33.031 36.028 35.741 37.091 35.413 37.241 34.263 36.063 36.583 39.571 34.823 34.778 37.426 34.501 36.476 39.188
47.994 47.832 47.874 48.029 48.469 48.237 48.177 48.137 48.122 48.157 47.809 47.614 48.464 48.889 48.019 47.279 47.107 46.997 46.909 46.914 46.854 46.854 46.774 46.706 46.614 46.559 46.414 46.439 46.404 46.791 51.399 56.841 57.821 54.111 49.774 49.996 47.279 45.824 45.791 45.786 45.751 45.709 45.696 45.606 45.511 45.464 45.439 45.326 45.181 45.074 45.126 50.486 53.681 55.396 55.866 55.096 53.854 49.334 49.244 49.251 49.081 48.356 43.611 43.131 44.686 47.819 47.889 47.104 47.954 44.669 43.601 43.056 42.701 42.611 42.509 42.404 42.294 42.191 42.071 41.956 41.899 41.786 41.701 41.619 41.499 41.411 41.364 41.326 41.249 41.171 41.136 41.051 40.984 40.859 40.829 40.804 40.706 40.601 40.601 40.544 40.489 40.434 40.449 40.381 40.251 40.139 40.084 39.966 39.929 39.914 39.814 39.789 39.726 39.711 39.676 39.629 39.709 39.621 39.566 39.454 39.501 39.424 39.296 39.199 39.081 38.839 39.536 41.146 38.714 39.729 40.071 39.044 42.559 45.849 47.736 45.966 38.189 38.406 38.881 40.056 40.269 38.831 39.584 38.754 37.989 38.051 38.001 37.979 37.956 37.879 37.869 37.751 37.641 37.464 37.399 38.144 37.501 38.494 41.971 47.866 48.516 48.909 48.119 45.709 44.579 39.684 39.354 40.814 35.949 35.804 36.129 37.369 37.139 36.334 37.444 37.734 35.794 36.046 35.789 35.716 36.431 35.869 35.826 36.886 44.699 48.069 49.716 49.726 48.519 46.821 39.309 36.906 36.299 36.174 36.209 36.726 36.186 36.254 36.194 36.114 36.841 36.214 37.136 38.771 35.496 35.344 36.361 35.279 35.226 35.869 35.126 35.741 36.866 40.279 36.664 36.551 36.774 38.156 36.569 36.424 37.554 37.024 36.071 36.469 36.076 37.239 38.421 36.564 40.419 41.574 40.989 40.899 38.106 36.959 37.434 36.276 36.059 34.804 34.959 36.151 35.186 35.266 35.819 36.176 35.171 35.489 35.131 35.669 34.844 34.771 35.181 35.264 34.804 34.526 35.481 35.641 34.906 34.849 35.029 34.599 35.319 34.639 34.974 35.594 34.599 34.739 34.589 34.549 35.166 34.541 34.479 34.874 34.954 34.399 34.506 35.471 34.471 34.829 36.029 37.414 34.681 35.446 34.946 34.829 35.241 34.596 34.551 35.266 34.484 35.404 37.184 36.754 35.569 34.591 34.771 36.136 36.836 36.634 35.039 34.544 35.554 39.751 40.066 39.981 37.686 35.794 38.784 39.711 39.826 39.501 35.491 37.861 39.694 41.471 39.656 37.951 38.616 42.311 42.734 44.563 42.853 43.046 40.168 35.073 34.068 34.076 34.086 34.111 34.276 34.506 34.411 35.561 41.973 45.836 46.561 46.561 46.178 45.953 45.836 45.328 45.111 43.368 42.658 44.241 42.701 41.776 40.636 38.451 36.818 36.266 35.053 33.796 34.161 33.776 33.741 33.746 35.396 37.161 34.226 34.126 33.848 33.488 34.751 34.576 34.056 33.711 33.718 33.608 33.396 33.291 33.301 33.423 33.636 34.381 34.531 33.628 33.258 33.701 33.331 33.101 33.103 33.063 33.106 33.036 33.046 33.008 33.013 32.991 32.973 32.988 32.966 32.923 32.921 32.873 32.896 32.903 32.826 32.793 32.741 32.703 32.673 32.598 32.601 32.568 32.561 32.581 35.248 35.443 35.956 35.128 32.598 32.591 34.533 39.331 40.411 37.671 36.638 37.436 36.333 35.788 37.016 39.491 39.853 38.766 37.803 34.286 34.381
47.867 47.917 47.942 47.939 48.232 48.117 48.059 48.064 47.952 47.874 47.744 47.629 47.879 47.424 47.367 47.312 47.262 47.112 47.059 47.006 46.939 46.874 46.809 46.966 46.799 46.539 46.519 46.976 47.961 54.021 57.824 58.704 58.274 57.359 52.336 49.871 48.749 45.809 45.789 45.776 45.819 45.736 45.649 45.604 45.554 45.524 45.546 45.299 45.164 45.034 45.126 47.079 48.401 50.456 52.274 51.706 51.641 48.476 48.656 48.806 48.894 47.741 43.484 43.309 43.816 43.499 43.219 43.349 42.949 42.886 42.804 42.699 42.591 42.471 42.384 42.281 42.179 42.091 42.006 41.961 41.874 41.781 41.709 41.624 41.604 41.539 41.464 41.386 41.281 41.214 41.156 41.064 41.009 40.941 40.841 40.811 40.711 40.684 40.579 40.551 40.854 41.216 40.289 40.949 40.294 40.109 40.064 40.414 39.999 42.851 42.476 39.891 39.821 39.796 39.716 39.699 39.699 39.701 39.841 38.594 38.849 39.616 38.844 38.291 42.294 44.826 45.406 46.694 46.996 48.776 43.709 41.636 44.836 48.051 48.921 47.176 40.756 38.911 38.169 38.181 38.194 38.659 38.256 38.369 37.984 38.026 37.964 37.966 37.904 37.844 37.861 37.731 37.546 37.484 38.031 38.001 37.864 44.339 47.784 48.964 49.399 49.324 48.499 47.689 42.431 38.169 36.966 36.181 36.149 36.911 36.341 36.521 36.394 36.891 39.516 38.094 35.811 39.231 37.639 35.781 36.426 35.759 36.101 40.344 41.639 44.691 48.264 49.044 49.201 48.439 46.151 37.376 36.139 36.489 36.196 36.826 36.719 36.166 36.221 36.169 36.321 40.419 37.006 37.274 36.151 35.966 36.406 35.671 35.259 35.866 35.226 35.939 37.394 38.009 35.734 37.586 37.661 36.936 36.586 36.394 37.346 38.124 38.121 38.736 38.139 39.241 39.949 38.336 37.794 40.101 41.841 41.239 37.866 38.824 37.234 35.304 36.139 35.009 34.911 36.131 36.349 35.374 35.771 34.886 34.751 35.304 34.996 36.281 35.816 34.771 34.756 35.661 35.576 35.391 35.901 36.806 37.024 36.516 35.834 34.574 35.454 34.539 34.791 35.834 34.634 35.996 36.436 34.604 34.599 34.529 34.511 34.754 34.891 34.446 34.724 36.416 34.599 34.556 35.014 36.874 34.829 35.321 34.984 34.834 36.551 37.339 35.849 35.261 35.131 36.621 38.276 38.721 36.139 34.991 40.099 40.411 40.341 38.911 35.159 34.506 35.934 39.859 40.434 39.994 38.679 34.411 38.526 40.141 40.654 39.934 38.069 36.506 40.776 42.341 43.311 45.094 45.391 45.271 45.439 45.733 45.841 45.636 40.413 35.293 34.031 34.066 34.091 34.123 34.056 33.953 34.323 34.868 40.931 45.358 45.276 45.131 43.416 43.986 43.153 41.953 40.141 37.591 35.598 36.946 35.721 34.173 33.973 34.161 33.828 33.946 34.471 33.733 34.433 33.713 33.863 33.831 35.713 35.031 33.746 34.131 33.893 33.476 33.443 33.428 33.378 33.468 33.843 33.531 33.638 33.873 33.626 33.851 33.731 33.276 33.336 33.223 33.126 33.211 33.178 33.191 33.123 33.128 33.088 33.076 33.051 33.031 33.006 32.966 32.968 32.943 32.918 32.928 33.313 33.021 33.716 33.718 32.808 32.701 32.683 32.661 32.613 32.673 32.718 32.651 32.678 34.688 33.883 35.273 36.426 35.476 32.618 32.646 32.611 39.978 38.238 36.591 34.698 33.048 34.528 33.256 33.223 34.366 33.706 32.653 32.456 32.396 35.963
48.177 48.169 47.952 47.944 47.992 47.999 48.049 48.517 48.644 47.899 47.669 47.562 47.479 47.427 47.397 47.407 47.327 47.204 47.124 47.064 47.044 47.134 46.819 46.861 46.654 46.624 48.074 51.879 51.736 54.626 57.819 58.506 58.704 58.156 54.339 50.739 49.491 46.871 45.754 45.736 45.744 45.676 45.646 45.564 45.581 45.521 45.494 45.326 45.181 45.091 45.089 45.099 45.134 45.784 46.149 45.984 45.341 45.194 45.919 46.039 46.474 44.844 43.516 43.419 43.321 43.204 43.114 43.004 42.896 43.006 42.739 42.574 42.551 42.516 42.361 42.336 42.219 42.201 42.119 42.066 41.959 41.889 41.776 41.769 41.676 41.556 41.459 41.431 41.299 41.244 41.101 41.066 40.964 40.931 40.819 40.856 41.439 40.854 40.536 40.506 41.414 43.269 43.671 42.656 40.309 40.334 40.424 41.801 44.546 44.344 41.811 40.774 39.781 39.739 39.686 39.919 39.184 38.821 39.851 40.201 42.766 44.584 46.349 47.561 49.469 49.889 49.709 50.061 50.164 50.324 46.276 40.936 43.889 47.949 48.991 48.176 48.171 44.854 38.159 39.006 38.691 38.774 39.789 40.359 37.954 38.346 37.979 37.914 37.859 38.001 39.281 38.641 37.519 38.199 37.544 38.171 41.554 47.834 48.459 49.319 50.054 49.099 47.429 44.129 42.244 40.386 38.341 36.369 36.251 36.516 36.329 36.189 36.226 36.226 38.851 37.356 35.849 36.149 40.376 40.971 39.039 36.231 35.716 40.441 38.066 38.079 45.144 48.334 49.356 48.826 47.984 43.534 35.396 36.666 37.181 36.244 36.384 36.424 36.179 36.229 36.179 36.649 36.274 36.316 36.736 36.279 36.259 35.821 35.316 36.106 35.624 35.694 37.539 36.461 35.886 36.944 36.956 37.299 36.786 37.064 37.601 38.654 36.271 36.791 36.309 37.586 40.176 38.966 41.626 39.811 36.774 41.986 38.714 40.294 37.306 36.276 36.081 35.566 34.666 35.436 35.181 34.729 35.324 34.791 34.686 35.511 35.106 35.689 35.924 34.726 35.334 36.006 36.479 37.691 39.414 36.229 37.261 36.736 35.289 34.589 35.571 34.604 34.654 35.489 34.686 35.084 36.949 34.754 34.701 34.729 34.534 35.239 36.069 34.544 35.554 37.221 35.716 34.609 35.546 35.544 36.096 34.916 34.974 35.421 37.654 38.991 38.411 34.699 36.749 40.329 40.446 39.879 35.256 37.379 40.044 40.589 40.424 39.731 37.194 34.889 35.561 39.889 42.891 39.991 38.501 37.161 38.286 44.081 45.406 44.786 44.904 45.591 45.654 45.301 46.046 46.189 46.866 46.541 46.569 46.766 46.636 45.926 40.376 34.878 34.376 35.228 34.103 34.086 34.098 34.956 34.141 35.886 39.933 41.561 41.251 38.131 37.328 36.243 34.226 34.328 33.853 33.886 34.061 34.126 35.926 34.393 34.208 34.433 33.868 33.836 34.923 34.278 34.071 34.106 33.738 33.618 34.736 33.586 34.836 33.461 33.418 33.361 33.331 33.631 34.223 34.218 34.108 33.556 33.288 33.318 33.346 33.341 33.293 33.258 33.251 33.233 33.206 33.211 33.183 33.168 33.113 33.136 33.068 33.061 33.031 33.031 33.033 33.228 33.623 33.011 32.823 33.168 33.168 32.901 32.958 32.866 32.828 33.023 32.821 32.796 32.743 32.736 33.838 32.863 32.671 32.998 32.746 34.268 36.233 34.481 32.581 32.598 32.603 35.006 32.588 33.471 33.233 33.198 35.616 37.168 39.273 39.528 34.193 32.831 32.501 32.386 32.691
47.999 49.199 49.469 49.144 47.974 47.949 48.347 48.354 47.879 47.739 47.667 47.637 47.597 47.562 47.517 47.454 47.314 47.227 47.124 47.026 47.871 47.204 46.791 46.769 47.686 51.616 52.049 51.669 51.266 52.256 57.189 58.899 58.756 58.114 57.346 51.821 49.766 47.534 45.844 45.774 45.694 45.631 45.639 45.556 45.574 45.484 45.431 45.326 45.161 45.061 45.101 44.959 44.861 44.791 44.704 44.586 44.451 44.296 44.116 43.991 43.849 43.694 43.529 43.411 43.279 43.146 43.069 43.041 42.981 42.909 42.774 42.656 42.604 42.549 42.429 42.411 42.289 42.256 42.164 42.056 41.959 41.899 41.794 41.704 41.629 41.546 41.439 41.774 41.819 41.249 41.994 41.714 40.976 40.931 40.859 40.749 40.789 40.659 40.621 40.606 42.946 42.934 46.204 43.336 40.419 40.151 40.104 42.694 45.449 46.909 43.169 40.629 39.831 39.791 39.646 39.791 42.136 47.696 48.886 50.074 50.021 50.201 50.526 50.689 50.929 51.059 50.844 50.884 50.799 50.729 48.104 38.684 42.056 47.909 49.024 48.774 48.264 45.354 38.469 39.634 40.214 39.214 40.001 40.046 37.974 38.819 37.949 37.949 37.864 38.184 39.571 37.859 37.656 37.816 37.799 37.864 41.364 45.444 48.556 49.311 49.546 47.414 40.044 37.996 42.269 42.416 40.494 37.719 36.299 36.331 37.096 36.509 36.274 36.309 36.316 36.724 39.906 41.796 40.136 40.364 39.131 35.334 35.449 35.586 35.381 39.379 43.471 48.184 49.414 49.464 49.131 48.066 39.201 36.541 36.529 36.256 36.451 37.219 36.216 36.169 36.194 36.141 36.481 36.394 36.904 36.151 36.124 36.041 35.886 37.329 36.941 38.371 40.396 38.254 38.721 37.206 36.411 35.224 35.124 35.714 36.334 35.781 35.326 36.301 36.159 35.741 41.451 41.426 43.479 44.191 39.891 41.591 40.166 38.646 37.316 35.066 34.829 36.369 34.839 34.934 35.324 34.871 35.719 35.204 35.079 35.424 34.891 35.516 36.824 34.919 34.809 35.401 35.231 34.976 38.446 36.331 35.049 35.681 35.319 34.646 35.851 35.184 34.644 35.649 34.924 34.724 37.169 35.316 34.661 35.226 36.501 37.204 36.541 36.389 35.481 36.639 35.194 35.971 37.619 38.711 39.261 35.734 35.054 39.269 40.601 40.574 38.624 35.346 36.571 40.329 40.571 39.701 37.524 36.121 39.831 40.271 40.504 40.389 34.919 34.576 38.194 42.799 45.574 46.001 45.269 45.464 45.929 46.099 46.351 46.256 46.581 46.964 46.784 46.854 46.984 46.844 47.646 46.491 46.284 46.186 45.941 45.433 44.571 35.253 34.051 36.256 34.251 34.161 34.103 34.596 34.221 38.026 35.883 38.903 34.868 34.403 34.563 34.593 34.908 35.103 33.843 33.886 33.993 34.128 35.591 34.388 34.258 33.923 33.703 33.661 33.883 33.803 33.621 33.631 33.936 34.143 33.778 34.958 34.556 33.576 33.446 33.428 33.408 33.411 33.391 33.403 33.403 33.391 33.381 33.391 33.361 33.416 33.346 33.276 33.258 33.246 33.203 33.168 33.161 33.126 33.211 33.798 33.916 33.161 33.933 33.498 33.023 33.058 32.978 32.953 32.988 33.253 34.636 33.223 33.101 33.496 33.738 33.983 33.138 33.033 32.736 32.708 33.963 33.131 32.613 32.611 32.683 35.006 33.728 32.606 32.588 34.071 34.511 38.578 38.931 40.966 41.658 43.473 43.631 43.621 43.626 43.618 40.846 35.661 32.566 33.666 34.448
47.999 48.232 50.624 50.967 47.979 47.894 47.897 47.837 47.759 47.684 47.654 47.719 47.714 47.624 47.479 47.437 47.402 47.327 47.149 46.971 46.891 47.371 50.289 52.726 52.554 52.424 52.151 50.134 49.104 51.061 55.071 58.311 58.406 58.454 57.289 56.616 50.396 49.994 46.164 45.719 45.661 45.619 45.661 45.554 45.584 45.509 45.434 45.321 45.136 45.021 44.954 44.856 44.791 44.781 44.606 44.486 44.341 44.199 44.046 43.914 43.749 43.626 43.506 43.404 43.306 43.239 43.179 43.119 43.031 43.006 42.856 42.721 42.631 42.586 42.506 42.371 42.334 42.216 42.134 42.054 41.906 41.864 41.731 41.681 41.636 41.551 41.504 41.824 41.784 41.321 41.299 41.106 41.084 41.494 41.364 40.844 40.826 40.896 40.549 40.534 43.284 44.886 45.259 41.204 39.829 39.816 41.154 41.384 42.984 44.769 44.889 39.901 39.891 39.831 40.114 39.766 47.269 50.784 50.974 51.196 51.149 51.211 51.301 51.161 50.986 51.039 50.191 50.021 49.851 49.576 48.481 38.256 40.674 48.076 49.641 48.564 48.399 46.864 39.681 39.436 39.459 39.194 40.584 39.664 38.031 38.129 37.946 37.929 37.839 38.189 38.784 37.671 37.916 37.931 41.371 44.194 40.959 41.944 45.506 48.499 48.511 41.899 36.834 36.596 38.751 41.831 39.264 37.114 36.609 36.389 36.814 36.299 36.254 36.486 36.356 36.376 41.129 39.371 41.929 41.601 39.961 35.526 36.031 35.144 36.311 40.241 41.356 42.404 49.111 49.494 50.204 49.089 47.144 41.446 36.889 36.679 36.224 36.329 36.456 36.134 36.216 36.241 36.121 36.961 37.019 36.256 37.039 36.419 36.731 36.379 39.029 43.261 43.744 42.606 46.239 41.189 35.831 35.251 36.919 36.376 35.416 35.804 36.761 36.319 35.199 38.381 40.301 44.994 41.394 41.219 41.839 43.186 41.724 41.874 40.554 36.254 34.971 38.241 35.014 35.099 35.539 34.899 35.281 35.604 34.716 35.619 35.041 36.291 36.346 34.804 34.791 35.256 35.144 34.634 35.386 35.791 37.114 35.516 35.186 34.711 35.741 35.744 34.726 36.324 35.094 34.526 36.256 37.511 36.744 34.924 36.719 38.374 38.666 38.896 34.816 35.846 35.751 38.559 40.501 40.676 40.584 36.674 35.421 38.711 40.594 41.019 40.221 35.486 37.051 40.266 42.779 40.416 39.311 38.734 41.791 44.181 44.846 45.786 45.379 37.189 43.651 46.104 46.469 46.704 46.779 47.219 47.096 47.046 47.046 47.044 46.886 47.411 46.431 46.209 46.154 45.886 44.359 45.481 45.196 43.826 43.003 41.396 39.426 35.708 34.621 34.616 34.176 34.138 34.058 33.983 35.498 39.106 36.681 36.336 34.283 34.463 34.691 34.266 35.321 35.326 34.781 34.691 33.853 33.811 33.758 33.751 33.751 33.711 33.588 33.583 33.576 33.861 34.286 34.091 33.778 33.876 33.558 33.553 33.516 33.523 33.466 33.501 33.473 33.461 33.483 33.453 33.446 33.426 33.446 33.421 33.348 33.451 33.676 33.661 33.201 33.181 33.121 33.088 33.081 33.051 33.048 33.181 33.163 33.121 33.176 33.306 33.698 34.093 33.693 33.901 33.511 33.338 34.253 33.286 33.143 33.146 33.218 33.296 33.188 32.968 32.728 32.628 33.258 32.863 32.973 32.941 34.751 35.743 38.808 39.046 41.886 42.206 43.743 43.661 43.621 43.661 43.596 45.683 44.098 43.608 43.621 43.663 41.203 35.133 33.993 34.036 35.723
48.047 48.134 48.304 48.984 47.917 47.897 47.869 47.737 47.674 47.679 47.684 47.707 47.652 47.589 47.559 47.494 47.397 47.227 47.142 47.059 50.541 53.631 56.919 55.976 54.651 52.844 52.034 48.879 48.789 48.801 53.246 57.851 58.226 58.649 58.186 57.101 53.166 49.996 48.631 45.854 45.646 45.616 45.639 45.619 45.601 45.546 45.469 45.326 45.206 45.089 44.969 44.886 44.781 44.701 44.599 44.439 44.326 44.196 44.069 43.986 43.871 43.691 43.639 43.516 43.379 43.319 43.269 43.196 43.129 42.994 42.864 42.726 42.654 42.571 42.461 42.361 42.274 42.191 42.094 42.034 41.956 41.881 41.834 41.756 41.699 41.631 41.524 41.461 41.361 41.289 41.826 42.234 41.709 41.344 40.946 40.436 41.194 40.416 39.949 39.546 41.126 42.836 46.634 45.891 40.216 39.799 39.886 40.649 42.211 42.806 40.414 39.951 39.956 39.904 40.166 40.024 43.466 51.401 51.329 51.214 50.701 50.479 50.314 50.034 49.334 48.436 46.719 47.126 46.649 45.334 39.876 37.781 39.166 47.926 48.636 48.944 48.664 48.506 40.384 38.329 38.369 38.761 39.984 38.406 38.424 38.101 37.894 37.914 37.821 37.914 37.754 38.271 38.409 40.699 46.446 48.909 46.224 40.976 42.874 45.449 44.724 40.609 36.799 36.846 36.914 37.214 37.209 36.451 36.939 36.399 36.831 36.386 36.504 36.651 36.341 36.399 38.164 41.884 42.199 36.844 39.124 35.599 35.414 35.396 35.871 39.051 40.126 38.756 41.554 48.444 49.079 49.209 48.484 47.141 41.326 35.791 36.319 36.211 36.701 36.849 36.214 36.206 36.224 36.194 36.066 36.014 36.519 37.769 36.169 36.296 37.534 42.034 45.606 46.711 47.344 46.664 39.576 37.559 38.369 40.699 37.396 36.836 36.089 35.166 35.249 37.499 37.006 40.101 38.066 41.159 41.296 38.641 41.019 43.159 40.324 35.779 35.141 36.489 34.699 35.051 36.031 34.896 35.249 36.201 34.839 35.079 35.409 35.379 36.076 34.934 34.824 35.061 35.689 34.696 35.376 36.821 35.614 34.784 34.989 34.806 35.504 35.906 34.809 36.046 34.929 36.094 38.264 39.196 37.344 35.681 36.224 40.536 40.704 40.599 36.434 35.009 35.699 37.386 40.539 41.031 40.596 37.294 35.094 38.884 41.419 43.261 41.154 40.631 40.071 44.026 45.776 45.599 45.699 46.396 46.686 46.701 47.026 47.051 46.456 40.614 43.389 46.254 47.136 47.156 46.974 46.914 46.941 46.371 44.186 46.024 45.159 45.794 45.391 45.224 38.849 42.394 41.226 41.276 38.494 37.183 38.308 34.478 34.376 35.173 36.521 34.101 34.193 34.106 34.148 34.021 37.618 37.843 39.743 36.588 36.726 34.726 33.958 33.926 34.616 34.356 35.783 36.698 34.046 34.713 34.221 34.016 34.928 34.043 33.651 33.653 33.663 33.621 33.638 33.636 33.618 33.583 33.603 33.568 33.583 33.518 33.538 33.548 33.501 33.443 33.453 33.536 33.686 33.446 33.583 34.218 33.968 33.463 33.898 33.593 33.386 33.163 33.188 33.176 33.348 33.703 34.293 34.093 33.803 33.533 33.176 33.361 34.008 33.541 33.211 33.588 33.438 33.413 34.616 33.093 33.206 33.411 33.293 33.338 33.446 33.441 32.636 32.598 34.556 40.543 41.463 42.103 43.646 43.571 44.023 43.816 43.666 43.626 43.613 43.611 43.623 43.671 43.676 41.716 44.331 42.791 44.311 43.596 40.258 33.453 34.821 33.966 37.033
48.769 48.077 47.907 47.887 47.864 47.817 47.829 47.822 47.754 47.769 47.724 47.689 47.649 47.574 47.559 47.449 47.357 47.314 48.782 52.344 57.181 58.191 57.356 56.394 55.451 53.244 52.521 50.119 49.084 49.339 51.259 56.146 58.074 58.171 58.564 57.871 55.386 49.881 50.031 46.206 45.696 45.649 48.256 47.356 45.744 45.536 45.406 45.301 45.211 45.141 44.996 44.956 44.839 44.701 44.624 44.524 44.404 44.309 44.126 44.021 43.899 43.786 43.654 43.576 43.461 43.364 43.306 43.169 43.094 42.999 42.889 42.756 42.664 42.589 42.486 42.426 42.351 42.274 42.211 42.556 43.186 41.999 41.899 41.834 41.746 41.669 41.811 41.534 42.139 41.899 41.611 41.076 41.819 40.589 42.229 41.914 43.161 45.341 48.039 47.646 49.411 49.756 50.006 50.401 40.406 41.109 40.756 41.681 42.124 42.116 40.874 39.991 40.016 39.964 40.044 40.024 42.644 50.084 48.434 49.689 47.559 47.999 48.771 46.419 40.611 41.136 40.044 43.571 42.844 40.064 37.426 37.756 38.329 46.914 48.366 48.689 47.496 42.484 39.971 38.391 38.854 39.876 40.346 37.861 38.054 37.884 37.954 37.876 37.799 37.759 37.914 38.489 41.221 47.434 48.989 49.936 49.344 46.501 40.481 38.876 42.666 42.956 40.761 37.301 37.674 40.821 39.051 38.396 37.644 37.369 38.866 36.606 36.656 36.516 36.386 36.316 37.064 41.711 39.274 40.534 35.719 35.516 35.491 36.004 37.681 37.759 38.144 35.921 37.439 45.256 48.176 48.999 49.171 48.404 46.409 37.644 37.864 37.051 36.269 36.449 36.379 36.191 36.229 36.231 36.156 36.044 36.069 37.234 36.526 36.214 36.314 40.356 46.044 47.566 48.134 47.514 44.996 40.714 40.989 41.016 40.539 38.611 37.054 35.451 36.011 35.249 37.816 38.356 42.861 38.929 39.346 38.111 40.631 42.364 41.261 36.844 34.666 35.751 34.739 34.729 36.629 34.886 35.296 36.446 34.819 35.719 35.299 34.981 36.766 35.339 35.081 35.389 35.536 34.801 35.659 37.251 36.694 34.979 34.804 35.659 38.659 38.684 38.741 35.156 36.056 40.459 40.796 43.341 42.321 35.774 37.161 40.569 40.691 40.576 39.081 34.964 35.901 35.851 40.231 42.809 41.686 41.911 40.464 43.089 45.106 46.411 46.624 47.506 47.081 47.046 46.954 47.166 47.569 47.891 47.866 47.869 47.879 47.684 46.651 40.606 42.651 45.956 46.294 46.161 45.954 45.789 45.539 44.884 41.826 40.816 40.859 38.411 37.616 36.284 36.521 34.846 34.499 34.821 35.486 34.771 35.433 34.408 36.033 35.863 35.018 34.128 34.066 34.201 34.133 34.173 35.503 35.421 34.493 34.068 34.016 33.921 33.878 34.913 35.441 33.971 33.836 33.821 33.838 33.888 33.803 33.773 33.766 33.753 33.723 33.716 33.731 33.698 33.683 33.651 33.626 33.606 33.613 33.598 33.556 33.638 33.911 33.608 33.648 34.206 33.553 34.366 34.313 33.438 34.516 33.421 33.338 33.323 33.398 33.698 33.646 33.301 33.653 33.231 34.656 33.771 34.008 34.861 33.413 33.233 33.193 33.433 33.508 33.788 33.361 33.548 33.811 36.216 36.116 38.401 39.551 39.908 39.721 38.001 35.601 34.926 32.666 32.601 38.056 43.183 43.598 43.608 43.626 43.628 43.286 41.593 43.598 43.953 43.193 43.681 41.053 44.041 43.766 42.381 42.513 40.516 39.756 38.661 34.891 33.531 36.751 36.148 34.243
47.882 47.897 47.829 47.809 47.857 47.909 47.869 47.867 47.809 47.779 47.719 47.667 47.594 47.524 47.534 47.517 49.462 51.207 56.347 57.219 58.061 58.346 57.839 56.851 55.916 53.341 52.479 52.384 49.931 49.421 53.526 55.896 58.446 58.474 58.929 58.151 57.111 51.479 49.884 46.841 45.839 45.681 46.471 48.269 47.449 46.231 45.401 45.349 45.199 45.104 45.001 45.086 44.901 44.889 44.659 44.559 44.424 44.271 44.194 44.016 43.861 43.774 43.689 43.564 43.474 43.424 43.309 43.204 43.091 43.016 42.951 42.901 42.781 42.726 42.641 42.531 42.444 42.386 42.301 42.271 42.211 42.056 41.994 41.964 41.961 42.246 41.869 43.946 42.991 42.109 45.006 46.879 47.271 48.979 50.336 50.181 50.521 50.686 50.789 51.329 50.259 50.026 49.294 47.986 40.341 41.199 41.226 40.919 40.296 41.521 41.686 40.061 40.019 40.009 40.249 40.986 40.811 42.771 41.766 46.481 41.016 46.076 48.176 42.789 39.329 37.921 37.804 38.249 39.289 38.186 37.651 37.861 37.741 47.299 48.164 48.809 47.549 39.906 38.831 39.676 39.636 39.181 38.869 38.199 38.176 37.941 37.956 37.859 37.809 37.779 38.149 38.391 44.214 48.591 50.079 50.254 49.519 48.651 44.509 37.284 38.656 41.341 42.204 39.169 37.086 42.464 39.541 36.526 37.576 38.986 38.639 36.926 36.919 37.189 36.694 36.724 36.576 35.934 39.601 38.074 35.626 35.619 36.126 35.884 35.699 37.006 35.701 35.639 36.094 41.801 45.574 47.526 49.194 49.011 48.301 43.384 38.876 37.291 36.359 36.181 36.656 36.576 36.191 36.276 36.236 36.116 36.029 36.484 37.356 36.489 36.229 36.299 42.666 46.599 48.476 48.529 47.274 45.256 41.669 40.769 40.684 39.766 36.311 36.106 35.181 34.911 34.946 35.691 37.786 40.679 39.409 40.901 39.161 37.841 40.584 37.006 34.744 35.941 34.829 34.844 36.656 35.841 35.189 36.086 34.971 35.256 35.336 34.994 36.161 35.674 35.211 35.754 35.459 34.899 36.904 38.764 39.549 38.974 34.884 36.394 40.569 40.721 40.714 38.971 37.106 40.186 40.511 42.816 43.371 37.534 37.041 40.971 40.586 41.169 39.479 38.984 35.641 43.599 45.444 46.119 46.329 46.814 47.419 47.829 47.329 47.556 47.751 48.014 48.054 47.921 47.884 47.914 47.714 48.271 47.546 47.064 46.934 44.316 44.189 41.616 40.714 44.924 44.556 40.689 40.679 39.344 37.126 36.749 34.891 34.904 34.741 34.861 34.584 34.489 34.969 34.646 34.641 36.266 35.884 34.816 35.108 35.071 36.503 35.251 36.793 34.133 34.146 34.176 34.156 34.111 34.031 33.983 33.993 34.371 34.866 34.323 33.948 34.381 34.041 33.906 33.886 33.893 33.883 33.873 33.841 33.873 33.848 33.793 33.748 33.721 33.703 33.688 33.666 33.638 33.758 34.111 33.656 33.998 33.828 33.756 34.123 33.686 33.561 33.641 33.441 33.438 33.423 33.581 33.876 34.801 35.001 33.611 33.523 33.558 33.956 33.828 33.676 33.383 33.333 33.451 33.626 33.693 33.956 34.038 33.878 35.848 37.361 38.631 40.306 41.836 43.461 44.076 44.276 44.456 44.558 43.806 42.596 39.811 35.673 35.126 35.656 32.651 35.281 43.031 43.606 43.648 44.161 43.301 39.428 39.476 42.886 43.966 43.588 40.941 37.051 35.771 36.741 36.403 32.963 33.003 33.846 32.578 32.531 32.561 34.486 37.223 36.098
47.799 47.779 47.869 47.899 47.924 47.914 47.914 48.817 49.037 49.662 48.457 47.657 47.692 47.684 47.834 51.347 53.742 54.252 55.802 56.766 57.709 58.394 58.146 57.186 56.226 53.584 52.189 51.436 49.916 49.961 52.886 54.704 58.501 58.529 58.454 57.884 56.014 50.484 50.176 45.941 45.849 45.774 45.761 46.056 47.839 48.291 47.116 45.319 45.179 45.121 45.019 44.936 44.841 44.746 44.669 44.506 44.391 44.256 44.179 44.009 43.901 43.784 43.676 43.686 43.856 44.971 43.714 43.369 43.511 43.094 43.311 42.851 43.359 42.929 42.876 42.884 43.406 42.969 43.006 42.291 42.081 42.781 43.599 43.561 49.419 47.911 52.309 52.719 52.039 46.589 47.839 51.219 51.229 51.211 51.574 50.494 50.129 47.211 46.566 47.299 48.106 46.394 41.139 41.161 39.514 39.704 39.659 40.291 39.729 40.176 41.811 40.076 40.061 40.056 40.221 41.061 39.926 38.476 39.356 41.604 38.864 43.309 44.051 39.771 37.694 38.744 38.916 37.621 38.094 37.679 37.806 38.344 37.369 42.481 47.334 45.744 43.669 39.544 38.186 38.056 38.014 38.699 37.874 38.811 37.969 37.991 37.944 37.864 37.784 38.226 38.359 40.754 48.356 49.581 50.559 49.631 48.596 46.311 43.454 42.151 37.674 38.386 40.596 37.821 38.584 37.534 38.636 40.349 42.634 44.354 40.634 36.891 37.431 36.301 36.131 36.206 35.966 36.589 35.939 35.759 35.809 36.711 35.804 35.524 35.954 35.666 35.636 37.686 40.286 40.536 42.971 47.224 48.506 49.361 48.844 44.551 36.731 36.344 36.759 36.499 36.141 36.961 36.191 36.239 36.294 36.216 36.131 36.041 36.829 37.046 36.294 36.274 38.959 46.056 47.306 48.176 48.036 47.106 45.144 40.904 39.706 35.869 36.474 35.559 34.999 35.036 35.994 35.369 35.124 35.601 41.616 39.989 36.624 39.761 38.301 36.641 34.894 35.594 35.804 35.544 37.124 36.986 34.901 35.816 36.996 37.341 37.934 37.561 37.749 37.784 38.701 35.546 36.249 34.906 39.014 41.036 40.974 40.761 35.696 37.496 40.521 40.684 40.751 38.814 36.091 39.086 40.776 45.054 44.561 39.171 40.864 44.689 46.171 46.131 46.456 45.444 34.811 44.444 46.996 47.486 47.811 47.941 48.179 48.234 48.056 48.059 47.784 47.664 48.111 46.404 46.839 44.064 46.264 46.151 45.931 44.889 40.524 42.394 40.946 37.016 35.824 37.876 41.406 39.294 34.829 34.929 36.414 37.541 35.226 35.316 34.726 34.814 35.061 35.209 35.211 35.309 35.796 34.446 34.726 34.266 34.186 34.173 34.886 34.106 34.068 34.083 34.191 34.258 34.211 34.188 34.121 34.038 34.016 34.033 34.028 34.013 34.016 33.958 33.986 34.026 33.988 33.888 33.906 33.851 33.828 33.851 33.813 33.783 33.983 33.958 33.651 33.611 34.256 33.891 33.996 33.976 34.548 33.951 33.568 33.586 33.596 33.681 34.538 34.868 34.123 33.781 33.616 33.708 33.846 35.293 33.488 33.428 33.443 33.436 33.583 34.026 33.756 33.671 33.878 35.571 35.563 33.466 41.606 41.846 43.973 43.911 44.291 44.551 44.751 44.986 45.328 45.393 45.611 46.301 42.918 43.653 40.841 38.808 34.666 37.306 35.926 36.221 34.813 43.681 43.801 43.883 44.071 42.661 37.583 37.693 34.698 34.861 33.493 32.613 32.656 32.606 32.648 32.648 32.731 32.593 32.578 32.556 32.536 32.523 32.506 32.463 33.041
47.832 47.877 47.927 47.934 47.957 47.927 50.924 52.204 51.314 47.967 47.794 48.254 49.462 48.617 47.792 48.737 53.462 53.804 54.854 55.846 57.266 58.136 57.866 56.884 55.309 51.154 52.346 53.174 53.229 52.814 53.596 57.059 58.461 58.549 58.299 57.321 53.201 49.954 48.956 45.936 45.804 45.776 45.746 45.744 45.644 45.724 46.726 45.286 45.184 45.119 44.979 44.899 44.829 44.736 44.616 44.494 44.381 44.274 44.199 44.049 43.984 43.911 43.821 44.244 43.849 43.609 43.359 43.484 42.804 42.689 42.341 42.019 43.034 42.824 42.444 43.184 42.831 42.734 45.006 49.904 49.901 52.614 53.664 54.434 53.774 53.764 54.134 53.729 53.641 47.939 46.684 47.871 46.866 49.351 48.904 48.231 46.831 40.316 39.879 41.626 42.431 42.466 40.206 45.446 44.616 48.326 45.996 39.566 39.861 40.896 41.821 40.854 40.414 40.119 40.104 41.144 40.106 39.201 38.409 40.014 39.659 38.464 37.879 38.469 37.804 38.311 39.096 39.204 38.254 38.116 37.769 37.999 37.506 37.354 38.061 38.509 38.704 38.799 37.914 37.956 37.941 37.899 37.884 37.994 38.019 37.991 37.991 37.919 37.781 37.839 38.946 43.436 49.019 50.131 49.394 47.954 45.246 42.421 42.726 43.336 41.734 38.459 38.106 36.376 36.366 37.311 36.784 37.301 41.529 43.506 42.616 37.369 36.641 36.034 36.046 36.041 36.041 36.279 38.449 37.161 38.351 35.844 35.511 36.389 37.341 35.676 36.271 37.911 38.689 40.919 40.169 41.759 47.909 49.616 47.891 46.971 40.346 36.894 36.376 37.129 37.329 36.114 36.124 36.194 36.304 36.276 36.229 36.811 36.556 36.851 37.414 37.666 37.641 40.349 45.666 47.489 48.311 47.846 46.924 42.641 36.231 36.386 37.366 36.959 35.166 36.374 35.316 35.189 35.231 36.299 38.559 37.129 37.951 36.029 36.901 36.036 35.209 35.069 35.241 35.101 36.139 36.184 36.284 38.351 39.639 38.606 37.156 39.944 41.039 41.169 40.691 36.186 36.031 35.114 39.811 41.104 40.961 40.799 36.564 35.406 41.099 41.656 42.676 41.981 41.666 44.551 46.104 46.411 47.809 48.039 46.899 47.009 47.199 47.531 47.241 46.484 37.501 42.961 47.079 47.969 48.029 47.629 48.049 47.741 44.401 46.014 46.549 41.729 44.841 44.981 43.289 42.516 40.939 38.286 37.791 36.261 35.829 36.164 34.984 34.946 37.624 41.441 45.889 42.591 35.521 38.664 37.841 36.566 35.774 34.796 34.986 34.651 34.514 34.384 34.339 34.334 35.289 34.841 34.324 34.133 34.586 35.671 35.041 34.203 34.166 34.188 34.191 34.261 34.246 34.228 34.166 34.116 34.098 34.066 34.078 34.023 34.026 34.013 33.968 33.928 33.963 33.961 34.396 34.226 34.246 34.683 34.046 33.666 34.148 34.113 33.718 33.723 34.026 33.723 38.161 39.906 36.256 34.223 34.061 33.748 33.786 33.928 33.936 33.856 33.693 33.503 33.576 33.588 33.598 35.011 34.303 33.738 34.203 35.258 37.438 39.746 40.371 40.333 42.901 44.323 43.723 34.358 44.413 44.763 45.301 45.483 45.671 46.476 45.888 45.858 45.973 45.688 45.521 45.613 45.023 44.238 41.173 38.708 35.188 38.068 37.581 33.861 35.116 43.608 44.528 44.188 44.251 38.673 32.588 32.656 32.678 32.673 32.653 32.671 32.668 32.671 32.708 33.151 33.906 34.033 32.631 32.558 32.571 32.923 32.428 32.471 32.433
47.922 47.974 47.992 47.934 47.879 47.844 48.032 49.007 49.102 48.419 49.719 49.737 48.784 49.297 47.979 47.839 52.977 53.782 54.862 56.261 57.224 58.064 57.444 56.486 54.039 50.389 51.476 52.481 53.139 53.369 53.404 58.249 58.544 58.994 58.431 57.071 51.311 49.926 47.479 45.966 45.816 45.816 45.836 45.741 45.666 45.521 45.421 45.356 45.181 45.104 45.006 44.966 44.826 44.751 44.866 44.954 45.184 44.389 44.454 44.169 44.984 44.764 47.344 48.491 49.334 45.424 43.219 44.179 44.929 48.079 49.616 48.196 48.189 52.079 49.706 48.551 43.646 44.656 53.911 53.806 54.614 53.811 53.794 54.446 53.821 53.744 54.254 53.779 53.636 51.176 41.929 41.154 40.064 42.004 41.614 41.064 39.496 40.084 40.491 41.131 42.109 42.156 45.324 47.436 48.994 49.921 49.549 47.414 40.016 42.159 42.241 40.566 41.154 40.429 40.064 40.644 40.131 39.894 38.149 38.171 38.831 37.899 37.891 38.816 37.926 38.134 38.519 41.726 38.496 38.594 37.979 37.734 37.729 37.744 37.726 37.744 37.831 38.629 38.161 38.219 38.211 37.884 37.954 38.039 38.041 38.044 37.996 37.909 37.889 38.779 38.674 40.491 45.904 49.229 48.561 45.831 40.516 41.334 40.004 42.521 42.041 39.611 37.286 36.621 36.441 36.884 37.166 36.674 39.591 41.899 38.379 36.606 38.199 36.411 35.939 35.944 35.946 35.936 37.119 40.996 36.641 35.589 35.959 36.289 35.634 35.701 36.509 37.556 37.966 39.164 36.809 37.874 47.054 48.186 48.369 47.694 45.856 38.339 36.329 37.251 38.896 36.209 36.116 36.149 36.249 36.284 36.264 36.209 36.519 36.164 37.051 37.851 36.546 36.349 40.474 46.801 47.576 48.241 47.661 46.126 39.769 39.094 40.606 40.496 37.616 37.681 35.874 35.751 35.769 35.786 36.669 36.406 36.209 35.311 35.226 36.164 35.846 38.679 39.306 37.699 35.996 36.129 40.924 41.186 41.074 38.119 35.239 38.771 41.049 41.919 41.006 37.759 35.276 35.589 40.826 42.441 44.751 43.119 42.436 44.384 46.334 46.584 47.161 48.136 47.349 47.184 47.319 47.521 48.121 48.266 49.119 48.006 47.874 48.016 47.524 46.559 39.054 41.024 46.661 46.601 46.536 46.251 43.504 43.646 41.094 41.549 42.136 38.406 36.241 36.184 35.181 35.736 35.209 35.801 36.476 34.969 34.966 35.559 35.639 35.081 36.566 39.826 41.254 36.819 35.021 36.516 35.329 34.784 37.241 35.991 34.399 34.814 34.944 34.564 34.939 35.159 34.551 34.794 34.374 34.246 34.231 34.268 34.263 34.283 34.246 34.246 34.263 34.271 34.291 34.238 34.178 34.141 38.086 37.148 38.718 38.258 34.718 34.596 34.721 35.288 33.928 33.916 34.403 34.323 33.921 35.403 35.156 33.926 33.846 34.328 34.726 35.116 35.046 34.203 41.216 44.631 38.153 34.033 34.653 33.696 33.931 34.873 33.901 33.786 33.603 33.761 33.743 35.951 37.471 39.291 41.238 42.938 44.246 44.371 44.548 44.968 45.023 45.193 45.438 45.463 44.408 33.571 42.263 44.043 45.418 45.678 45.396 45.546 44.976 44.808 44.638 44.366 44.176 44.041 41.031 40.433 37.328 34.621 39.688 38.518 36.621 37.048 35.258 42.856 44.123 44.181 44.248 38.096 32.656 32.671 32.708 32.718 32.686 32.683 32.681 32.691 33.153 34.091 34.408 33.358 32.613 32.593 33.228 33.611 32.483 32.543 32.553
47.984 48.007 47.944 47.924 47.852 47.822 47.919 49.832 49.169 49.407 50.312 53.399 57.274 58.994 48.579 48.102 49.244 53.667 55.672 56.639 57.671 57.986 57.036 56.104 53.016 50.124 50.046 50.091 50.239 51.144 53.936 58.386 58.696 58.859 58.286 54.854 50.016 49.851 46.251 45.931 45.866 45.854 45.926 45.866 45.691 45.536 45.449 45.291 45.199 45.156 45.079 45.021 44.881 44.859 45.456 44.971 47.296 48.586 48.969 50.326 51.184 52.731 52.974 52.909 52.829 51.126 43.051 48.391 52.969 54.359 54.996 54.051 54.291 54.764 54.111 51.871 47.314 49.804 53.856 52.846 54.276 53.839 53.711 54.309 53.869 53.696 54.374 53.874 53.564 51.699 42.051 40.896 40.134 39.856 39.906 41.701 41.784 41.404 40.781 41.406 40.076 44.161 47.099 48.724 49.794 50.694 50.376 49.489 46.501 40.036 40.464 40.234 40.724 40.284 40.081 40.006 39.931 39.721 38.166 38.094 38.424 37.996 37.941 39.439 38.641 38.244 40.284 39.554 39.496 38.344 37.476 37.451 37.534 37.941 37.819 37.764 38.324 38.366 39.136 38.661 39.924 38.684 38.016 38.071 38.061 38.004 37.986 37.951 37.916 37.894 39.226 38.011 40.919 44.754 46.791 43.001 40.719 39.939 39.946 39.721 39.169 36.779 36.936 37.756 36.424 37.399 37.899 36.909 36.996 36.299 36.304 37.746 41.789 36.869 35.911 35.904 35.894 35.889 36.721 38.481 37.616 36.014 35.899 35.656 35.641 36.371 37.446 37.649 38.024 37.751 36.941 37.659 44.341 47.856 47.529 48.256 47.421 45.866 38.979 37.569 37.181 36.824 36.429 36.119 36.256 36.261 36.284 36.324 36.264 37.009 36.286 36.589 36.536 36.576 36.556 42.591 46.854 47.916 48.989 47.499 46.299 41.709 40.981 40.996 40.569 37.594 36.234 36.169 35.184 35.074 35.136 35.621 36.059 41.156 39.094 36.406 37.549 41.044 41.016 39.589 36.659 35.664 40.729 41.161 41.474 39.511 37.254 38.441 41.186 44.404 42.136 42.986 41.474 39.644 45.724 46.606 46.906 46.949 47.116 47.399 47.481 47.624 47.904 48.199 48.314 48.441 47.834 47.791 47.591 47.391 47.696 46.261 45.616 45.134 46.484 45.749 39.391 40.234 42.776 41.451 38.356 38.076 37.944 36.834 35.529 35.546 35.839 35.514 35.469 35.491 35.194 36.041 35.941 36.581 36.131 35.889 35.564 35.336 35.344 34.916 34.764 34.666 35.601 34.716 34.669 34.501 34.694 34.739 35.256 35.631 34.519 35.006 34.616 34.481 34.454 34.389 34.391 34.394 34.374 34.303 34.346 34.321 34.288 34.306 34.281 34.246 34.281 34.276 34.281 34.268 34.208 34.113 37.728 42.581 43.066 42.371 33.946 34.146 34.768 34.856 34.721 34.043 34.043 34.298 35.098 36.353 36.128 35.646 34.336 34.016 34.376 34.776 33.916 34.253 36.116 38.341 35.166 34.293 34.048 33.901 34.941 36.026 37.101 39.461 40.101 43.418 42.118 44.708 44.766 45.228 45.043 45.143 45.546 45.671 45.968 47.041 46.211 46.243 46.263 45.826 44.611 37.053 41.813 44.501 44.633 43.441 43.758 42.743 41.773 41.913 42.508 40.698 38.358 35.236 33.221 32.946 32.821 33.458 36.633 35.091 35.858 34.273 34.703 42.793 44.103 44.161 44.226 37.276 32.666 32.688 32.718 32.728 32.691 32.696 32.698 32.701 33.978 33.068 32.766 32.641 32.613 32.556 32.486 32.546 32.578 32.613 32.561
47.994 47.982 48.002 48.014 48.087 48.262 48.127 48.344 49.112 52.194 58.114 59.444 59.827 60.114 58.822 51.717 48.092 52.989 55.857 53.529 55.284 56.406 56.646 55.424 50.371 50.196 50.099 50.089 50.064 50.031 57.406 58.801 59.006 58.609 57.316 52.024 50.016 48.711 46.011 45.924 45.914 45.891 45.881 45.781 45.701 45.571 45.481 45.326 45.251 45.156 45.031 44.941 44.874 44.869 48.534 53.171 52.814 53.029 53.004 52.961 52.934 52.889 52.874 52.909 53.119 52.894 43.331 51.681 54.011 54.326 55.096 54.074 54.164 54.806 54.209 54.114 46.496 49.489 53.929 51.664 54.234 53.941 53.676 54.411 53.206 53.644 52.726 50.266 48.719 48.521 42.121 40.089 39.969 39.899 40.001 42.206 42.644 40.089 39.279 40.176 40.524 40.666 48.959 51.051 50.694 50.951 49.916 47.884 41.569 40.566 40.341 40.216 40.216 40.191 40.124 40.494 40.414 40.006 38.181 38.131 38.511 38.059 38.061 39.506 39.869 38.651 38.759 38.061 37.609 37.489 37.379 37.389 37.701 37.826 37.499 37.694 38.149 38.224 38.716 38.591 38.589 38.696 38.079 38.061 38.054 37.984 37.921 37.906 37.906 37.999 38.456 38.629 37.914 40.006 42.536 43.569 42.919 40.106 38.869 37.731 36.876 36.751 36.696 36.964 36.856 37.216 38.021 36.851 36.204 36.131 37.154 42.049 40.664 39.834 40.749 35.961 35.861 35.844 35.859 35.854 36.536 36.541 36.816 35.654 35.921 36.956 35.671 36.319 37.741 37.446 36.529 40.661 42.329 44.529 47.316 48.116 48.096 47.264 43.871 38.006 37.089 36.406 36.696 36.184 36.671 36.689 36.266 36.319 36.329 36.251 36.301 36.199 36.279 36.629 37.024 38.094 43.149 47.331 47.999 48.121 47.271 45.736 40.891 40.751 38.091 35.914 35.539 35.111 35.091 35.266 35.709 35.734 36.801 41.151 40.836 36.854 39.014 41.031 41.139 41.156 39.104 36.204 39.359 41.706 42.506 43.331 43.156 44.739 46.704 48.191 46.986 47.049 42.936 37.851 46.781 47.696 48.011 48.019 48.086 48.714 48.106 47.984 47.831 46.026 47.529 47.376 46.814 46.066 45.819 46.281 45.854 44.099 42.154 38.854 38.414 39.171 36.104 35.534 35.924 35.336 35.309 35.234 35.454 35.384 35.639 35.281 35.394 35.544 35.724 35.749 35.549 35.689 35.501 35.299 34.931 34.836 34.736 34.811 34.939 35.104 34.929 34.541 34.554 34.971 35.079 34.539 34.509 34.514 34.526 34.546 34.511 34.491 34.504 34.461 34.426 34.444 34.406 34.379 34.349 34.291 34.336 34.401 34.248 34.261 34.218 34.253 34.256 34.283 34.313 34.223 34.188 34.246 39.023 37.968 39.918 41.643 34.838 34.083 36.846 35.791 35.148 35.001 34.373 34.688 34.398 35.088 35.206 34.041 34.281 34.078 34.563 34.676 34.058 34.593 34.463 37.276 38.166 39.248 34.131 42.501 44.431 44.401 44.851 45.021 45.358 45.443 45.673 45.973 46.036 46.933 46.686 46.181 46.203 46.111 45.836 46.048 45.466 45.201 45.183 44.828 44.503 38.606 35.853 39.256 40.803 39.646 38.738 33.883 34.256 37.936 39.036 38.936 37.088 33.733 32.761 32.748 32.763 33.318 32.958 32.811 32.901 33.428 33.328 40.516 44.108 45.051 44.211 39.051 32.678 32.701 32.738 32.711 32.691 33.191 34.753 34.368 33.046 32.696 32.678 32.641 32.601 32.531 32.541 32.631 32.666 32.648 32.618
